ply
format ascii 1.0
element vertex 824
property float x
property float y
property float z
end_header
-19.96442985534668 -3.2142038345336914 -2.4020309448242188
-19.895801544189453 -3.615342378616333 -2.4020309448242188
-19.818832397460938 -4.015121936798096 -2.4020309448242188
-19.64125633239746 -4.809455871582031 -2.4020309448242188
-19.431859970092773 -5.5960283279418945 -2.4020309448242188
-19.315216064453125 -5.985997676849365 -2.4020309448242188
-19.19083023071289 -6.373526096343994 -2.4020309448242188
-19.058664321899414 -6.758478164672852 -2.4020309448242188
-18.771224975585938 -7.520020484924316 -2.4020309448242188
-18.616071701049805 -7.896304607391357 -2.4020309448242188
-18.453378677368164 -8.269375801086426 -2.4020309448242188
-17.920692443847656 -9.367932319641113 -2.4020309448242188
-17.562664031982422 -9.63571834564209 -2.3795580863952637
-16.22364044189453 -9.770445823669434 -2.249630928039551
-16.024139404296875 -10.095227241516113 -2.2496821880340576
-15.81812858581543 -10.415982246398926 -2.2497432231903076
-15.6083345413208 -10.734349250793457 -2.2501916885375977
-15.174555778503418 -11.361966133117676 -2.2518043518066406
-14.105170249938965 -12.451910972595215 -2.234994411468506
-13.337774276733398 -13.28984260559082 -2.2365732192993164
-13.068806648254395 -13.556845664978027 -2.2367770671844482
-12.794500350952148 -13.818418502807617 -2.236987829208374
-12.514999389648438 -14.074503898620605 -2.2372052669525146
-11.940839767456055 -14.569730758666992 -2.2376596927642822
-11.646414756774902 -14.808682441711426 -2.23789644241333
-11.043432235717773 -15.268754959106445 -2.238389015197754
-9.458687782287598 -16.309972763061523 -2.2396163940429688
-9.129560470581055 -16.49894905090332 -2.2398757934570312
-8.796674728393555 -16.681339263916016 -2.2401411533355713
-7.430277347564697 -17.343442916870117 -2.241260528564453
-4.735666275024414 -12.411373138427734 -1.577970266342163
-6.372660160064697 -17.7673397064209 -2.2421579360961914
-3.8897545337677 -12.39324951171875 -1.5429508686065674
-4.925867080688477 -18.232608795166016 -2.2434258460998535
-4.558570861816406 -18.330745697021484 -2.2437546253204346
-3.4456005096435547 -18.58081817626953 -2.244767665863037
-2.3190879821777344 -18.763662338256836 -2.2458176612854004
-1.9412719011306763 -18.809532165527344 -2.2461752891540527
-1.5625646114349365 -18.847822189331055 -2.2465362548828125
-1.1830945014953613 -18.878515243530273 -2.246900796890259
-0.4225085377693176 -18.91705322265625 -2.2476396560668945
1.4814940690994263 -18.87969398498535 -2.24953556060791
1.8615001440048218 -18.849287033081055 -2.2499217987060547
2.24088978767395 -18.81125259399414 -2.2503104209899902
2.6195006370544434 -18.765596389770508 -2.2507007122039795
2.2386560440063477 -12.376120567321777 -1.4939706325531006
4.123132228851318 -18.507091522216797 -2.2522783279418945
-9.46120834350586 12.614785194396973 -2.2342329025268555
-9.712139129638672 12.420501708984375 -2.2339978218078613
-7.1773362159729 8.454272270202637 -1.5713393688201904
-7.393555641174316 8.36184024810791 -1.5815032720565796
-8.120222091674805 8.470746040344238 -1.6626110076904297
-8.454510688781738 8.471364974975586 -1.6957948207855225
-11.568622589111328 10.694257736206055 -2.232240915298462
-10.391258239746094 8.85743522644043 -1.9346307516098022
-10.316011428833008 8.440780639648438 -1.8886077404022217
-12.490763664245605 9.807225227355957 -2.2501449584960938
-11.829166412353516 8.541194915771484 -2.0673141479492188
-13.069464683532715 9.042227745056152 -2.251803159713745
-14.196866035461426 7.11079740524292 -2.2497599124908447
-14.67524528503418 6.274020671844482 -2.2616326808929443
-15.485140800476074 6.253970623016357 -2.3662936687469482
-15.843844413757324 6.030757427215576 -2.4020309448242188
-15.961874961853027 5.710649490356445 -2.4020309448242188
-16.07371711730957 5.388233661651611 -2.4020309448242188
-16.178909301757812 5.063628196716309 -2.4020309448242188
-16.369585037231445 4.408411026000977 -2.4020309448242188
-16.533742904663086 3.746039390563965 -2.4020309448242188
-16.671110153198242 3.077589750289917 -2.4020309448242188
-16.729673385620117 2.7414374351501465 -2.4020309448242188
-16.78145980834961 2.404168128967285 -2.4020309448242188
-16.948877334594727 0.36489883065223694 -2.4020309448242188
-16.923315048217773 -0.9994053244590759 -2.4020309448242188
-16.869382858276367 -1.6796889305114746 -2.4020309448242188
-16.83216094970703 -2.0188729763031006 -2.4020309448242188
-16.737274169921875 -2.6946423053741455 -2.4020309448242188
-16.615264892578125 -3.3660688400268555 -2.4020309448242188
-16.544151306152344 -3.6997933387756348 -2.4020309448242188
-16.381847381591797 -4.36262845993042 -2.4020309448242188
-16.290721893310547 -4.69145393371582 -2.4020309448242188
-15.86064338684082 -5.986439228057861 -2.4020309448242188
-15.736944198608398 -6.304443836212158 -2.4020309448242188
-15.17893123626709 -7.549670696258545 -2.4020309448242188
-14.69565486907959 -8.451932907104492 -2.4020309448242188
-14.522563934326172 -8.746004104614258 -2.4020309448242188
-14.343585014343262 -9.036519050598145 -2.4020309448242188
-13.968303680419922 -9.606451034545898 -2.4020309448242188
-12.907612800598145 -9.6646089553833 -2.284724473953247
-12.515416145324707 -9.77003002166748 -2.249630928039551
-11.90440559387207 -10.508855819702148 -2.2499234676361084
-11.257707595825195 -11.217242240905762 -2.251756429672241
-11.03254508972168 -11.444546699523926 -2.2523460388183594
-10.28736400604248 -12.04891586303711 -2.244788408279419
-9.775611877441406 -12.428719520568848 -2.240374803543091
-9.268327713012695 -12.814481735229492 -2.240811586380005
-9.00941276550293 -12.999670028686523 -2.2410261631011963
-8.480621337890625 -13.354366302490234 -2.2414705753326416
-8.210954666137695 -13.523738861083984 -2.2417001724243164
-7.937932968139648 -13.687689781188965 -2.2419345378875732
-6.81434965133667 -14.288033485412598 -2.242917776107788
-6.526147842407227 -14.423942565917969 -2.2431747913360596
-5.941683292388916 -14.678119659423828 -2.243665933609009
-4.744124412536621 -15.115374565124512 -2.244697093963623
-3.824697732925415 -15.379714012145996 -2.245513677597046
-3.514817476272583 -15.4555025100708 -2.245793581008911
-3.203436851501465 -15.525073051452637 -2.246077060699463
-2.8906962871551514 -15.588396072387695 -2.2463643550872803
-2.576695442199707 -15.645442962646484 -2.246654748916626
-1.9454588890075684 -15.740607261657715 -2.2472457885742188
-1.6284643411636353 -15.778677940368652 -2.2475459575653076
-1.3107482194900513 -15.810391426086426 -2.2478489875793457
-0.9924035668373108 -15.835723876953125 -2.248154878616333
-0.03496459871530533 -15.87333869934082 -2.2490885257720947
0.28456175327301025 -15.87305736541748 -2.2494046688079834
0.6040600538253784 -15.86635971069336 -2.249722957611084
1.5611315965652466 -15.807780265808105 -2.250689744949341
1.8792492151260376 -15.775440216064453 -2.2510156631469727
2.513348340988159 -15.691604614257812 -2.2516722679138184
3.143749952316284 -15.582315444946289 -2.252333879470825
3.457242250442505 -15.518177032470703 -2.2526662349700928
-8.142005920410156 10.85589599609375 -2.235496997833252
-8.358125686645508 10.688813209533691 -2.235285997390747
-8.575566291809082 10.523237228393555 -2.236307382583618
-7.393556118011475 8.36184024810791 -1.8387752771377563
-9.250628471374512 10.04713249206543 -2.2498738765716553
-10.036046028137207 9.277410507202148 -2.251525640487671
-10.222738265991211 9.07529067993164 -2.2519609928131104
-10.529982566833496 8.615853309631348 -2.241381883621216
-10.758248329162598 8.446918487548828 -2.2533183097839355
-10.923727035522461 8.2269287109375 -2.252837896347046
-11.240188598632812 7.77662467956543 -2.251676559448242
-11.537948608398438 7.314091205596924 -2.250486373901367
-11.679678916931152 7.078484535217285 -2.2498810291290283
-11.818897247314453 6.841451168060303 -2.249709367752075
-13.627016067504883 5.186949253082275 -2.4020309448242188
-13.824725151062012 4.634325981140137 -2.4020309448242188
-14.07919692993164 3.791597843170166 -2.4020309448242188
-14.15265941619873 3.507456064224243 -2.4020309448242188
-14.220385551452637 3.221903085708618 -2.4020309448242188
-14.282349586486816 2.935037851333618 -2.4020309448242188
-14.472137451171875 1.7768677473068237 -2.4020309448242188
-14.5319242477417 1.1929874420166016 -2.4020309448242188
-14.55298900604248 0.9002644419670105 -2.4020309448242188
-14.580795288085938 0.020385436713695526 -2.4020309448242188
-14.578252792358398 -0.27308836579322815 -2.4020309448242188
-14.569803237915039 -0.5664443969726562 -2.4020309448242188
-14.53520393371582 -1.152356505393982 -2.4020309448242188
-14.509065628051758 -1.444671630859375 -2.4020309448242188
-14.477055549621582 -1.736397624015808 -2.4020309448242188
-14.439167022705078 -2.027416706085205 -2.4020309448242188
-14.395448684692383 -2.317615270614624 -2.4020309448242188
-13.742329597473145 -4.873229026794434 -2.4020309448242188
-13.641463279724121 -5.148832321166992 -2.4020309448242188
-13.535240173339844 -5.422358989715576 -2.4020309448242188
-13.423205375671387 -5.693666934967041 -2.4020309448242188
-13.183181762695312 -6.2292656898498535 -2.4020309448242188
-13.055133819580078 -6.493343830108643 -2.4020309448242188
-12.783230781555176 -7.013493061065674 -2.4020309448242188
-12.639482498168945 -7.26936149597168 -2.4020309448242188
-12.490602493286133 -7.522284984588623 -2.4020309448242188
-12.177753448486328 -8.018880844116211 -2.4020309448242188
-12.013898849487305 -8.262340545654297 -2.4020309448242188
-11.845168113708496 -8.502474784851074 -2.4020309448242188
-11.67156982421875 -8.739154815673828 -2.4020309448242188
-11.310555458068848 -9.201803207397461 -2.4020309448242188
-11.122902870178223 -9.427573204040527 -2.4020309448242188
-10.929024696350098 -9.647783279418945 -2.4015939235687256
-10.506753921508789 -9.658170700073242 -2.3510525226593018
-9.277822494506836 -10.020292282104492 -2.249664545059204
-9.074383735656738 -10.205161094665527 -2.2497000694274902
-8.658745765686035 -10.565034866333008 -2.25032639503479
-7.787051677703857 -11.235957145690918 -2.2520833015441895
-7.560725688934326 -11.392496109008789 -2.2524948120117188
-6.612207889556885 -11.94999885559082 -2.2499217987060547
-6.357194900512695 -12.055399894714355 -2.2452166080474854
-6.108874797821045 -12.172049522399902 -2.2435834407806396
-5.616612434387207 -12.413708686828613 -2.244608163833618
-4.858732223510742 -12.733915328979492 -2.245293140411377
-4.601933002471924 -12.83047103881836 -2.245528221130371
-3.6153404712677 -12.386131286621094 -2.125627279281616
-3.556687593460083 -13.164716720581055 -2.246500253677368
-2.756675958633423 -13.359874725341797 -2.2472598552703857
-2.0410351753234863 -12.393131256103516 -2.069127321243286
-1.1278307437896729 -13.604010581970215 -2.248802423477173
-0.8538988828659058 -13.625547409057617 -2.249065637588501
-0.30491331219673157 -13.652113914489746 -2.2495992183685303
-0.030080566182732582 -13.657122611999512 -2.2498693466186523
0.24482299387454987 -13.656612396240234 -2.2501413822174072
0.7944384813308716 -13.639029502868652 -2.2506909370422363
1.0689196586608887 -13.621953010559082 -2.2509684562683105
1.6166722774505615 -13.571272850036621 -2.251527786254883
2.704277276992798 -13.404032707214355 -2.252661943435669
-7.185840129852295 9.581026077270508 -2.2510805130004883
-7.378235816955566 9.435749053955078 -2.2513887882232666
-7.754205226898193 9.133776664733887 -2.2520313262939453
-8.11795711517334 8.816948890686035 -2.2527081966400146
-8.295059204101562 8.653125762939453 -2.253058910369873
-8.637380599975586 8.313040733337402 -2.2532665729522705
-9.41893196105957 7.395355701446533 -2.250887393951416
-9.97777271270752 6.610289573669434 -2.2496659755706787
-10.108797073364258 6.408030033111572 -2.249630928039551
-10.791435241699219 6.246732234954834 -2.3436975479125977
-11.186688423156738 6.178314685821533 -2.4020309448242188
-11.308774948120117 5.951905250549316 -2.4020309448242188
-11.539189338684082 5.491954803466797 -2.4020309448242188
-11.647541999816895 5.25860595703125 -2.4020309448242188
-12.032541275024414 4.304818153381348 -2.4020309448242188
-12.270405769348145 3.5708398818969727 -2.4020309448242188
-12.339776039123535 3.323164701461792 -2.4020309448242188
-12.40416431427002 3.0741283893585205 -2.4020309448242188
-12.46353530883789 2.8238542079925537 -2.4020309448242188
-12.567097663879395 2.3199613094329834 -2.4020309448242188
-12.650260925292969 1.8123188018798828 -2.4020309448242188
-12.684175491333008 1.5573441982269287 -2.4020309448242188
-12.712956428527832 1.3017362356185913 -2.4020309448242188
-12.736574172973633 1.0455998182296753 -2.4020309448242188
-12.755040168762207 0.7890418767929077 -2.4020309448242188
-12.768342018127441 0.532162606716156 -2.4020309448242188
-12.779383659362793 0.017871398478746414 -2.4020309448242188
-12.777173042297363 -0.23934844136238098 -2.4020309448242188
-12.769776344299316 -0.49646344780921936 -2.4020309448242188
-12.757194519042969 -0.7533753514289856 -2.4020309448242188
-12.739445686340332 -1.0099881887435913 -2.4020309448242188
-12.71653938293457 -1.2661893367767334 -2.4020309448242188
-12.688563346862793 -1.5218746662139893 -2.4020309448242188
-12.57352066040039 -2.284820556640625 -2.4020309448242188
-12.471370697021484 -2.7889912128448486 -2.4020309448242188
-12.412711143493652 -3.0394394397735596 -2.4020309448242188
-12.349027633666992 -3.288654088973999 -2.4020309448242188
-12.2803316116333 -3.536524772644043 -2.4020309448242188
-12.206665992736816 -3.782979965209961 -2.4020309448242188
-12.128053665161133 -4.027886867523193 -2.4020309448242188
-12.044539451599121 -4.271167278289795 -2.4020309448242188
-11.862889289855957 -4.752440452575684 -2.4020309448242188
-10.673248291015625 -7.02818489074707 -2.4020309448242188
-10.073442459106445 -7.863813400268555 -2.4020309448242188
-9.580514907836914 -8.457390785217285 -2.4020309448242188
-9.232382774353027 -8.836104393005371 -2.4020309448242188
-9.052668571472168 -9.020132064819336 -2.4020309448242188
-8.869128227233887 -9.200510025024414 -2.4020309448242188
-8.245048522949219 -9.657069206237793 -2.3867290019989014
-7.920933723449707 -9.664885520935059 -2.348775625228882
-7.6068620681762695 -9.672294616699219 -2.3128926753997803
-7.301919937133789 -9.679320335388184 -2.2789604663848877
-7.014184951782227 -9.69787311553955 -2.249629259109497
-6.005363464355469 -10.355283737182617 -2.2500128746032715
-5.79655122756958 -10.475543022155762 -2.2503321170806885
-5.371699810028076 -10.703225135803223 -2.250938653945923
-4.937831878662109 -10.913477897644043 -2.251502275466919
-4.2716827392578125 -11.195357322692871 -2.2522644996643066
-3.3587377071380615 -11.507017135620117 -2.2531216144561768
-3.1267175674438477 -11.573238372802734 -2.2533066272735596
-2.6588072776794434 -11.69144058227539 -2.2536416053771973
-1.4702270030975342 -11.897615432739258 -2.2533018589019775
-0.7488305568695068 -11.950675964355469 -2.250666379928589
-0.2672998011112213 -11.968555450439453 -2.250180244445801
1.1774816513061523 -11.923980712890625 -2.2521443367004395
1.6580175161361694 -11.87828540802002 -2.254298686981201
1.896907925605774 -11.842976570129395 -2.254389762878418
2.13481068611145 -11.80196762084961 -2.254305839538574
2.607813596725464 -11.705427169799805 -2.254101276397705
-6.56744384765625 8.398869514465332 -2.2536745071411133
-6.734080791473389 8.263689041137695 -2.253319263458252
-7.058924198150635 7.983370304107666 -2.252584457397461
-7.371969223022461 7.690199851989746 -2.2518184185028076
-7.81844425201416 7.227434158325195 -2.2506139278411865
-7.960855484008789 7.06730318069458 -2.2501983642578125
-8.099960327148438 6.904351711273193 -2.2497758865356445
-8.236981391906738 6.739670276641846 -2.2496917247772217
-8.501391410827637 6.4025397300720215 -2.249630928039551
-9.028766632080078 6.246689319610596 -2.3207664489746094
-9.412088394165039 6.235448360443115 -2.386500597000122
-9.597664833068848 6.084092140197754 -2.4020309448242188
-9.834699630737305 5.692903518676758 -2.4020309448242188
-10.056132316589355 5.29248571395874 -2.4020309448242188
-10.356924057006836 4.675992965698242 -2.4020309448242188
-10.448935508728027 4.466592311859131 -2.4020309448242188
-10.620231628417969 4.04245662689209 -2.4020309448242188
-10.699442863464355 3.827885150909424 -2.4020309448242188
-10.774314880371094 3.6117680072784424 -2.4020309448242188
-10.844822883605957 3.3941831588745117 -2.4020309448242188
-10.9109468460083 3.1752209663391113 -2.4020309448242188
-10.972640037536621 2.954986572265625 -2.4020309448242188
-11.02989387512207 2.733541250228882 -2.4020309448242188
-11.082693099975586 2.510995626449585 -2.4020309448242188
-11.130993843078613 2.2874274253845215 -2.4020309448242188
-11.174774169921875 2.062929391860962 -2.4020309448242188
-11.248724937438965 1.6115297079086304 -2.4020309448242188
-11.30446720123291 1.157515048980713 -2.4020309448242188
-11.341897964477539 0.70162034034729 -2.4020309448242188
-11.353726387023926 0.47320327162742615 -2.4020309448242188
-11.360941886901855 0.24459457397460938 -2.4020309448242188
-11.363564491271973 0.015887144953012466 -2.4020309448242188
-11.361580848693848 -0.21283172070980072 -2.4020309448242188
-11.35499095916748 -0.4414585828781128 -2.4020309448242188
-11.343807220458984 -0.6699075102806091 -2.4020309448242188
-11.32802677154541 -0.8980901837348938 -2.4020309448242188
-11.307660102844238 -1.1259067058563232 -2.4020309448242188
-11.253195762634277 -1.580069899559021 -2.4020309448242188
-11.180481910705566 -2.031681537628174 -2.4020309448242188
-11.089658737182617 -2.4799957275390625 -2.4020309448242188
-11.037493705749512 -2.702695846557617 -2.4020309448242188
-10.98086166381836 -2.9242990016937256 -2.4020309448242188
-10.919781684875488 -3.144712209701538 -2.4020309448242188
-10.854275703430176 -3.363859176635742 -2.4020309448242188
-10.784375190734863 -3.581632614135742 -2.4020309448242188
-10.548580169677734 -4.225914001464844 -2.4020309448242188
-10.274332046508789 -4.854784965515137 -2.4020309448242188
-10.070619583129883 -5.264352798461914 -2.4020309448242188
-9.850598335266113 -5.66538667678833 -2.4020309448242188
-9.73456859588623 -5.8625030517578125 -2.4020309448242188
-9.6145601272583 -6.057234764099121 -2.4020309448242188
-9.49074649810791 -6.24952507019043 -2.4020309448242188
-9.231552124023438 -6.626414775848389 -2.4020309448242188
-9.096305847167969 -6.810871601104736 -2.4020309448242188
-8.814837455749512 -7.171436786651611 -2.4020309448242188
-8.365992546081543 -7.690321445465088 -2.4020309448242188
-8.209517478942871 -7.8571391105651855 -2.4020309448242188
-8.049713134765625 -8.020781517028809 -2.4020309448242188
-7.720396995544434 -8.33824348449707 -2.4020309448242188
-7.3785576820373535 -8.642204284667969 -2.4020309448242188
-6.843571662902832 -9.071731567382812 -2.4020309448242188
-6.659543991088867 -9.207632064819336 -2.4020309448242188
-6.47291374206543 -9.339799880981445 -2.4020309448242188
-6.283649921417236 -9.468185424804688 -2.4020309448242188
-5.866522789001465 -9.662361145019531 -2.389409065246582
-5.60683012008667 -9.66799259185791 -2.3624112606048584
-5.3526530265808105 -9.673333168029785 -2.3369123935699463
-5.103766441345215 -9.67839527130127 -2.3128457069396973
-4.859776973724365 -9.683192253112793 -2.290149211883545
-4.390041351318359 -9.702756881713867 -2.2511308193206787
-4.191073417663574 -9.782625198364258 -2.249630928039551
-3.9933390617370605 -9.86500072479248 -2.2496325969696045
-3.390801429748535 -10.088200569152832 -2.2496750354766846
-3.18715500831604 -10.154677391052246 -2.2497358322143555
-2.569079637527466 -10.330764770507812 -2.2502281665802
-2.360797166824341 -10.3810396194458 -2.2503714561462402
-1.7302892208099365 -10.506296157836914 -2.250737190246582
-1.5185668468475342 -10.539464950561523 -2.250837564468384
-1.3061864376068115 -10.568316459655762 -2.250927209854126
-0.8798608183860779 -10.613012313842773 -2.2510740756988525
-0.45204344391822815 -10.640312194824219 -2.2511770725250244
-0.23780761659145355 -10.647418975830078 -2.2512123584747314
0.4051806628704071 -10.642553329467773 -2.251251697540283
0.6192992925643921 -10.632203102111816 -2.2512431144714355
1.6842358112335205 -10.51520824432373 -2.251034736633301
2.105910539627075 -10.438164710998535 -2.250875234603882
2.3154711723327637 -10.393220901489258 -2.250779151916504
-5.749006271362305 7.66528844833374 -2.251906633377075
-5.90131950378418 7.546982288360596 -2.2515950202941895
-6.051161766052246 7.425628662109375 -2.2512762546539307
-6.4853715896606445 7.043790817260742 -2.2502760887145996
-6.62480354309082 6.910767555236816 -2.2499289512634277
-6.761849880218506 6.775338649749756 -2.249699115753174
-7.158414363861084 6.354732513427734 -2.249630928039551
-7.33561372756958 6.25282621383667 -2.265371561050415
-7.940401554107666 6.23443078994751 -2.3726539611816406
-8.164067268371582 6.148553371429443 -2.4020309448242188
-8.286171913146973 5.982986927032471 -2.4020309448242188
-8.632073402404785 5.472039699554443 -2.4020309448242188
-8.74066162109375 5.297195911407471 -2.4020309448242188
-8.845348358154297 5.12020206451416 -2.4020309448242188
-8.94661808013916 4.941136837005615 -2.4020309448242188
-9.0442533493042 4.760068416595459 -2.4020309448242188
-9.228498458862305 4.392218589782715 -2.4020309448242188
-9.551846504211426 3.635789155960083 -2.4020309448242188
-9.813316345214844 2.8557958602905273 -2.4020309448242188
-9.868805885314941 2.6577184200286865 -2.4020309448242188
-9.920272827148438 2.458547353744507 -2.4020309448242188
-9.967788696289062 2.258392095565796 -2.4020309448242188
-10.011221885681152 2.057314157485962 -2.4020309448242188
-10.050592422485352 1.8553974628448486 -2.4020309448242188
-10.085890769958496 1.65274178981781 -2.4020309448242188
-10.144232749938965 1.2454948425292969 -2.4020309448242188
-10.18614387512207 0.8362241983413696 -2.4020309448242188
-10.200909614562988 0.631039559841156 -2.4020309448242188
-10.21154499053955 0.4256013333797455 -2.4020309448242188
-10.218053817749023 0.21998701989650726 -2.4020309448242188
-10.21861457824707 -0.19142089784145355 -2.4020309448242188
-10.212691307067871 -0.39704880118370056 -2.4020309448242188
-10.09047794342041 -1.6245309114456177 -2.4020309448242188
-10.055731773376465 -1.8272963762283325 -2.4020309448242188
-9.762347221374512 -3.025458335876465 -2.4020309448242188
-9.699480056762695 -3.2213244438171387 -2.4020309448242188
-9.632678985595703 -3.4158871173858643 -2.4020309448242188
-9.326751708984375 -4.17952823638916 -2.4020309448242188
-9.240744590759277 -4.366400718688965 -2.4020309448242188
-8.75528335571289 -5.272741794586182 -2.4020309448242188
-8.536028861999512 -5.620832443237305 -2.4020309448242188
-8.421134948730469 -5.791483402252197 -2.4020309448242188
-8.30290699005127 -5.959806442260742 -2.4020309448242188
-8.056282997131348 -6.289122104644775 -2.4020309448242188
-7.928064823150635 -6.449995994567871 -2.4020309448242188
-7.662062644958496 -6.7638373374938965 -2.4020309448242188
-6.94373083114624 -7.499423027038574 -2.4020309448242188
-6.636281967163086 -7.772806644439697 -2.4020309448242188
-5.989654541015625 -8.281352043151855 -2.4020309448242188
-5.821764945983887 -8.400226593017578 -2.4020309448242188
-5.478987216949463 -8.627714157104492 -2.4020309448242188
-5.127366065979004 -8.841231346130371 -2.4020309448242188
-4.948329925537109 -8.942638397216797 -2.4020309448242188
-4.584419250488281 -9.134541511535645 -2.4020309448242188
-3.834918737411499 -9.473655700683594 -2.4020309448242188
-3.643472194671631 -9.548920631408691 -2.4020309448242188
-3.4505462646484375 -9.620317459106445 -2.4020309448242188
-3.249371290206909 -9.667333602905273 -2.3969523906707764
-2.6142871379852295 -9.676511764526367 -2.355738878250122
-2.4070591926574707 -9.679168701171875 -2.344114065170288
-1.7961584329605103 -9.686001777648926 -2.3152425289154053
-1.5955272912979126 -9.68791389465332 -2.3075544834136963
-1.3961254358291626 -9.689647674560547 -2.300807237625122
-1.1977832317352295 -9.691208839416504 -2.294987201690674
-1.000344157218933 -9.692597389221191 -2.290083169937134
-0.21656860411167145 -9.69647216796875 -2.2794618606567383
0.17384521663188934 -9.697418212890625 -2.279482126235962
0.3692053258419037 -9.697646141052246 -2.2808210849761963
0.7609728574752808 -9.697608947753906 -2.2861671447753906
0.9576806426048279 -9.697343826293945 -2.2901856899261475
1.1551427841186523 -9.69691276550293 -2.2951107025146484
1.552947998046875 -9.695545196533203 -2.307720184326172
1.7536169290542603 -9.694605827331543 -2.3154304027557373
1.9556713104248047 -9.693493843078613 -2.324096202850342
-5.214421272277832 6.952497482299805 -2.250164747238159
-5.6232476234436035 6.623694896697998 -2.2496707439422607
-5.75536584854126 6.5091071128845215 -2.2496488094329834
-5.8852128982543945 6.391904354095459 -2.249630928039551
-6.012576580047607 6.272163391113281 -2.249630928039551
-6.482303142547607 6.238882541656494 -2.329453945159912
-6.740407466888428 6.230778217315674 -2.3766069412231445
-6.9377899169921875 6.159045696258545 -2.4020309448242188
-7.060314178466797 6.018160343170166 -2.4020309448242188
-7.179952621459961 5.8748369216918945 -2.4020309448242188
-7.296741008758545 5.729142189025879 -2.4020309448242188
-7.521464824676514 5.430838584899902 -2.4020309448242188
-7.933863162994385 4.808330535888672 -2.4020309448242188
-8.209577560424805 4.320773601531982 -2.4020309448242188
-8.376826286315918 3.9868736267089844 -2.4020309448242188
-8.455370903015137 3.817471742630005 -2.4020309448242188
-8.73499870300293 3.125075101852417 -2.4020309448242188
-8.796127319335938 2.948639392852783 -2.4020309448242188
-8.853696823120117 2.7710046768188477 -2.4020309448242188
-8.958033561706543 2.4124438762664795 -2.4020309448242188
-9.047871589660645 2.0499696731567383 -2.4020309448242188
-9.123045921325684 1.6841700077056885 -2.4020309448242188
-9.155094146728516 1.50021493434906 -2.4020309448242188
-9.18343448638916 1.3156495094299316 -2.4020309448242188
-9.228946685791016 0.9449924826622009 -2.4020309448242188
-9.246088981628418 0.7590513229370117 -2.4020309448242188
-9.275045394897461 0.19968612492084503 -2.4020309448242188
-9.277183532714844 0.012970580719411373 -2.4020309448242188
-9.275564193725586 -0.17375503480434418 -2.4020309448242188
-9.270197868347168 -0.36040693521499634 -2.4020309448242188
-9.261058807373047 -0.5469110012054443 -2.4020309448242188
-9.21117877960205 -1.1048014163970947 -2.4020309448242188
-9.18707275390625 -1.2899655103683472 -2.4020309448242188
-9.159247398376465 -1.4746066331863403 -2.4020309448242188
-9.127684593200684 -1.658660888671875 -2.4020309448242188
-9.092506408691406 -1.8420361280441284 -2.4020309448242188
-9.053572654724121 -2.0246620178222656 -2.4020309448242188
-9.010981559753418 -2.2064743041992188 -2.4020309448242188
-8.914883613586426 -2.567335367202759 -2.4020309448242188
-8.861412048339844 -2.7462456226348877 -2.4020309448242188
-8.80434513092041 -2.9240379333496094 -2.4020309448242188
-8.679526329040527 -3.275998830795288 -2.4020309448242188
-8.61184024810791 -3.4500246047973633 -2.4020309448242188
-8.540657997131348 -3.6226556301116943 -2.4020309448242188
-8.466011047363281 -3.7938103675842285 -2.4020309448242188
-8.38793659210205 -3.9634358882904053 -2.4020309448242188
-8.306467056274414 -4.131457805633545 -2.4020309448242188
-8.133466720581055 -4.462409973144531 -2.4020309448242188
-8.04200267791748 -4.625209331512451 -2.4020309448242188
-7.947283744812012 -4.786135673522949 -2.4020309448242188
-7.8493475914001465 -4.945117473602295 -2.4020309448242188
-7.74822473526001 -5.10209846496582 -2.4020309448242188
-7.643968105316162 -5.2570013999938965 -2.4020309448242188
-7.077119827270508 -5.99839448928833 -2.4020309448242188
-6.95496129989624 -6.139625072479248 -2.4020309448242188
-6.70222806930542 -6.414549350738525 -2.4020309448242188
-6.571768760681152 -6.548149108886719 -2.4020309448242188
-6.438638210296631 -6.67909049987793 -2.4020309448242188
-6.1646270751953125 -6.932806015014648 -2.4020309448242188
-6.023833274841309 -7.055474758148193 -2.4020309448242188
-5.735008239746094 -7.292191982269287 -2.4020309448242188
-5.129952430725098 -7.72981071472168 -2.4020309448242188
-4.973345756530762 -7.831484794616699 -2.4020309448242188
-4.814711570739746 -7.930002689361572 -2.4020309448242188
-4.49166202545166 -8.117345809936523 -2.4020309448242188
-4.327376842498779 -8.206108093261719 -2.4020309448242188
-3.9936089515686035 -8.373611450195312 -2.4020309448242188
-3.4810056686401367 -8.599360466003418 -2.4020309448242188
-3.13153076171875 -8.732486724853516 -2.4020309448242188
-2.955676794052124 -8.793752670288086 -2.4020309448242188
-2.599416494369507 -8.905584335327148 -2.4020309448242188
-1.6915099620819092 -9.121682167053223 -2.4020309448242188
-1.507576823234558 -9.153884887695312 -2.4020309448242188
-1.3230199813842773 -9.182366371154785 -2.4020309448242188
-0.9523632526397705 -9.228177070617676 -2.4020309448242188
-0.7664587497711182 -9.245479583740234 -2.4020309448242188
0.1662646383047104 -9.27570629119873 -2.4020309448242188
0.3529309034347534 -9.27048110961914 -2.4020309448242188
0.5394909381866455 -9.261495590209961 -2.4020309448242188
0.7257922291755676 -9.248761177062988 -2.4020309448242188
0.9118078351020813 -9.23228645324707 -2.4020309448242188
1.097408413887024 -9.212065696716309 -2.4020309448242188
1.2825732231140137 -9.18811321258545 -2.4020309448242188
1.6513159275054932 -9.129050254821777 -2.4020309448242188
-5.296127796173096 6.238370418548584 -2.3166308403015137
-5.731292724609375 6.224844455718994 -2.395392417907715
-6.113454341888428 5.883884906768799 -2.4020309448242188
-6.345284461975098 5.633088111877441 -2.4020309448242188
-6.566864967346191 5.373146057128906 -2.4020309448242188
-6.673684120178223 5.239894866943359 -2.4020309448242188
-6.7777934074401855 5.104514122009277 -2.4020309448242188
-7.166369438171387 4.542873859405518 -2.4020309448242188
-7.343386173248291 4.2507758140563965 -2.4020309448242188
-7.733316421508789 3.491473913192749 -2.4020309448242188
-7.867563724517822 3.177417039871216 -2.4020309448242188
-7.929914951324463 3.018420934677124 -2.4020309448242188
-7.989068031311035 2.8582072257995605 -2.4020309448242188
-8.044967651367188 2.6968352794647217 -2.4020309448242188
-8.097624778747559 2.5343711376190186 -2.4020309448242188
-8.193048477172852 2.2064294815063477 -2.4020309448242188
-8.23580551147461 2.0410804748535156 -2.4020309448242188
-8.275212287902832 1.874909520149231 -2.4020309448242188
-8.311278343200684 1.7079768180847168 -2.4020309448242188
-8.343972206115723 1.5403488874435425 -2.4020309448242188
-8.399205207824707 1.2032982110977173 -2.4020309448242188
-8.440827369689941 0.8642942905426025 -2.4020309448242188
-8.456504821777344 0.6942307949066162 -2.4020309448242188
-8.468766212463379 0.5238884091377258 -2.4020309448242188
-8.477593421936035 0.3533329665660858 -2.4020309448242188
-8.484951972961426 0.011862640269100666 -2.4020309448242188
-8.478556632995605 -0.3296293616294861 -2.4020309448242188
-8.470194816589355 -0.5002067685127258 -2.4020309448242188
-8.458420753479004 -0.6705870032310486 -2.4020309448242188
-8.44321060180664 -0.8406928777694702 -2.4020309448242188
-8.42457103729248 -1.0104551315307617 -2.4020309448242188
-8.377080917358398 -1.3486807346343994 -2.4020309448242188
-8.348248481750488 -1.5170174837112427 -2.4020309448242188
-8.28044605255127 -1.851764440536499 -2.4020309448242188
-8.199196815490723 -2.1835174560546875 -2.4020309448242188
-8.15357494354248 -2.3480916023254395 -2.4020309448242188
-8.104679107666016 -2.5117263793945312 -2.4020309448242188
-8.052485466003418 -2.674335479736328 -2.4020309448242188
-7.99702787399292 -2.8358635902404785 -2.4020309448242188
-7.876421928405762 -3.1554055213928223 -2.4020309448242188
-7.81131649017334 -3.313293933868408 -2.4020309448242188
-7.743049621582031 -3.469835042953491 -2.4020309448242188
-7.671637535095215 -3.624971866607666 -2.4020309448242188
-7.519528865814209 -3.930786609649658 -2.4020309448242188
-7.268614768981934 -4.377417087554932 -2.4020309448242188
-7.179041385650635 -4.522822856903076 -2.4020309448242188
-7.0865478515625 -4.6663947105407715 -2.4020309448242188
-6.991196632385254 -4.808070659637451 -2.4020309448242188
-6.6883087158203125 -5.221215724945068 -2.4020309448242188
-6.472750663757324 -5.486152172088623 -2.4020309448242188
-6.361025810241699 -5.615318298339844 -2.4020309448242188
-6.246752738952637 -5.742212772369385 -2.4020309448242188
-6.129883289337158 -5.866774559020996 -2.4020309448242188
-6.010560989379883 -5.988961696624756 -2.4020309448242188
-5.7646708488464355 -6.226004123687744 -2.4020309448242188
-5.509417533874512 -6.452961444854736 -2.4020309448242188
-5.378429412841797 -6.5625433921813965 -2.4020309448242188
-5.245258808135986 -6.669467449188232 -2.4020309448242188
-5.109961032867432 -6.77368688583374 -2.4020309448242188
-4.972595691680908 -6.875160217285156 -2.4020309448242188
-4.403554439544678 -7.252809524536133 -2.4020309448242188
-4.108089447021484 -7.424151420593262 -2.4020309448242188
-3.9578349590301514 -7.505338191986084 -2.4020309448242188
-3.805973529815674 -7.583468914031982 -2.4020309448242188
-3.6525683403015137 -7.658534526824951 -2.4020309448242188
-3.4976866245269775 -7.73049783706665 -2.4020309448242188
-3.024798631668091 -7.92748498916626 -2.4020309448242188
-2.7033069133758545 -8.042802810668945 -2.4020309448242188
-2.540883779525757 -8.095582962036133 -2.4020309448242188
-1.714663028717041 -8.309903144836426 -2.4020309448242188
-1.3788366317749023 -8.372177124023438 -2.4020309448242188
-0.8710766434669495 -8.4401216506958 -2.4020309448242188
-0.701031506061554 -8.455951690673828 -2.4020309448242188
-0.5307018756866455 -8.468339920043945 -2.4020309448242188
0.32280272245407104 -8.478809356689453 -2.4020309448242188
0.663775622844696 -8.458949089050293 -2.4020309448242188
0.833892822265625 -8.443883895874023 -2.4020309448242188
1.0036742687225342 -8.425390243530273 -2.4020309448242188
1.1730468273162842 -8.403481483459473 -2.4020309448242188
1.341943383216858 -8.378170013427734 -2.4020309448242188
1.5103002786636353 -8.34946346282959 -2.4020309448242188
1.678038239479065 -8.317375183105469 -2.4020309448242188
-4.667120456695557 6.222788333892822 -2.3925039768218994
-5.1729350090026855 5.850477695465088 -2.4020309448242188
-5.289666652679443 5.745179176330566 -2.4020309448242188
-5.5166449546813965 5.527636528015137 -2.4020309448242188
-5.734635353088379 5.301139831542969 -2.4020309448242188
-5.840165138244629 5.184647560119629 -2.4020309448242188
-5.943331718444824 5.066054344177246 -2.4020309448242188
-6.044100761413574 4.945404052734375 -2.4020309448242188
-6.331523418426514 4.571645259857178 -2.4020309448242188
-6.510379314422607 4.313129901885986 -2.4020309448242188
-6.75880241394043 3.9123828411102295 -2.4020309448242188
-6.91077995300293 3.6372008323669434 -2.4020309448242188
-7.051566123962402 3.356126070022583 -2.4020309448242188
-7.117683410644531 3.2135252952575684 -2.4020309448242188
-7.180919647216797 3.0696160793304443 -2.4020309448242188
-7.2986369132995605 2.7781333923339844 -2.4020309448242188
-7.353075981140137 2.630671262741089 -2.4020309448242188
-7.4045281410217285 2.482147216796875 -2.4020309448242188
-7.452981948852539 2.3326146602630615 -2.4020309448242188
-7.498411178588867 2.182133674621582 -2.4020309448242188
-7.540826320648193 2.0307819843292236 -2.4020309448242188
-7.580172061920166 1.8785953521728516 -2.4020309448242188
-7.679727077484131 1.417724370956421 -2.4020309448242188
-7.70670747756958 1.2628709077835083 -2.4020309448242188
-7.7305588722229 1.1075056791305542 -2.4020309448242188
-7.768881797790527 0.7954872250556946 -2.4020309448242188
-7.783264636993408 0.6389716863632202 -2.4020309448242188
-7.807680606842041 0.1680949330329895 -2.4020309448242188
-7.8081207275390625 -0.14626632630825043 -2.4020309448242188
-7.795907497406006 -0.4603869616985321 -2.4020309448242188
-7.785064697265625 -0.6172030568122864 -2.4020309448242188
-7.771062850952148 -0.7737667560577393 -2.4020309448242188
-7.753915786743164 -0.9300153851509094 -2.4020309448242188
-7.683660507202148 -1.3962507247924805 -2.4020309448242188
-7.654073238372803 -1.5506155490875244 -2.4020309448242188
-7.621242523193359 -1.7043492794036865 -2.4020309448242188
-7.504497051239014 -2.1611664295196533 -2.4020309448242188
-7.459482669830322 -2.311774969100952 -2.4020309448242188
-7.411437034606934 -2.461437463760376 -2.4020309448242188
-7.360400199890137 -2.610104560852051 -2.4020309448242188
-7.306375980377197 -2.7577178478240967 -2.4020309448242188
-7.1894731521606445 -3.049530029296875 -2.4020309448242188
-7.126638412475586 -3.193608283996582 -2.4020309448242188
-6.846706867218018 -3.7564308643341064 -2.4020309448242188
-6.769713401794434 -3.893474578857422 -2.4020309448242188
-6.689979553222656 -4.028939723968506 -2.4020309448242188
-6.34427547454834 -4.553927421569824 -2.4020309448242188
-6.251338481903076 -4.680693626403809 -2.4020309448242188
-6.155866622924805 -4.805565357208252 -2.4020309448242188
-5.95747709274292 -5.049412727355957 -2.4020309448242188
-5.641907691955566 -5.399731159210205 -2.4020309448242188
-5.532067775726318 -5.51219367980957 -2.4020309448242188
-5.420005798339844 -5.622419834136963 -2.4020309448242188
-5.305764675140381 -5.730366230010986 -2.4020309448242188
-5.070836544036865 -5.939260005950928 -2.4020309448242188
-4.5767316818237305 -6.3278422355651855 -2.4020309448242188
-4.448451042175293 -6.418673515319824 -2.4020309448242188
-4.318366527557373 -6.506906509399414 -2.4020309448242188
-4.186532497406006 -6.592499256134033 -2.4020309448242188
-4.052999019622803 -6.6754279136657715 -2.4020309448242188
-3.917820930480957 -6.755648136138916 -2.4020309448242188
-3.7810587882995605 -6.833133220672607 -2.4020309448242188
-3.642759323120117 -6.9078521728515625 -2.4020309448242188
-3.5029900074005127 -6.979769706726074 -2.4020309448242188
-3.2192468643188477 -7.115093231201172 -2.4020309448242188
-3.075392484664917 -7.178445339202881 -2.4020309448242188
-2.9302923679351807 -7.238890171051025 -2.4020309448242188
-2.784003734588623 -7.2963995933532715 -2.4020309448242188
-2.4881017208099365 -7.402531147003174 -2.4020309448242188
-2.188173770904541 -7.496667861938477 -2.4020309448242188
-1.7317785024642944 -7.615056991577148 -2.4020309448242188
-1.4239050149917603 -7.678581237792969 -2.4020309448242188
-1.1137218475341797 -7.7296671867370605 -2.4020309448242188
-0.6452270150184631 -7.7827911376953125 -2.4020309448242188
-0.48845213651657104 -7.794198989868164 -2.4020309448242188
0.13997802138328552 -7.808234214782715 -2.4020309448242188
0.45411252975463867 -7.796274662017822 -2.4020309448242188
0.7675060629844666 -7.7716827392578125 -2.4020309448242188
1.0796630382537842 -7.734497547149658 -2.4020309448242188
1.235113501548767 -7.711199760437012 -2.4020309448242188
1.3900682926177979 -7.684778213500977 -2.4020309448242188
1.5444518327713013 -7.655245304107666 -2.4020309448242188
1.6982152462005615 -7.622609615325928 -2.4020309448242188
-4.4511823654174805 5.692508220672607 -2.4020309448242188
-4.564896583557129 5.6017680168151855 -2.4020309448242188
-4.6767144203186035 5.508754253387451 -2.4020309448242188
-4.7866435050964355 5.413509845733643 -2.4020309448242188
-4.894628047943115 5.316075801849365 -2.4020309448242188
-5.0006279945373535 5.216487407684326 -2.4020309448242188
-5.206515789031982 5.011008262634277 -2.4020309448242188
-5.306316375732422 4.905203342437744 -2.4020309448242188
-5.592662811279297 4.5760369300842285 -2.4020309448242188
-5.772299289703369 4.347253322601318 -2.4020309448242188
-5.942576885223389 4.111425876617432 -2.4020309448242188
-6.10322904586792 3.8689329624176025 -2.4020309448242188
-6.325585842132568 3.493565559387207 -2.4020309448242188
-6.394620418548584 3.365543842315674 -2.4020309448242188
-6.461062908172607 3.236156463623047 -2.4020309448242188
-6.524887561798096 3.1054601669311523 -2.4020309448242188
-6.70040225982666 2.706042528152466 -2.4020309448242188
-6.753509521484375 2.570636510848999 -2.4020309448242188
-6.896305561065674 2.1583914756774902 -2.4020309448242188
-6.938378810882568 2.019153356552124 -2.4020309448242188
-6.977609634399414 1.879104733467102 -2.4020309448242188
-7.014019012451172 1.738284707069397 -2.4020309448242188
-7.0782904624938965 1.4545960426330566 -2.4020309448242188
-7.106131553649902 1.3118360042572021 -2.4020309448242188
-7.172348499298096 0.8806098699569702 -2.4020309448242188
-7.18862247467041 0.7360743284225464 -2.4020309448242188
-7.20197868347168 0.5912415981292725 -2.4020309448242188
-7.224528789520264 0.1555403172969818 -2.4020309448242188
-7.213637351989746 -0.4260009527206421 -2.4020309448242188
-7.2036027908325195 -0.5711045861244202 -2.4020309448242188
-7.190648555755615 -0.7159748673439026 -2.4020309448242188
-7.156008720397949 -1.004781723022461 -2.4020309448242188
-7.052017688751221 -1.5770528316497803 -2.4020309448242188
-6.902336120605469 -2.1391100883483887 -2.4020309448242188
-6.857885360717773 -2.2775943279266357 -2.4020309448242188
-6.760666847229004 -2.551745653152466 -2.4020309448242188
-6.707942962646484 -2.6872966289520264 -2.4020309448242188
-6.470086574554443 -3.2180798053741455 -2.4020309448242188
-6.2640886306762695 -3.602673053741455 -2.4020309448242188
-6.114016532897949 -3.8518548011779785 -2.4020309448242188
-5.784428596496582 -4.331099033355713 -2.4020309448242188
-5.605438232421875 -4.5603861808776855 -2.4020309448242188
-5.512519836425781 -4.67227840423584 -2.4020309448242188
-5.417366027832031 -4.782282829284668 -2.4020309448242188
-5.320013523101807 -4.8903489112854 -2.4020309448242188
-5.118889808654785 -5.100492477416992 -2.4020309448242188
-4.909468650817871 -5.3023681640625 -2.4020309448242188
-4.580552101135254 -5.588981628417969 -2.4020309448242188
-4.234904766082764 -5.855220794677734 -2.4020309448242188
-4.116196632385254 -5.939268589019775 -2.4020309448242188
-3.9958300590515137 -6.020909786224365 -2.4020309448242188
-3.4986467361450195 -6.322773456573486 -2.4020309448242188
-3.110704183578491 -6.5223870277404785 -2.4020309448242188
-2.5760693550109863 -6.751437664031982 -2.4020309448242188
-2.4396629333496094 -6.801918029785156 -2.4020309448242188
-2.024739980697632 -6.936748027801514 -2.4020309448242188
-1.8847167491912842 -6.976093769073486 -2.4020309448242188
-1.6024328470230103 -7.046293258666992 -2.4020309448242188
-1.1742833852767944 -7.130154132843018 -2.4020309448242188
-1.0305383205413818 -7.152344703674316 -2.4020309448242188
-0.5970348715782166 -7.201498031616211 -2.4020309448242188
-0.16135497391223907 -7.224403381347656 -2.4020309448242188
-0.015916747972369194 -7.226186752319336 -2.4020309448242188
0.27491331100463867 -7.220972061157227 -2.4020309448242188
0.5653039216995239 -7.20405912399292 -2.4020309448242188
0.7101843357086182 -7.191222190856934 -2.4020309448242188
0.8547778129577637 -7.175472259521484 -2.4020309448242188
1.1428661346435547 -7.135256767272949 -2.4020309448242188
1.2862451076507568 -7.110809803009033 -2.4020309448242188
1.5713781118392944 -7.053284168243408 -2.4020309448242188
-4.243189811706543 5.20699405670166 -2.4020309448242188
-4.648220062255859 4.8488664627075195 -2.4020309448242188
-4.744877338409424 4.754328727722168 -2.4020309448242188
-4.932370662689209 4.559518337249756 -2.4020309448242188
-5.023141384124756 4.459320545196533 -2.4020309448242188
-5.111869812011719 4.357321739196777 -2.4020309448242188
-5.283095359802246 4.148059368133545 -2.4020309448242188
-5.36550760269165 4.040889263153076 -2.4020309448242188
-5.5237860679626465 3.821680784225464 -2.4020309448242188
-5.59958553314209 3.709728956222534 -2.4020309448242188
-5.673117637634277 3.5962798595428467 -2.4020309448242188
-5.87980318069458 3.247363805770874 -2.4020309448242188
-5.943970680236816 3.128363609313965 -2.4020309448242188
-6.065061569213867 2.8866100311279297 -2.4020309448242188
-6.410335540771484 2.0062859058380127 -2.4020309448242188
-6.449413299560547 1.8768583536148071 -2.4020309448242188
-6.550914764404297 1.4842365980148315 -2.4020309448242188
-6.628545761108398 1.0861982107162476 -2.4020309448242188
-6.64906644821167 0.9525672793388367 -2.4020309448242188
-6.666909217834473 0.818547785282135 -2.4020309448242188
-6.682020664215088 0.6842020750045776 -2.4020309448242188
-6.71112585067749 0.2797093093395233 -2.4020309448242188
-6.716949462890625 0.009390563704073429 -2.4020309448242188
-6.711884021759033 -0.260944664478302 -2.4020309448242188
-6.705269813537598 -0.3959793150424957 -2.4020309448242188
-6.683901786804199 -0.6655178666114807 -2.4020309448242188
-6.651702880859375 -0.9339717030525208 -2.4020309448242188
-6.631559371948242 -1.0676573514938354 -2.4020309448242188
-6.524209022521973 -1.5975502729415894 -2.4020309448242188
-6.45462703704834 -1.8588225841522217 -2.4020309448242188
-6.374593257904053 -2.117086172103882 -2.4020309448242188
-6.330691337585449 -2.2449562549591064 -2.4020309448242188
-6.129631996154785 -2.746826648712158 -2.4020309448242188
-6.073109149932861 -2.8696396350860596 -2.4020309448242188
-5.952694416046143 -3.1117329597473145 -2.4020309448242188
-5.822640419006348 -3.3487820625305176 -2.4020309448242188
-5.754060745239258 -3.465297222137451 -2.4020309448242188
-5.68314790725708 -3.5804033279418945 -2.4020309448242188
-5.609931945800781 -3.694063425064087 -2.4020309448242188
-5.210403919219971 -4.239001274108887 -2.4020309448242188
-5.1240386962890625 -4.343008995056152 -2.4020309448242188
-4.852606773376465 -4.644316673278809 -2.4020309448242188
-4.661765098571777 -4.835855960845947 -2.4020309448242188
-4.563485622406006 -4.928694725036621 -2.4020309448242188
-4.463362216949463 -5.019545555114746 -2.4020309448242188
-4.361428260803223 -5.108364582061768 -2.4020309448242188
-4.2577338218688965 -5.1951093673706055 -2.4020309448242188
-3.9364562034606934 -5.442586421966553 -2.4020309448242188
-3.826127290725708 -5.520712852478027 -2.4020309448242188
-3.4859869480133057 -5.7415452003479 -2.4020309448242188
-3.133143901824951 -5.94145393371582 -2.4020309448242188
-2.891484260559082 -6.062734127044678 -2.4020309448242188
-2.520350217819214 -6.2261810302734375 -2.4020309448242188
-2.394526243209839 -6.275643348693848 -2.4020309448242188
-2.1400158405303955 -6.366927146911621 -2.4020309448242188
-1.751894474029541 -6.484467506408691 -2.4020309448242188
-1.6210278272628784 -6.51841402053833 -2.4020309448242188
-1.4895031452178955 -6.549718856811523 -2.4020309448242188
-0.8239098787307739 -6.666230201721191 -2.4020309448242188
-0.6895739436149597 -6.68146276473999 -2.4020309448242188
-0.5549597144126892 -6.69398832321167 -2.4020309448242188
-0.42011961340904236 -6.70380163192749 -2.4020309448242188
-0.28510618209838867 -6.710898399353027 -2.4020309448242188
-0.01479492150247097 -6.716935157775879 -2.4020309448242188
0.25554075837135315 -6.7120890617370605 -2.4020309448242188
0.39058226346969604 -6.7055864334106445 -2.4020309448242188
0.5254650712013245 -6.696367263793945 -2.4020309448242188
0.6601355075836182 -6.6844353675842285 -2.4020309448242188
0.794537365436554 -6.669793605804443 -2.4020309448242188
0.928619384765625 -6.652451515197754 -2.4020309448242188
1.1955993175506592 -6.609689235687256 -2.4020309448242188
1.3283861875534058 -6.584288120269775 -2.4020309448242188
1.4606372117996216 -6.556218147277832 -2.4020309448242188
-2.222261905670166 2.6176276206970215 -1.315863013267517
-4.151963233947754 4.695711612701416 -2.4020309448242188
-4.245631217956543 4.611196994781494 -2.4020309448242188
-4.427770137786865 4.436593055725098 -2.4020309448242188
-4.687437057495117 4.16130256652832 -2.4020309448242188
-4.851113796234131 3.9692814350128174 -2.4020309448242188
-4.930018424987793 3.8708415031433105 -2.4020309448242188
-5.081807613372803 3.6692936420440674 -2.4020309448242188
-5.293977737426758 3.355935573577881 -2.4020309448242188
-5.360446453094482 3.2487053871154785 -2.4020309448242188
