ply
format ascii 1.0
element vertex 276
property float x
property float y
property float z
end_header
-38.89985656738281 -22.8848876953125 5.877155780792236
-42.15347671508789 -20.427690505981445 -0.2637316882610321
-39.90779113769531 -21.364015579223633 -0.2548588514328003
-39.70121383666992 -20.236026763916016 -1.2547379732131958
-41.082176208496094 -23.06840705871582 -1.3266749382019043
-39.71167755126953 -23.36248016357422 -1.2973453998565674
-39.706825256347656 -24.44859504699707 -1.3130106925964355
-46.96937561035156 -6.101388931274414 -2.4020309448242188
-46.8370361328125 -7.045536994934082 -2.4020309448242188
-43.193817138671875 -10.105669021606445 -2.249696731567383
-42.74226379394531 -11.833258628845215 -2.249180555343628
-41.92653274536133 -12.5212984085083 -2.2190709114074707
-40.894405364990234 -14.955683708190918 -2.208270311355591
-40.26335525512695 -16.591176986694336 -2.208491086959839
-39.92372512817383 -17.399316787719727 -2.2086284160614014
-39.568180084228516 -18.200674057006836 -2.2087836265563965
-39.19689178466797 -18.994916915893555 -2.208956241607666
-38.40753173828125 -20.560869216918945 -2.209355115890503
-37.55649948120117 -22.094585418701172 -2.2098050117492676
-36.73202896118164 -22.616947174072266 -2.1876437664031982
-32.39549255371094 -4.87315559387207 -2.4020309448242188
-32.290809631347656 -5.5242533683776855 -2.4020309448242188
-31.898569107055664 -7.4630303382873535 -2.4020309448242188
-29.991283416748047 -9.6184720993042 -2.309347152709961
-28.816774368286133 -10.538722038269043 -2.249772787094116
-28.39213752746582 -11.699447631835938 -2.251587390899658
-27.956178665161133 -12.183698654174805 -2.236013650894165
-26.72638702392578 -14.307552337646484 -2.222768783569336
-26.43486785888672 -14.843667030334473 -2.2229268550872803
-26.132728576660156 -15.37393856048584 -2.223097085952759
-20.191492080688477 -12.43246078491211 -1.7385778427124023
-24.811410903930664 -3.223036766052246 -2.4020309448242188
-24.741483688354492 -3.7218031883239746 -2.4020309448242188
-24.66155242919922 -4.219053745269775 -2.4020309448242188
-24.57166290283203 -4.714599609375 -2.4020309448242188
-24.4718017578125 -5.208230972290039 -2.4020309448242188
-24.112821578979492 -6.675670146942139 -2.4020309448242188
-23.824594497680664 -7.6407599449157715 -2.4020309448242188
-23.66596794128418 -8.118765830993652 -2.4020309448242188
-23.497760772705078 -8.593477249145508 -2.4020309448242188
-23.13286781311035 -9.532280921936035 -2.4020309448242188
-21.288280487060547 -9.792238235473633 -2.249630928039551
-21.08761215209961 -10.21911334991455 -2.2497081756591797
-20.878414154052734 -10.641874313354492 -2.249788999557495
-20.667497634887695 -11.064021110534668 -2.250612735748291
-20.450363159179688 -11.483259201049805 -2.2516839504241943
-19.83378791809082 -12.212214469909668 -2.236147165298462
-19.859262466430664 -3.8104255199432373 -2.4020309448242188
-19.778541564941406 -4.209386825561523 -2.4020309448242188
-19.593095779418945 -5.002033710479736 -2.4020309448242188
-19.375736236572266 -5.786567687988281 -2.4020309448242188
-19.127290725708008 -6.561742305755615 -2.4020309448242188
-18.99134063720703 -6.945412635803223 -2.4020309448242188
-18.847686767578125 -7.326279640197754 -2.4020309448242188
-18.696407318115234 -7.704161643981934 -2.4020309448242188
-18.53754997253418 -8.078924179077148 -2.4020309448242188
-18.37117576599121 -8.450422286987305 -2.4020309448242188
-18.19736099243164 -8.81849193572998 -2.4020309448242188
-17.827678680419922 -9.543771743774414 -2.4020309448242188
-17.174909591674805 -9.64403247833252 -2.3397650718688965
-16.421791076660156 -9.6613187789917 -2.2632856369018555
-16.811552047729492 -2.1838438510894775 -2.4020309448242188
-16.58143424987793 -3.528958559036255 -2.4020309448242188
-16.42595863342285 -4.193477630615234 -2.4020309448242188
-16.338220596313477 -4.523262023925781 -2.4020309448242188
-16.14293098449707 -5.177181243896484 -2.4020309448242188
-15.801044464111328 -6.142019748687744 -2.4020309448242188
-15.674217224121094 -6.4588189125061035 -2.4020309448242188
-15.255842208862305 -7.393021583557129 -2.4020309448242188
-14.945916175842285 -8.001063346862793 -2.4020309448242188
-14.611769676208496 -8.596141815185547 -2.4020309448242188
-14.459309577941895 -1.878286361694336 -2.4020309448242188
-14.418585777282715 -2.1689441204071045 -2.4020309448242188
-14.319605827331543 -2.747523546218872 -2.4020309448242188
-14.26140308380127 -3.0351967811584473 -2.4020309448242188
-14.197419166564941 -3.3216428756713867 -2.4020309448242188
-14.127685546875 -3.606736898422241 -2.4020309448242188
-14.05222225189209 -3.890378713607788 -2.4020309448242188
-13.6937837600708 -5.008020877838135 -2.4020309448242188
-13.590167045593262 -5.282641410827637 -2.4020309448242188
-13.3665771484375 -5.825343608856201 -2.4020309448242188
-13.246614456176758 -6.093212604522705 -2.4020309448242188
-12.99063777923584 -6.621431350708008 -2.4020309448242188
-12.567334175109863 -7.393392562866211 -2.4020309448242188
-12.67301082611084 -1.6462332010269165 -2.4020309448242188
-12.637247085571289 -1.9009826183319092 -2.4020309448242188
-12.55049991607666 -2.4080810546875 -2.4020309448242188
-12.087900161743164 -4.146833896636963 -2.4020309448242188
-11.91120719909668 -4.630002498626709 -2.4020309448242188
-11.815597534179688 -4.868813991546631 -2.4020309448242188
-11.715206146240234 -5.105652332305908 -2.4020309448242188
-11.385703086853027 -5.803385257720947 -2.4020309448242188
-11.266681671142578 -6.031397342681885 -2.4020309448242188
-11.14290714263916 -6.256949424743652 -2.4020309448242188
-11.268892288208008 -1.463845133781433 -2.4020309448242188
-11.23714542388916 -1.6903698444366455 -2.4020309448242188
-11.20085620880127 -1.9162203073501587 -2.4020309448242188
-11.160005569458008 -2.1412861347198486 -2.4020309448242188
-10.951620101928711 -3.0319721698760986 -2.4020309448242188
-10.748672485351562 -3.687401294708252 -2.4020309448242188
-10.672272682189941 -3.9030070304870605 -2.4020309448242188
-10.591550827026367 -4.117036819458008 -2.4020309448242188
-10.226091384887695 -4.955592155456543 -2.4020309448242188
-10.124271392822266 -5.160421848297119 -2.4020309448242188
-9.908363342285156 -5.563731670379639 -2.4020309448242188
-9.676422119140625 -5.9580278396606445 -2.4020309448242188
-10.10669994354248 -1.5203198194503784 -2.4020309448242188
-10.037310600280762 -1.9258747100830078 -2.4020309448242188
-9.996519088745117 -2.127519130706787 -2.4020309448242188
-9.793013572692871 -2.924668550491333 -2.4020309448242188
-9.667364120483398 -3.3164525032043457 -2.4020309448242188
-9.598651885986328 -3.5103683471679688 -2.4020309448242188
-9.449585914611816 -3.89385724067688 -2.4020309448242188
-9.285209655761719 -4.27103328704834 -2.4020309448242188
-9.19736099243164 -4.457066535949707 -2.4020309448242188
-9.105781555175781 -4.641288757324219 -2.4020309448242188
-9.010516166687012 -4.823637008666992 -2.4020309448242188
-8.911592483520508 -5.004025936126709 -2.4020309448242188
-9.111050605773926 -1.7481414079666138 -2.4020309448242188
-9.073973655700684 -1.9311765432357788 -2.4020309448242188
-9.033259391784668 -2.1134326457977295 -2.4020309448242188
-8.988895416259766 -2.294825553894043 -2.4020309448242188
-8.834012031555176 -2.8331456184387207 -2.4020309448242188
-8.712822914123535 -3.1864070892333984 -2.4020309448242188
-8.265429496765137 -4.212954998016357 -2.4020309448242188
-8.178951263427734 -4.378474712371826 -2.4020309448242188
-8.089167594909668 -4.5422186851501465 -2.4020309448242188
-7.996101379394531 -4.704123497009277 -2.4020309448242188
-8.363447189331055 -1.4308035373687744 -2.4020309448242188
-8.261855125427246 -1.9329524040222168 -2.4020309448242188
-8.221275329589844 -2.098855972290039 -2.4020309448242188
-8.177356719970703 -2.2639129161834717 -2.4020309448242188
-8.130132675170898 -2.4280529022216797 -2.4020309448242188
-8.079611778259277 -2.591203212738037 -2.4020309448242188
-7.7783684730529785 -3.3899219036102295 -2.4020309448242188
-7.635626792907715 -3.7002439498901367 -2.4020309448242188
-7.480498313903809 -4.004567623138428 -2.4020309448242188
-7.398382186889648 -4.154330253601074 -2.4020309448242188
-7.22518253326416 -4.4487433433532715 -2.4020309448242188
-7.722604274749756 -1.1616878509521484 -2.4020309448242188
-7.69765567779541 -1.3169010877609253 -2.4020309448242188
-7.669588565826416 -1.4715750217437744 -2.4020309448242188
-7.526376724243164 -2.0836892127990723 -2.4020309448242188
-7.482913494110107 -2.2347607612609863 -2.4020309448242188
-7.386904716491699 -2.534126043319702 -2.4020309448242188
-7.334399223327637 -2.682298183441162 -2.4020309448242188
-7.094893455505371 -3.2635278701782227 -2.4020309448242188
-6.884997844696045 -3.6857759952545166 -2.4020309448242188
-6.7310686111450195 -3.959902763366699 -2.4020309448242188
-6.65000057220459 -4.094588756561279 -2.4020309448242188
-7.145809650421143 -1.0749224424362183 -2.4020309448242188
-7.122725009918213 -1.2185428142547607 -2.4020309448242188
-7.09675407409668 -1.3616644144058228 -2.4020309448242188
-7.067908763885498 -1.5042343139648438 -2.4020309448242188
-7.036218166351318 -1.6461974382400513 -2.4020309448242188
-6.9642333984375 -1.9280602931976318 -2.4020309448242188
-6.835184097290039 -2.344853639602661 -2.4020309448242188
-6.7866058349609375 -2.481959581375122 -2.4020309448242188
-6.681204795837402 -2.7531001567840576 -2.4020309448242188
-6.564982891082764 -3.019777774810791 -2.4020309448242188
-6.438122272491455 -3.2815611362457275 -2.4020309448242188
-6.228328704833984 -3.66414213180542 -2.4020309448242188
-6.153319358825684 -3.788766622543335 -2.4020309448242188
-6.660987854003906 -0.8652715682983398 -2.4020309448242188
-6.642221927642822 -0.9991689920425415 -2.4020309448242188
-6.62076473236084 -1.132668137550354 -2.4020309448242188
-6.596624374389648 -1.265703558921814 -2.4020309448242188
-6.5698113441467285 -1.398226261138916 -2.4020309448242188
-6.540335655212402 -1.5301852226257324 -2.4020309448242188
-6.508246421813965 -1.661517858505249 -2.4020309448242188
-6.473469257354736 -1.792183756828308 -2.4020309448242188
-6.308334827423096 -2.3070480823516846 -2.4020309448242188
-6.260618209838867 -2.433560848236084 -2.4020309448242188
-6.157595157623291 -2.6835665702819824 -2.4020309448242188
-6.102331638336182 -2.806964874267578 -2.4020309448242188
-5.984408855438232 -3.050299882888794 -2.4020309448242188
-5.856792449951172 -3.2886955738067627 -2.4020309448242188
-5.789404392242432 -3.405919075012207 -2.4020309448242188
-5.71967077255249 -3.521761178970337 -2.4020309448242188
-6.215830326080322 -0.8074448704719543 -2.4020309448242188
-6.1983184814453125 -0.9323937892913818 -2.4020309448242188
-6.155768394470215 -1.181115746498108 -2.4020309448242188
-6.130746364593506 -1.3047819137573242 -2.4020309448242188
-6.073269367218018 -1.5504778623580933 -2.4020309448242188
-6.040793418884277 -1.672410488128662 -2.4020309448242188
-5.8867363929748535 -2.1528661251068115 -2.4020309448242188
-5.84221076965332 -2.270923614501953 -2.4020309448242188
-5.795316219329834 -2.3880558013916016 -2.4020309448242188
-5.584464073181152 -2.8464457988739014 -2.4020309448242188
-5.526036262512207 -2.9582772254943848 -2.4020309448242188
-5.402492523193359 -3.1782994270324707 -2.4020309448242188
-5.82009220123291 -0.7560381889343262 -2.4020309448242188
-5.784945964813232 -0.9896778464317322 -2.4020309448242188
-5.763854026794434 -1.1059187650680542 -2.4020309448242188
-5.656228065490723 -1.5659351348876953 -2.4020309448242188
-5.623570919036865 -1.6794686317443848 -2.4020309448242188
-5.588610649108887 -1.7923197746276855 -2.4020309448242188
-5.470259666442871 -2.1263413429260254 -2.4020309448242188
-5.426352500915527 -2.236017942428589 -2.4020309448242188
-5.380244255065918 -2.3447864055633545 -2.4020309448242188
-5.331967830657959 -2.4526078701019287 -2.4020309448242188
-5.22892427444458 -2.665224313735962 -2.4020309448242188
-5.058536052703857 -2.97594952583313 -2.4020309448242188
-4.997611999511719 -3.07716703414917 -2.4020309448242188
-5.465640068054199 -0.7099941968917847 -2.4020309448242188
-5.3908257484436035 -1.1473073959350586 -2.4020309448242188
-5.366639137268066 -1.2555859088897705 -2.4020309448242188
-5.31175422668457 -1.4705674648284912 -2.4020309448242188
-5.213202953338623 -1.788463830947876 -2.4020309448242188
-5.137120246887207 -1.9968453645706177 -2.4020309448242188
-5.095877647399902 -2.0998408794403076 -2.4020309448242188
-5.052579879760742 -2.2019853591918945 -2.4020309448242188
-4.959859371185303 -2.403561592102051 -2.4020309448242188
-4.859097957611084 -2.601243257522583 -2.4020309448242188
-4.750464916229248 -2.794708490371704 -2.4020309448242188
-5.146025657653809 -0.6684758067131042 -2.4020309448242188
-5.13153076171875 -0.7719203233718872 -2.4020309448242188
-5.075586318969727 -1.0802162885665894 -2.4020309448242188
-5.001138687133789 -1.3845728635787964 -2.4020309448242188
-4.972257137298584 -1.484957218170166 -2.4020309448242188
-4.941362380981445 -1.5847386121749878 -2.4020309448242188
-4.908461093902588 -1.6838796138763428 -2.4020309448242188
-4.873548984527588 -1.7823379039764404 -2.4020309448242188
-4.8367414474487305 -1.880074381828308 -2.4020309448242188
-4.797880172729492 -1.9770493507385254 -2.4020309448242188
-4.75712251663208 -2.07322096824646 -2.4020309448242188
-4.669825553894043 -2.2630093097686768 -2.4020309448242188
-4.623332977294922 -2.3565456867218018 -2.4020309448242188
-4.472671985626221 -2.6312828063964844 -2.4020309448242188
-4.842392921447754 -0.7284260392189026 -2.4020309448242188
-4.809150218963623 -0.9227384924888611 -2.4020309448242188
-4.789602756500244 -1.0193514823913574 -2.4020309448242188
-4.7681145668029785 -1.1155542135238647 -2.4020309448242188
-4.69209623336792 -1.40128755569458 -2.4020309448242188
-4.598971843719482 -1.6819121837615967 -2.4020309448242188
-4.52755069732666 -1.8656518459320068 -2.4020309448242188
-4.362824440002441 -2.223766565322876 -2.4020309448242188
-4.269793510437012 -2.397564649581909 -2.4020309448242188
-4.2206573486328125 -2.4830245971679688 -2.4020309448242188
-4.169826507568359 -2.5674760341644287 -2.4020309448242188
-4.578645706176758 -0.6887516379356384 -2.4020309448242188
-4.563856601715088 -0.78077632188797 -2.4020309448242188
-4.547214984893799 -0.8724802732467651 -2.4020309448242188
-4.508413791656494 -1.054794192314148 -2.4020309448242188
-4.408967018127441 -1.4139950275421143 -2.4020309448242188
-4.280946731567383 -1.7640371322631836 -2.4020309448242188
-4.206475257873535 -1.9349095821380615 -2.4020309448242188
-4.166678428649902 -2.0191872119903564 -2.4020309448242188
-4.125197887420654 -2.1026463508605957 -2.4020309448242188
-4.037225723266602 -2.2669777870178223 -2.4020309448242188
-3.990776300430298 -2.347782611846924 -2.4020309448242188
-4.336847305297852 -0.652378499507904 -2.4020309448242188
-4.322839260101318 -0.7395434379577637 -2.4020309448242188
-4.307075500488281 -0.8264043927192688 -2.4020309448242188
-4.28956937789917 -0.9129316210746765 -2.4020309448242188
-4.226651668548584 -1.1701545715332031 -2.4020309448242188
-4.202242374420166 -1.2549934387207031 -2.4020309448242188
-4.176130294799805 -1.3393222093582153 -2.4020309448242188
-4.11884069442749 -1.506320595741272 -2.4020309448242188
-4.054891109466553 -1.6708779335021973 -2.4020309448242188
-4.020411968231201 -1.7521566152572632 -2.4020309448242188
-3.9843389987945557 -1.8327267169952393 -2.4020309448242188
-3.946636199951172 -1.9125536680221558 -2.4020309448242188
-3.907355785369873 -1.9916057586669922 -2.4020309448242188
-3.8240203857421875 -2.1472582817077637 -2.4020309448242188
-3.780024290084839 -2.2237961292266846 -2.4020309448242188
-4.114153861999512 -0.6188795566558838 -2.4020309448242188
-3.935312509536743 -1.350034475326538 -2.4020309448242188
-3.9073405265808105 -1.4289720058441162 -2.4020309448242188
-3.846661329269409 -1.5850802659988403 -2.4020309448242188
-3.81400203704834 -1.6621843576431274 -2.4020309448242188
-3.7797436714172363 -1.7386165857315063 -2.4020309448242188
-3.7439842224121094 -1.8143447637557983 -2.4020309448242188
-3.706712007522583 -1.8893373012542725 -2.4020309448242188
-3.62766170501709 -2.0369982719421387 -2.4020309448242188
-3.5859227180480957 -2.1096057891845703 -2.4020309448242188
