ply
format ascii 1.0
element vertex 826
property float x
property float y
property float z
end_header
-3.078416585922241 -20.244731903076172 -1.0384985208511353
-2.663825511932373 -20.255834579467773 -1.0361049175262451
-2.2501232624053955 -20.259153366088867 -1.0337461233139038
-1.8387792110443115 -20.26955223083496 -1.0321766138076782
-1.3297936916351318 -44.264244079589844 -2.2458417415618896
1.3475987911224365 -44.31196594238281 -2.24828839302063
3.1336376667022705 -44.25407791137695 -2.2499330043792725
4.025931358337402 -44.19818878173828 -2.250758409500122
5.807208061218262 -44.03252029418945 -2.252413749694824
6.695484638214111 -43.92275619506836 -2.2532429695129395
7.566701412200928 -43.70851135253906 -2.2496156692504883
8.445619583129883 -43.547210693359375 -2.2496156692504883
10.883332252502441 -46.09636306762695 -2.4020156860351562
14.558442115783691 -45.070735931396484 -2.4020156860351562
16.362060546875 -44.44776153564453 -2.4020156860351562
18.13908576965332 -43.75262451171875 -2.4020156860351562
5.445466041564941 -12.421442985534668 -0.6878191828727722
20.748565673828125 -42.57722473144531 -2.4020156860351562
22.446720123291016 -41.70689392089844 -2.4020156860351562
25.110448837280273 -38.805686950683594 -2.3440840244293213
25.078275680541992 -37.09566879272461 -2.2708489894866943
26.30382537841797 -35.71830368041992 -2.2496156692504883
27.721168518066406 -34.62982177734375 -2.2496156692504883
28.294574737548828 -33.92225646972656 -2.240229368209839
28.650115966796875 -29.207096099853516 -2.0748789310455322
-27.91431999206543 -12.220525741577148 -2.234365463256836
-27.255157470703125 -13.264241218566895 -2.2225003242492676
-26.409488677978516 -14.889162063598633 -2.2229409217834473
-25.79244613647461 -15.94338607788086 -2.2232959270477295
-25.133861541748047 -16.97243309020996 -2.2236995697021484
-24.789352416992188 -17.476999282836914 -2.22391939163208
-16.896833419799805 -12.42960262298584 -1.5380151271820068
-23.695907592773438 -18.9482421875 -2.224613666534424
-23.3116455078125 -19.423585891723633 -2.2248270511627197
-22.917972564697266 -19.89124870300293 -2.22505259513855
-22.502925872802734 -20.340087890625 -2.224092721939087
-21.68202018737793 -21.246278762817383 -2.2258005142211914
-21.252225875854492 -21.68140411376953 -2.2260730266571045
-19.911846160888672 -22.934537887573242 -2.226959705352783
-19.448589324951172 -23.33432388305664 -2.227277994155884
-18.016115188598633 -24.48324203491211 -2.2288119792938232
-17.523792266845703 -24.847591400146484 -2.229386568069458
-16.00336456298828 -25.88052749633789 -2.2311019897460938
-14.955575942993164 -26.517728805541992 -2.232246160507202
-14.422019004821777 -26.82038116455078 -2.2328100204467773
-13.336833000183105 -27.393566131591797 -2.233954429626465
-12.785611152648926 -27.663846969604492 -2.234534502029419
-9.473777770996094 -25.764982223510742 -2.012805461883545
-8.888082504272461 -25.762853622436523 -1.9982436895370483
-8.31081485748291 -25.76151466369629 -1.9847502708435059
-7.755341529846191 -25.807682037353516 -1.9758673906326294
-7.187203884124756 -25.79109764099121 -1.9631129503250122
-7.606254577636719 -29.587291717529297 -2.2399442195892334
-3.938788414001465 -20.349328994750977 -1.5197502374649048
-3.477869749069214 -20.133880615234375 -1.4981220960617065
-3.064309597015381 -20.151960372924805 -1.494570016860962
-2.6475720405578613 -20.132240295410156 -1.48884916305542
-2.236384153366089 -20.13541030883789 -1.4854496717453003
-0.6119238138198853 -20.368850708007812 -1.494161605834961
-0.30308103561401367 -30.65044403076172 -2.2474656105041504
0.314483642578125 -30.65892791748047 -2.248096466064453
0.9322619438171387 -30.65496253967285 -2.2487266063690186
2.1674718856811523 -30.60964012145996 -2.2499842643737793
4.015651702880859 -30.44820785522461 -2.2518599033355713
4.629449367523193 -30.369510650634766 -2.252480983734131
5.241719722747803 -30.278411865234375 -2.2530999183654785
5.852176189422607 -30.174930572509766 -2.253716230392456
7.063482284545898 -29.917369842529297 -2.253915786743164
8.840651512145996 -29.379966735839844 -2.2496156692504883
10.069547653198242 -31.17380714416504 -2.4020156860351562
10.69546127319336 -30.964643478393555 -2.4020156860351562
12.546152114868164 -30.262123107910156 -2.4020156860351562
5.445466041564941 -12.421440124511719 -0.9944416880607605
5.706386566162109 -12.334759712219238 -0.9965043663978577
14.351032257080078 -29.449098587036133 -2.4020156860351562
15.525585174560547 -28.847145080566406 -2.4020156860351562
16.103532791137695 -28.528539657592773 -2.4020156860351562
16.674943923950195 -28.198366165161133 -2.4020156860351562
17.239582061767578 -27.856760025024414 -2.4020156860351562
19.953344345092773 -25.982032775878906 -2.4020156860351562
20.472646713256836 -25.574831008911133 -2.4020156860351562
20.98367691040039 -25.157243728637695 -2.4020156860351562
21.97998046875 -24.29161262512207 -2.4020156860351562
22.4648380279541 -23.84392738342285 -2.4020156860351562
23.863954544067383 -22.443552017211914 -2.4020156860351562
24.311208724975586 -21.95829963684082 -2.4020156860351562
-22.016775131225586 -9.63824462890625 -2.3073840141296387
-21.0705509185791 -10.254389762878418 -2.2497148513793945
-20.64946174621582 -11.099645614624023 -2.2507035732269287
-20.43140411376953 -11.51883316040039 -2.251775026321411
-19.801795959472656 -12.240368843078613 -2.234957695007324
-18.43954849243164 -14.145613670349121 -2.2311935424804688
-18.152454376220703 -14.515464782714844 -2.2313895225524902
-17.85801887512207 -14.879539489746094 -2.2315945625305176
-17.55634117126465 -15.237711906433105 -2.2318081855773926
-17.24752426147461 -15.589828491210938 -2.2320306301116943
-12.66597843170166 -12.41142749786377 -1.7024877071380615
-14.167560577392578 -18.462257385253906 -2.234206199645996
-13.794455528259277 -18.746156692504883 -2.23447585105896
-13.415719032287598 -19.022615432739258 -2.2347536087036133
-13.031469345092773 -19.29143714904785 -2.235039234161377
-7.666033744812012 -12.397453308105469 -1.3993864059448242
-11.847308158874512 -20.051441192626953 -2.2359442710876465
-11.033185958862305 -20.51823616027832 -2.236585855484009
-8.92094612121582 -21.540369033813477 -2.2383170127868652
-8.486613273620605 -21.71923828125 -2.2386837005615234
-7.607455253601074 -22.05085563659668 -2.2394371032714844
-7.162959575653076 -22.20345687866211 -2.23982310295105
-6.715430736541748 -22.347150802612305 -2.240215301513672
-6.265025615692139 -22.481882095336914 -2.2406136989593506
-5.811357498168945 -22.60538673400879 -2.240798234939575
-5.355606555938721 -22.721149444580078 -2.2411227226257324
-4.314479827880859 -20.110084533691406 -1.9746025800704956
-3.8862500190734863 -20.077898025512695 -1.9633560180664062
-3.465435743331909 -20.061925888061523 -1.9545693397521973
-3.0512096881866455 -20.065818786621094 -1.948564052581787
-2.6390771865844727 -20.067705154418945 -1.9431896209716797
-2.1124608516693115 -23.28624153137207 -2.2447762489318848
0.2400866597890854 -23.405847549438477 -2.247197151184082
0.7116674780845642 -23.40125274658203 -2.2476766109466553
1.18316650390625 -23.387136459350586 -2.2481541633605957
2.125117063522339 -23.330339431762695 -2.2491025924682617
3.064404249191284 -23.235490798950195 -2.2500405311584473
4.46495246887207 -23.022140502929688 -2.25142502784729
4.928793907165527 -22.932157516479492 -2.2518794536590576
5.390814304351807 -22.832788467407227 -2.2523305416107178
6.762529373168945 -22.47379493713379 -2.253161668777466
7.211020469665527 -22.324214935302734 -2.2522740364074707
8.09805679321289 -21.99848175048828 -2.2505178451538086
8.536433219909668 -21.822946548461914 -2.2496986389160156
10.96035099029541 -22.491230010986328 -2.4020156860351562
11.411186218261719 -22.265878677368164 -2.4020156860351562
11.857397079467773 -22.03150177001953 -2.4020156860351562
12.298810958862305 -21.788198471069336 -2.4020156860351562
13.166430473327637 -21.275104522705078 -2.4020156860351562
13.59231948852539 -21.005563735961914 -2.4020156860351562
14.01268482208252 -20.727497100830078 -2.4020156860351562
14.836195945739746 -20.14626121520996 -2.4020156860351562
15.239008903503418 -19.84331703186035 -2.4020156860351562
15.635624885559082 -19.532323837280273 -2.4020156860351562
16.409719467163086 -18.88669204711914 -2.4020156860351562
17.520463943481445 -17.8610782623291 -2.4020156860351562
-18.18259048461914 -8.848909378051758 -2.4020309448242188
-18.00064468383789 -9.213377952575684 -2.4020309448242188
-16.109477996826172 -9.9579439163208 -2.2496559619903564
-15.69663143157959 -10.59964370727539 -2.2498459815979004
-15.485552787780762 -10.917633056640625 -2.250662326812744
-15.043936729431152 -11.54072380065918 -2.2522642612457275
-14.811617851257324 -11.844000816345215 -2.252753973007202
-13.709335327148438 -12.902850151062012 -2.2362961769104004
-13.180801391601562 -13.446974754333496 -2.236691951751709
-10.776572227478027 -12.412497520446777 -1.952591061592102
-11.470149040222168 -14.94715404510498 -2.238039493560791
-11.167960166931152 -15.176846504211426 -2.2382867336273193
-10.549911499023438 -15.61780071258545 -2.2387797832489014
-7.337472915649414 -12.418582916259766 -1.7133948802947998
-8.595623016357422 -16.7873477935791 -2.240302801132202
-8.25674057006836 -16.95916748046875 -2.2405776977539062
-5.131473064422607 -12.390368461608887 -1.5930267572402954
-6.513796806335449 -17.714996337890625 -2.2420365810394287
-6.1564764976501465 -17.845062255859375 -2.242344617843628
-5.796568870544434 -17.96796417236328 -2.242657423019409
-5.434232234954834 -18.083642959594727 -2.2429752349853516
-4.7027764320373535 -18.29315948486328 -2.2436251640319824
-3.21697735786438 -18.623567581176758 -2.244978904724121
-2.4649951457977295 -18.74388885498047 -2.245680332183838
-2.087254524230957 -18.792720794677734 -2.2460367679595947
-1.7085485458374023 -18.83397102355957 -2.246396780014038
-0.6216137409210205 -12.377764701843262 -1.4721567630767822
-0.568157970905304 -18.912038803100586 -2.247497320175171
0.575427234172821 -18.921316146850586 -2.248624801635742
0.9566198587417603 -18.909090042114258 -2.2490060329437256
1.718077301979065 -18.861663818359375 -2.2497756481170654
2.0980358123779297 -18.826478958129883 -2.2501637935638428
2.477274179458618 -18.783647537231445 -2.250553846359253
2.8556456565856934 -18.733198165893555 -2.250945806503296
3.232991933822632 -18.675140380859375 -2.2513389587402344
2.39892578125 -12.3693208694458 -1.4966784715652466
3.983988046646118 -18.536272048950195 -2.2521302700042725
4.357338905334473 -18.455516815185547 -2.252527952194214
5.098984241485596 -18.271493911743164 -2.2533257007598877
5.831595420837402 -18.05372428894043 -2.2536308765411377
6.90580415725708 -17.654325485229492 -2.251816749572754
7.258370399475098 -17.50765609741211 -2.2513043880462646
5.706387996673584 -12.334760665893555 -1.6143923997879028
9.58337116241455 -17.806278228759766 -2.4020156860351562
10.292826652526855 -17.40580940246582 -2.4020156860351562
10.641349792480469 -17.194944381713867 -2.4020156860351562
10.98556900024414 -16.977092742919922 -2.4020156860351562
11.325319290161133 -16.752363204956055 -2.4020156860351562
11.660473823547363 -16.520830154418945 -2.4020156860351562
11.99089527130127 -16.2825927734375 -2.4020156860351562
12.316454887390137 -16.037748336791992 -2.4020156860351562
12.952445983886719 -15.528639793395996 -2.4020156860351562
15.00639820098877 -13.55404281616211 -2.4020156860351562
-15.389802932739258 -7.109952926635742 -2.4020309448242188
-14.767558097839355 -8.325661659240723 -2.4020309448242188
-14.596847534179688 -8.621451377868652 -2.4020309448242188
-14.049474716186523 -9.487345695495605 -2.4020309448242188
-13.682649612426758 -9.646550178527832 -2.3720624446868896
-13.13106632232666 -9.659440040588379 -2.3097083568573
-12.619269371032715 -9.680391311645508 -2.2534685134887695
-12.400236129760742 -9.915773391723633 -2.2496461868286133
-12.198257446289062 -10.163763046264648 -2.2496933937072754
-11.991303443908691 -10.407637596130371 -2.2497398853302
-11.782079696655273 -10.649664878845215 -2.2502872943878174
-11.568337440490723 -10.887815475463867 -2.250903367996216
-11.126313209533691 -11.351005554199219 -2.252103328704834
-10.665550231933594 -11.795994758605957 -2.2532589435577393
-10.12476921081543 -12.147558212280273 -2.2406299114227295
-9.115291595458984 -12.924887657165527 -2.2409379482269287
-8.853951454162598 -13.107148170471191 -2.2411558628082275
-8.588985443115234 -13.284163475036621 -2.2413787841796875
-7.773381233215332 -13.782964706420898 -2.2420766353607178
-7.494967460632324 -13.938258171081543 -2.242318630218506
-7.213448524475098 -14.087958335876465 -2.242565155029297
-6.64164924621582 -14.370323181152344 -2.2430715560913086
-6.351550579071045 -14.502817153930664 -2.2433218955993652
-5.13147497177124 -12.390368461608887 -1.900183081626892
-5.763500213623047 -14.750136375427246 -2.24381685256958
-5.465827465057373 -14.864924430847168 -2.2440710067749023
-5.1658854484558105 -14.973734855651855 -2.2443294525146484
-4.863776683807373 -15.076520919799805 -2.2445921897888184
-4.559640407562256 -15.173236846923828 -2.244859218597412
-3.945725679397583 -15.348316192626953 -2.2454049587249756
-2.698850154876709 -15.62402057647705 -2.2465415000915527
-1.1148241758346558 -15.826740264892578 -2.2480368614196777
-0.6216137409210205 -12.377764701843262 -1.7560075521469116
-0.4765637218952179 -15.863165855407715 -2.248655319213867
-0.15694579482078552 -15.871753692626953 -2.2489683628082275
0.8023144602775574 -15.858975410461426 -2.2499215602874756
1.12176513671875 -15.8418607711792 -2.2502434253692627
1.4408667087554932 -15.818325996398926 -2.2505671977996826
2.3946800231933594 -15.709268569946289 -2.2515485286712646
2.7110435962677 -15.660140037536621 -2.251878499984741
3.653559446334839 -15.474654197692871 -2.252875566482544
3.965128183364868 -15.400200843811035 -2.2532098293304443
4.275172233581543 -15.319479942321777 -2.253544807434082
4.583576679229736 -15.232522964477539 -2.253880023956299
5.193357944488525 -15.035392761230469 -2.2538585662841797
5.418917179107666 -12.360880851745605 -1.912312626838684
5.706386566162109 -12.334759712219238 -1.9256681203842163
7.241358280181885 -14.129575729370117 -2.2496156692504883
7.804611682891846 -13.826431274414062 -2.2496156692504883
8.355207443237305 -13.50084400177002 -2.2496156692504883
9.775590896606445 -13.850312232971191 -2.4020156860351562
10.594252586364746 -13.234598159790039 -2.4020156860351562
10.858688354492188 -13.018502235412598 -2.4020156860351562
11.118788719177246 -12.797121047973633 -2.4020161628723145
11.625150680541992 -12.338882446289062 -2.4020168781280518
12.349367141723633 -11.614228248596191 -2.402019500732422
-13.236502647399902 -6.115147590637207 -2.4020309448242188
-13.11063289642334 -6.380539417266846 -2.4020309448242188
-12.701311111450195 -7.160759925842285 -2.4020309448242188
-12.554497718811035 -7.4151611328125 -2.4020309448242188
-12.40257740020752 -7.666557312011719 -2.4020309448242188
-12.24563217163086 -7.914828777313232 -2.4020309448242188
-11.387656211853027 -9.106074333190918 -2.4020309448242188
-11.011629104614258 -9.557373046875 -2.4020309448242188
-9.871830940246582 -9.673444747924805 -2.276911497116089
-9.558917045593262 -9.752086639404297 -2.249630928039551
-9.158717155456543 -10.129436492919922 -2.249685525894165
-8.952933311462402 -10.312033653259277 -2.249720335006714
-8.533631324768066 -10.668444633483887 -2.250596523284912
-8.318660736083984 -10.84034252166748 -2.2510457038879395
-7.653092861175537 -11.329435348510742 -2.252328872680664
-6.716512680053711 -11.909473419189453 -2.2524759769439697
-6.207535743713379 -12.12328815460205 -2.2437644004821777
-5.716053485870361 -12.367642402648926 -2.2445192337036133
-5.131473064422607 -12.390368461608887 -2.2093091011047363
-4.703914642333984 -12.792830467224121 -2.2454347610473633
-4.185699462890625 -12.974677085876465 -2.2459123134613037
-3.7242114543914795 -12.393218994140625 -2.131840705871582
-3.395519256591797 -13.208149909973145 -2.246652364730835
-2.861396312713623 -13.337210655212402 -2.247159719467163
-2.5924644470214844 -13.393681526184082 -2.2474172115325928
-1.5066381692886353 -13.565078735351562 -2.248441457748413
-1.2332202196121216 -13.594246864318848 -2.248701572418213
-0.6216137409210205 -12.377764701843262 -2.041673183441162
-0.410041481256485 -13.648736000061035 -2.2494964599609375
-0.13503539562225342 -13.655861854553223 -2.2497661113739014
0.14009033143520355 -13.657459259033203 -2.250037431716919
0.4152209460735321 -13.653526306152344 -2.2503108978271484
1.513641357421875 -13.582503318786621 -2.251422166824341
1.7871618270874023 -13.55095100402832 -2.2517035007476807
2.332125186920166 -13.471358299255371 -2.252270221710205
2.873577833175659 -13.369877815246582 -2.2528412342071533
3.4106481075286865 -13.246654510498047 -2.253415584564209
3.677263021469116 -13.176949501037598 -2.2537038326263428
3.942451000213623 -13.101879119873047 -2.2539923191070557
4.983376502990723 -12.73973560333252 -2.253587484359741
5.235832214355469 -12.629159927368164 -2.252230644226074
5.706387996673584 -12.334760665893555 -2.238933801651001
6.47173547744751 -12.02473258972168 -2.2496259212493896
6.950855731964111 -11.754267692565918 -2.2496249675750732
7.186188697814941 -11.611895561218262 -2.249624490737915
7.418647289276123 -11.464770317077637 -2.249624252319336
8.166181564331055 -12.079376220703125 -2.4020185470581055
8.407846450805664 -11.91242790222168 -2.4020187854766846
8.880781173706055 -11.564105033874512 -2.402020215988159
9.11205768585205 -11.382879257202148 -2.4020214080810547
9.99868106842041 -10.6124849319458 -2.40202260017395
10.21042251586914 -10.408926010131836 -2.40202260017395
10.41802978515625 -10.201128959655762 -2.40202260017395
10.820463180541992 -9.77322769165039 -2.402022361755371
-11.70681095123291 -5.124870300292969 -2.4020309448242188
-11.601201057434082 -5.359653949737549 -2.4020309448242188
-11.490885734558105 -5.592258930206299 -2.4020309448242188
-10.590835571289062 -7.151790142059326 -2.4020309448242188
-10.294167518615723 -7.572566509246826 -2.4020309448242188
-10.13953971862793 -7.778390884399414 -2.4020309448242188
-8.760061264038086 -9.304633140563965 -2.4020309448242188
-7.734434127807617 -9.669306755065918 -2.3273541927337646
-7.42557954788208 -9.676492691040039 -2.292606830596924
-6.898083209991455 -9.780885696411133 -2.249630928039551
-6.699604511260986 -9.917899131774902 -2.2496438026428223
-6.498545169830322 -10.050954818725586 -2.249669075012207
-6.294783115386963 -10.179931640625 -2.2496936321258545
-6.088983535766602 -10.305533409118652 -2.2498810291290283
-5.457705020904541 -10.658936500549316 -2.2508203983306885
-5.242552757263184 -10.768105506896973 -2.251112222671509
-5.025198459625244 -10.872882843017578 -2.2513930797576904
-4.1355719566345215 -11.247149467468262 -2.2524056434631348
-3.908561944961548 -11.329302787780762 -2.2526304721832275
-2.9849841594696045 -11.611186027526855 -2.253413438796997
-2.750692129135132 -11.669821739196777 -2.25357985496521
-2.5152318477630615 -11.723664283752441 -2.2537341117858887
-2.2787084579467773 -11.772696495056152 -2.2538764476776123
-1.8028600215911865 -11.856233596801758 -2.254124879837036
-1.322695255279541 -11.910568237304688 -2.2524871826171875
-0.8413891196250916 -11.945589065551758 -2.2508656978607178
-0.6005456447601318 -11.957624435424805 -2.2503979206085205
-0.35981565713882446 -11.965965270996094 -2.2501463890075684
0.12259521335363388 -11.972185134887695 -2.2504189014434814
0.6050158739089966 -11.960240364074707 -2.250931739807129
1.3273462057113647 -11.911264419555664 -2.252711057662964
2.5200157165527344 -11.72486400604248 -2.254142999649048
2.7555480003356934 -11.671120643615723 -2.2540268898010254
2.989921808242798 -11.612584114074707 -2.2538986206054688
3.4547886848449707 -11.481237411499023 -2.253605842590332
3.6850926876068115 -11.408483505249023 -2.253441572189331
4.140958309173584 -11.24897289276123 -2.253077268600464
4.583673000335693 -11.056112289428711 -2.249630928039551
5.458745002746582 -10.65127944946289 -2.249630928039551
5.672195911407471 -10.539158821105957 -2.249630928039551
6.925354957580566 -10.702445030212402 -2.396061658859253
7.1573166847229 -10.58707046508789 -2.4020285606384277
7.986264705657959 -9.976594924926758 -2.4020252227783203
8.185612678527832 -9.813688278198242 -2.402024984359741
8.574264526367188 -9.476008415222168 -2.402024984359741
8.76340103149414 -9.301372528076172 -2.402024745941162
9.13094425201416 -8.940834999084473 -2.402024745941162
9.483656883239746 -8.565794944763184 -2.402024507522583
-10.40980052947998 -4.55708122253418 -2.4020309448242188
-10.217792510986328 -4.972683906555176 -2.4020309448242188
-10.115549087524414 -5.177499294281006 -2.4020309448242188
-9.784375190734863 -5.779016017913818 -2.4020309448242188
-9.543652534484863 -6.16843318939209 -2.4020309448242188
-9.153661727905273 -6.733592987060547 -2.4020309448242188
-9.016162872314453 -6.916614055633545 -2.4020309448242188
-8.875008583068848 -7.096830368041992 -2.4020309448242188
-8.730255126953125 -7.274165630340576 -2.4020309448242188
-8.581950187683105 -7.44855260848999 -2.4020309448242188
-7.954538345336914 -8.115179061889648 -2.4020309448242188
-7.789462089538574 -8.273759841918945 -2.4020309448242188
-6.918004512786865 -9.01509952545166 -2.4020309448242188
-6.549379825592041 -9.286434173583984 -2.4020309448242188
-5.973291873931885 -9.659995079040527 -2.4007768630981445
-4.715700626373291 -9.685945510864258 -2.277174472808838
-3.873298168182373 -9.912775993347168 -2.2496414184570312
-3.6729016304016113 -9.988852500915527 -2.2496559619903564
-3.47094464302063 -10.060873031616211 -2.2496697902679443
-2.442415714263916 -10.361883163452148 -2.250316619873047
-2.023287296295166 -10.453073501586914 -2.250579833984375
-1.8123877048492432 -10.4922456741333 -2.25069522857666
-1.1755212545394897 -10.583883285522461 -2.250977039337158
-0.96211177110672 -10.605753898620605 -2.251049041748047
-0.7482959032058716 -10.623273849487305 -2.251110315322876
-0.31980466842651367 -10.64521598815918 -2.251199960708618
-0.10530761629343033 -10.649632453918457 -2.2512283325195312
0.32374510169029236 -10.645343780517578 -2.2512521743774414
1.1795275211334229 -10.584345817565918 -2.2511677742004395
1.3924670219421387 -10.558210372924805 -2.251119375228882
1.604824185371399 -10.527740478515625 -2.2510600090026855
1.8165160417556763 -10.492948532104492 -2.2509894371032715
2.8617749214172363 -10.254758834838867 -2.2504749298095703
3.067575693130493 -10.19442081451416 -2.250339984893799
3.475240468978882 -10.061238288879395 -2.250037908554077
3.676935911178589 -9.98845100402832 -2.249871253967285
4.27305269241333 -9.74709415435791 -2.249630928039551
5.301419734954834 -9.850250244140625 -2.364551067352295
6.173429012298584 -9.540417671203613 -2.4020309448242188
6.552698612213135 -9.284011840820312 -2.4020309448242188
6.921328067779541 -9.012507438659668 -2.4020299911499023
7.453033447265625 -8.578036308288574 -2.4020276069641113
7.624313831329346 -8.426225662231445 -2.402026414871216
7.792497158050537 -8.270867347717285 -2.4020252227783203
7.957517147064209 -8.11221694946289 -2.4020252227783203
8.119318962097168 -7.9502763748168945 -2.402024984359741
-9.36258602142334 -4.098641395568848 -2.4020309448242188
-9.097935676574707 -4.656648635864258 -2.4020309448242188
-9.002280235290527 -4.838971138000488 -2.4020309448242188
-8.353074073791504 -5.8891282081604 -2.4020309448242188
-8.232806205749512 -6.05620002746582 -2.4020309448242188
-8.10914421081543 -6.220808982849121 -2.4020309448242188
-7.982189655303955 -6.3828959465026855 -2.4020309448242188
-7.851993083953857 -6.542391300201416 -2.4020309448242188
-7.442508220672607 -7.004698276519775 -2.4020309448242188
-7.154316425323486 -7.298798561096191 -2.4020309448242188
-6.222057342529297 -8.10819149017334 -2.4020309448242188
-6.057468891143799 -8.231879234313965 -2.4020309448242188
-5.890419960021973 -8.352229118347168 -2.4020309448242188
-5.72098445892334 -8.469185829162598 -2.4020309448242188
-4.840361595153809 -9.001535415649414 -2.4020309448242188
-4.287953853607178 -9.277457237243652 -2.4020309448242188
-4.100104331970215 -9.361947059631348 -2.4020309448242188
-3.719669818878174 -9.51949691772461 -2.4020309448242188
-3.5271575450897217 -9.592493057250977 -2.4020309448242188
-3.3332128524780273 -9.661596298217773 -2.4020309448242188
-1.8746594190597534 -9.685208320617676 -2.3184940814971924
-1.673338532447815 -9.6871919631958 -2.310429573059082
-1.4733092784881592 -9.688996315002441 -2.3033127784729004
-0.6828771829605103 -9.694483757019043 -2.284071922302246
-0.0958874523639679 -9.696834564208984 -2.279090404510498
0.6866918802261353 -9.69766616821289 -2.284881830215454
1.6783678531646729 -9.694977760314941 -2.312433958053589
2.0832433700561523 -9.692705154418945 -2.3300302028656006
2.703594923019409 -9.687945365905762 -2.3638882637023926
3.128002882003784 -9.683826446533203 -2.3917088508605957
3.3367760181427 -9.660367012023926 -2.4020309448242188
3.723182201385498 -9.5181245803833 -2.4020309448242188
3.914156436920166 -9.441193580627441 -2.4020309448242188
4.843680381774902 -8.999751091003418 -2.4020309448242188
5.023989200592041 -8.90035343170166 -2.4020309448242188
5.202258110046387 -8.797344207763672 -2.4020309448242188
5.378414154052734 -8.690767288208008 -2.4020309448242188
5.552390098571777 -8.580660820007324 -2.4020309448242188
6.060508728027344 -8.229642868041992 -2.4020309448242188
6.225052356719971 -8.10583782196045 -2.4020309448242188
6.387068748474121 -7.978851318359375 -2.4020309448242188
6.546500205993652 -7.848573207855225 -2.4020309448242188
6.703273773193359 -7.715103626251221 -2.4020304679870605
6.857324123382568 -7.578474044799805 -2.4020302295684814
7.584609031677246 -6.850522994995117 -2.402026653289795
-8.421870231628418 -3.89082932472229 -2.4020309448242188
-8.34178352355957 -4.059688091278076 -2.4020309448242188
-7.987935543060303 -4.7179765701293945 -2.4020309448242188
-7.791412830352783 -5.035892963409424 -2.4020309448242188
-7.473019123077393 -5.497288227081299 -2.4020309448242188
-7.245538711547852 -5.793835163116455 -2.4020309448242188
-7.006283283233643 -6.080981254577637 -2.4020309448242188
-6.755659103393555 -6.358252048492432 -2.4020309448242188
-6.626212120056152 -6.493044853210449 -2.4020309448242188
-6.494071960449219 -6.625214576721191 -2.4020309448242188
-6.359299182891846 -6.754682540893555 -2.4020309448242188
-6.221944332122803 -6.881411075592041 -2.4020309448242188
-5.9397149085998535 -7.126441955566406 -2.4020309448242188
-5.794952392578125 -7.244648456573486 -2.4020309448242188
-5.6478424072265625 -7.359910011291504 -2.4020309448242188
-5.3468122482299805 -7.58142614364624 -2.4020309448242188
-4.879144668579102 -7.8905181884765625 -2.4020309448242188
-4.719207763671875 -7.987207412719727 -2.4020309448242188
-4.3936567306518555 -8.170805931091309 -2.4020309448242188
-4.228170871734619 -8.257659912109375 -2.4020309448242188
-4.060972690582275 -8.341156005859375 -2.4020309448242188
-3.7217016220092773 -8.497955322265625 -2.4020309448242188
-3.2016448974609375 -8.70722484588623 -2.4020309448242188
-3.025599956512451 -8.769950866699219 -2.4020309448242188
-2.6699023246765137 -8.884703636169434 -2.4020309448242188
-2.490386962890625 -8.936681747436523 -2.4020309448242188
-1.94607412815094 -9.070782661437988 -2.4020309448242188
-1.7629625797271729 -9.108142852783203 -2.4020309448242188
-1.209558129310608 -9.19799518585205 -2.4020309448242188
-1.024114966392517 -9.220495223999023 -2.4020309448242188
-0.6519116163253784 -9.254262924194336 -2.4020309448242188
-0.46534910798072815 -9.265522003173828 -2.4020309448242188
-0.27854248881340027 -9.273014068603516 -2.4020309448242188
0.09516113251447678 -9.276708602905273 -2.4020309448242188
0.8415697813034058 -9.238943099975586 -2.4020309448242188
1.2130138874053955 -9.19754695892334 -2.4020309448242188
1.7663220167160034 -9.107497215270996 -2.4020309448242188
1.9494225978851318 -9.070064544677734 -2.4020309448242188
2.131732225418091 -9.028959274291992 -2.4020309448242188
2.3131773471832275 -8.984180450439453 -2.4020309448242188
2.4936840534210205 -8.935766220092773 -2.4020309448242188
2.673175096511841 -8.883716583251953 -2.4020309448242188
2.8515844345092773 -8.8280668258667 -2.4020309448242188
3.379582405090332 -8.639723777770996 -2.4020309448242188
3.5529284477233887 -8.569893836975098 -2.4020309448242188
4.231218338012695 -8.256094932556152 -2.4020309448242188
4.560339450836182 -8.078964233398438 -2.4020309448242188
5.039970397949219 -7.7887725830078125 -2.4020309448242188
5.195845603942871 -7.685619831085205 -2.4020309448242188
5.650562763214111 -7.357822895050049 -2.4020309448242188
5.797623157501221 -7.242503643035889 -2.4020309448242188
6.361788272857666 -6.752330303192139 -2.4020309448242188
6.628604412078857 -6.490564346313477 -2.4020307064056396
6.758002758026123 -6.3557610511779785 -2.4020304679870605
-7.772793292999268 -3.402681827545166 -2.4020309448242188
-7.55308198928833 -3.8659398555755615 -2.4020309448242188
-7.473668575286865 -4.0173020362854 -2.4020309448242188
-7.391224384307861 -4.167032241821289 -2.4020309448242188
-7.305795669555664 -4.315079212188721 -2.4020309448242188
-7.2173943519592285 -4.461370944976807 -2.4020309448242188
-7.126054763793945 -4.60584831237793 -2.4020309448242188
-6.934755802154541 -4.889143943786621 -2.4020309448242188
-6.626786231994629 -5.299062252044678 -2.4020309448242188
-6.518701553344727 -5.4314751625061035 -2.4020309448242188
-6.407922744750977 -5.561685085296631 -2.4020309448242188
-6.060357570648193 -5.93856143951416 -2.4020309448242188
-5.93949556350708 -6.059446334838867 -2.4020309448242188
-5.690610885620117 -6.293763160705566 -2.4020309448242188
-5.028890132904053 -6.834080696105957 -2.4020309448242188
-4.890209674835205 -6.934001922607422 -2.4020309448242188
-4.606945514678955 -7.125340461730957 -2.4020309448242188
-4.46248197555542 -7.2166948318481445 -2.4020309448242188
-4.168176174163818 -7.390592098236084 -2.4020309448242188
-3.8671038150787354 -7.552487850189209 -2.4020309448242188
-3.55975341796875 -7.702123641967773 -2.4020309448242188
-2.928234100341797 -7.963659286499023 -2.4020309448242188
-2.2777159214019775 -8.1735200881958 -2.4020309448242188
-1.7798900604248047 -8.29617691040039 -2.4020309448242188
-0.9366406202316284 -8.433104515075684 -2.4020309448242188
-0.5961987376213074 -8.463988304138184 -2.4020309448242188
-0.42558103799819946 -8.474279403686523 -2.4020309448242188
-0.08389892429113388 -8.484538078308105 -2.4020309448242188
0.5993236899375916 -8.463768005371094 -2.4020309448242188
0.7696936130523682 -8.449969291687012 -2.4020309448242188
1.278656005859375 -8.3880615234375 -2.4020309448242188
1.447365641593933 -8.360595703125 -2.4020309448242188
1.6154834032058716 -8.329742431640625 -2.4020309448242188
1.9496911764144897 -8.25792121887207 -2.4020309448242188
2.4448962211608887 -8.125078201293945 -2.4020309448242188
2.608067512512207 -8.07418155670166 -2.4020309448242188
3.2495226860046387 -7.838056564331055 -2.4020309448242188
3.4067516326904297 -7.771009922027588 -2.4020309448242188
3.562601327896118 -7.700807094573975 -2.4020309448242188
3.869887590408325 -7.551052093505859 -2.4020309448242188
4.170905590057373 -7.3890533447265625 -2.4020309448242188
4.465141296386719 -7.215047836303711 -2.4020309448242188
4.752142429351807 -7.029345512390137 -2.4020309448242188
4.892769813537598 -6.932188034057617 -2.4020309448242188
5.03141975402832 -6.832230567932129 -2.4020309448242188
5.168022155761719 -6.7294745445251465 -2.4020309448242188
5.434889793395996 -6.515881061553955 -2.4020309448242188
5.56504487991333 -6.405062198638916 -2.4020309448242188
5.692938327789307 -6.2916789054870605 -2.4020309448242188
5.941738128662109 -6.057275295257568 -2.4020309448242188
6.180891990661621 -5.812986850738525 -2.4020309448242188
6.296731948852539 -5.687315940856934 -2.4020309448242188
-7.089478492736816 -3.2752761840820312 -2.4020309448242188
-7.022066116333008 -3.417421817779541 -2.4020309448242188
-6.724198341369629 -3.971564769744873 -2.4020309448242188
-6.472039222717285 -4.370448589324951 -2.4020309448242188
-6.290751934051514 -4.627586364746094 -2.4020309448242188
-6.196261882781982 -4.753366470336914 -2.4020309448242188
-5.897852420806885 -5.118934631347656 -2.4020309448242188
-5.686868190765381 -5.3523406982421875 -2.4020309448242188
-5.466671466827393 -5.577066421508789 -2.4020309448242188
-5.353165149688721 -5.686045169830322 -2.4020309448242188
-5.2375922203063965 -5.792729377746582 -2.4020309448242188
-5.119846820831299 -5.897058486938477 -2.4020309448242188
-4.87816047668457 -6.098502159118652 -2.4020309448242188
-4.628558158874512 -6.290039539337158 -2.4020309448242188
-4.500916481018066 -6.381999492645264 -2.4020309448242188
-3.9725987911224365 -6.723582744598389 -2.4020309448242188
-3.559251070022583 -6.951251029968262 -2.4020309448242188
-3.418504476547241 -7.021536827087402 -2.4020309448242188
-3.2763688564300537 -7.0889739990234375 -2.4020309448242188
-2.842226505279541 -7.273915767669678 -2.4020309448242188
-2.5469322204589844 -7.3824968338012695 -2.4020309448242188
-2.2475061416625977 -7.479093074798584 -2.4020309448242188
-2.096392869949341 -7.522849082946777 -2.4020309448242188
-1.94442617893219 -7.563553333282471 -2.4020309448242188
-1.7916760444641113 -7.601185321807861 -2.4020309448242188
-1.6381969451904297 -7.635734558105469 -2.4020309448242188
-1.3293029069900513 -7.695522308349609 -2.4020309448242188
-1.018253207206726 -7.742822647094727 -2.4020309448242188
-0.862078845500946 -7.76176118850708 -2.4020309448242188
-0.5487390160560608 -7.790186405181885 -2.4020309448242188
-0.23450927436351776 -7.805965900421143 -2.4020309448242188
0.39458006620407104 -7.7995147705078125 -2.4020309448242188
0.5516088604927063 -7.78998327255249 -2.4020309448242188
1.0211083889007568 -7.742443561553955 -2.4020309448242188
1.1768640279769897 -7.7203049659729 -2.4020309448242188
1.486879825592041 -7.666635513305664 -2.4020309448242188
1.6410119533538818 -7.635129451751709 -2.4020309448242188
2.4004454612731934 -7.431416988372803 -2.4020309448242188
2.549654483795166 -7.381556034088135 -2.4020309448242188
2.6978306770324707 -7.32869815826416 -2.4020309448242188
2.8449108600616455 -7.272868633270264 -2.4020309448242188
2.9908337593078613 -7.214085578918457 -2.4020309448242188
3.135545492172241 -7.152374744415283 -2.4020309448242188
3.2789855003356934 -7.087762832641602 -2.4020309448242188
3.561815023422241 -6.949934482574463 -2.4020309448242188
3.9750816822052 -6.722113609313965 -2.4020309448242188
4.503270149230957 -6.380334854125977 -2.4020309448242188
4.756608963012695 -6.193751811981201 -2.4020309448242188
5.002230167388916 -5.997142314910889 -2.4020309448242188
5.355318546295166 -5.684074401855469 -2.4020309448242188
5.468728065490723 -5.575057029724121 -2.4020309448242188
5.579923152923584 -5.463751792907715 -2.4020309448242188
5.688851356506348 -5.350274085998535 -2.4020309448242188
5.795467376708984 -5.234565734863281 -2.4020309448242188
-6.497589111328125 -3.1621768474578857 -2.4020309448242188
-6.4325761795043945 -3.292421579360962 -2.4020309448242188
-6.146677017211914 -3.7995219230651855 -2.4020309448242188
-6.0688958168029785 -3.9225621223449707 -2.4020309448242188
-5.905972003936768 -4.163833141326904 -2.4020309448242188
-5.82089900970459 -4.281955718994141 -2.4020309448242188
-5.733464241027832 -4.398341178894043 -2.4020309448242188
-5.643706321716309 -4.512942790985107 -2.4020309448242188
-5.262129783630371 -4.952579021453857 -2.4020309448242188
-5.161299705505371 -5.057571887969971 -2.4020309448242188
-5.05836820602417 -5.160518646240234 -2.4020309448242188
-4.737448692321777 -5.4566144943237305 -2.4020309448242188
-4.626441955566406 -5.550928115844727 -2.4020309448242188
-4.513833999633789 -5.64301061630249 -2.4020309448242188
-4.399231910705566 -5.732788562774658 -2.4020309448242188
-4.0449419021606445 -5.988027095794678 -2.4020309448242188
-3.923492431640625 -6.0682902336120605 -2.4020309448242188
-3.800469160079956 -6.146092891693115 -2.4020309448242188
-3.6758873462677 -6.221404075622559 -2.4020309448242188
-3.163177967071533 -6.497102737426758 -2.4020309448242188
-3.03165340423584 -6.559503078460693 -2.4020309448242188
-2.7649872303009033 -6.67629337310791 -2.4020309448242188
-2.493830442428589 -6.782244682312012 -2.4020309448242188
-1.9398144483566284 -6.960973739624023 -2.4020309448242188
-1.7991992235183716 -6.998638153076172 -2.4020309448242188
-1.6578564643859863 -7.033459186553955 -2.4020309448242188
-1.515838623046875 -7.065426349639893 -2.4020309448242188
-1.3732092380523682 -7.0945281982421875 -2.4020309448242188
-1.086330533027649 -7.144083023071289 -2.4020309448242188
-0.94219970703125 -7.164517879486084 -2.4020309448242188
-0.7976891994476318 -7.182042598724365 -2.4020309448242188
-0.6528552174568176 -7.196654319763184 -2.4020309448242188
-0.5077526569366455 -7.208345413208008 -2.4020309448242188
0.21965941786766052 -7.222866058349609 -2.4020309448242188
0.3651086390018463 -7.216974258422852 -2.4020309448242188
0.5104089379310608 -7.208154678344727 -2.4020309448242188
0.6555089950561523 -7.1964111328125 -2.4020309448242188
0.800338089466095 -7.1817474365234375 -2.4020309448242188
0.944842517375946 -7.164167881011963 -2.4020309448242188
1.5184459686279297 -7.064868450164795 -2.4020309448242188
1.801784634590149 -6.9979729652404785 -2.4020309448242188
2.221160888671875 -6.87637186050415 -2.4020309448242188
2.496332883834839 -6.78132438659668 -2.4020309448242188
2.767451047897339 -6.675271511077881 -2.4020309448242188
2.9013562202453613 -6.618169784545898 -2.4020309448242188
3.295786142349243 -6.430850028991699 -2.4020309448242188
3.5521459579467773 -6.292877197265625 -2.4020309448242188
3.925743341445923 -6.066842555999756 -2.4020309448242188
4.047155857086182 -5.986532688140869 -2.4020309448242188
4.285001277923584 -5.818658828735352 -2.4020309448242188
4.401342868804932 -5.731163024902344 -2.4020309448242188
4.515895843505859 -5.641341209411621 -2.4020309448242188
4.628619194030762 -5.549240589141846 -2.4020309448242188
4.739461421966553 -5.45487117767334 -2.4020309448242188
4.848381042480469 -5.358285903930664 -2.4020309448242188
4.955333232879639 -5.259517669677734 -2.4020309448242188
5.060274600982666 -5.1586503982543945 -2.4020309448242188
5.263952732086182 -4.950595378875732 -2.4020309448242188
-6.153185844421387 -2.6936678886413574 -2.4020309448242188
-6.097675800323486 -2.817070960998535 -2.4020309448242188
-5.979254245758057 -3.060394525527954 -2.4020309448242188
-5.9163947105407715 -3.1802210807800293 -2.4020309448242188
-5.85113000869751 -3.298753023147583 -2.4020309448242188
-5.641207695007324 -3.6461284160614014 -2.4020309448242188
-5.329409599304199 -4.088376522064209 -2.4020309448242188
-4.70189094543457 -4.796844959259033 -2.4020309448242188
-4.604311466217041 -4.890578746795654 -2.4020309448242188
-4.403588771820068 -5.072070121765137 -2.4020309448242188
-4.195712089538574 -5.245326519012451 -2.4020309448242188
-3.759882688522339 -5.566030979156494 -2.4020309448242188
-3.64700984954834 -5.640641212463379 -2.4020309448242188
-3.532635450363159 -5.712960243225098 -2.4020309448242188
-3.2996575832366943 -5.850616931915283 -2.4020309448242188
-3.181133270263672 -5.915896892547607 -2.4020309448242188
-3.0613114833831787 -5.9787774085998535 -2.4020309448242188
-2.940258026123047 -6.039230823516846 -2.4020309448242188
-2.818007230758667 -6.097235679626465 -2.4020309448242188
-2.6946191787719727 -6.152760982513428 -2.4020309448242188
-2.570131778717041 -6.205793857574463 -2.4020309448242188
-2.190617561340332 -6.349695205688477 -2.4020309448242188
-1.8031103610992432 -6.4704132080078125 -2.4020309448242188
-1.672402262687683 -6.505422115325928 -2.4020309448242188
-1.5410228967666626 -6.537790298461914 -2.4020309448242188
-1.4090136289596558 -6.5675048828125 -2.4020309448242188
-1.276434302330017 -6.59455680847168 -2.4020309448242188
-1.1433361768722534 -6.618929386138916 -2.4020309448242188
-1.0097728967666626 -6.640617370605469 -2.4020309448242188
-0.6068469285964966 -6.689483642578125 -2.4020309448242188
-0.06641723215579987 -6.716624736785889 -2.4020309448242188
0.20417846739292145 -6.713848114013672 -2.4020309448242188
0.6093127131462097 -6.689259052276611 -2.4020309448242188
0.7439367771148682 -6.6756272315979 -2.4020309448242188
0.8782580494880676 -6.659286975860596 -2.4020309448242188
1.0122228860855103 -6.64024543762207 -2.4020309448242188
1.145778775215149 -6.618506908416748 -2.4020309448242188
1.278865933418274 -6.594084739685059 -2.4020309448242188
1.411436676979065 -6.566985130310059 -2.4020309448242188
1.543434977531433 -6.537221431732178 -2.4020309448242188
1.8054980039596558 -6.469746112823486 -2.4020309448242188
1.935455322265625 -6.432064533233643 -2.4020309448242188
2.3204076290130615 -6.3034234046936035 -2.4020309448242188
2.446911573410034 -6.255402565002441 -2.4020309448242188
2.5724217891693115 -6.204843521118164 -2.4020309448242188
2.6968884468078613 -6.151767253875732 -2.4020309448242188
2.8202600479125977 -6.096193790435791 -2.4020309448242188
2.9424889087677 -6.038146018981934 -2.4020309448242188
3.063524007797241 -5.97764778137207 -2.4020309448242188
3.183314085006714 -5.914722919464111 -2.4020309448242188
3.4189746379852295 -5.7816996574401855 -2.4020309448242188
3.5347447395324707 -5.711655616760254 -2.4020309448242188
3.761939525604248 -5.564640998840332 -2.4020309448242188
4.19764518737793 -5.243778705596924 -2.4020309448242188
4.302424430847168 -5.1581573486328125 -2.4020309448242188
4.405457496643066 -5.070442199707031 -2.4020309448242188
4.506701469421387 -4.980673313140869 -2.4020309448242188
4.70366096496582 -4.795104026794434 -2.4020309448242188
4.984688758850098 -4.502262592315674 -2.4020309448242188
-5.741959571838379 -2.513648271560669 -2.4020309448242188
-5.520992279052734 -2.9676835536956787 -2.4020309448242188
-5.460089683532715 -3.078294515609741 -2.4020309448242188
-5.264200210571289 -3.402456045150757 -2.4020309448242188
-5.194589138031006 -3.50780987739563 -2.4020309448242188
-5.12287712097168 -3.6117334365844727 -2.4020309448242188
-4.895379543304443 -3.9145524501800537 -2.4020309448242188
-4.815534591674805 -4.012370586395264 -2.4020309448242188
-4.733734607696533 -4.108560562133789 -2.4020309448242188
-4.564403057098389 -4.295896053314209 -2.4020309448242188
-4.476968765258789 -4.386978626251221 -2.4020309448242188
-4.38765811920166 -4.476266860961914 -2.4020309448242188
-4.203799724578857 -4.649362087249756 -2.4020309448242188
-4.013115882873535 -4.814916133880615 -2.4020309448242188
-3.9153082370758057 -4.89478063583374 -2.4020309448242188
-3.815912961959839 -4.97265625 -2.4020309448242188
-3.61252498626709 -5.122321128845215 -2.4020309448242188
-3.508610248565674 -5.194048881530762 -2.4020309448242188
-3.4032702445983887 -5.263670921325684 -2.4020309448242188
-3.2965519428253174 -5.331157684326172 -2.4020309448242188
-3.0791430473327637 -5.459616661071777 -2.4020309448242188
-2.9685046672821045 -5.5205302238464355 -2.4020309448242188
-2.8567302227020264 -5.5792131423950195 -2.4020309448242188
-2.629678964614868 -5.689751625061035 -2.4020309448242188
-2.5145349502563477 -5.741568088531494 -2.4020309448242188
-2.2812280654907227 -5.838191986083984 -2.4020309448242188
-2.044214963912964 -5.925339698791504 -2.4020309448242188
-1.8038952350616455 -6.002870559692383 -2.4020309448242188
-1.560632348060608 -6.070658206939697 -2.4020309448242188
-1.1911267042160034 -6.153835773468018 -2.4020309448242188
-1.066921353340149 -6.17657995223999 -2.4020309448242188
-0.9422888159751892 -6.19681978225708 -2.4020309448242188
-0.8172717094421387 -6.21454381942749 -2.4020309448242188
-0.5662890672683716 -6.242419242858887 -2.4020309448242188
-0.4404284656047821 -6.252560138702393 -2.4020309448242188
-0.3143872022628784 -6.260162353515625 -2.4020309448242188
-0.18822021782398224 -6.265224933624268 -2.4020309448242188
0.19053344428539276 -6.265156269073486 -2.4020309448242188
0.44273436069488525 -6.252396106719971 -2.4020309448242188
0.6942199468612671 -6.229491233825684 -2.4020309448242188
0.8195629715919495 -6.214240550994873 -2.4020309448242188
1.0692064762115479 -6.176186561584473 -2.4020309448242188
1.3171093463897705 -6.128108501434326 -2.4020309448242188
1.5628771781921387 -6.07008171081543 -2.4020309448242188
1.6848351955413818 -6.0373687744140625 -2.4020309448242188
1.8061071634292603 -6.002203464508057 -2.4020309448242188
1.9266467094421387 -5.96460485458374 -2.4020309448242188
2.046403646469116 -5.92458438873291 -2.4020309448242188
2.165334463119507 -5.882160663604736 -2.4020309448242188
2.2833824157714844 -5.837348937988281 -2.4020309448242188
2.516652822494507 -5.740639686584473 -2.4020309448242188
2.970571279525757 -5.519437789916992 -2.4020309448242188
3.081153392791748 -5.458479404449463 -2.4020309448242188
3.1904821395874023 -5.395303726196289 -2.4020309448242188
3.510525941848755 -5.192753314971924 -2.4020309448242188
3.614415168762207 -5.120985507965088 -2.4020309448242188
3.7168357372283936 -5.047141075134277 -2.4020309448242188
3.8177490234375 -4.971245765686035 -2.4020309448242188
3.91711163520813 -4.893333435058594 -2.4020309448242188
4.014888763427734 -4.813433647155762 -2.4020309448242188
4.111037731170654 -4.73158073425293 -2.4020309448242188
4.205513954162598 -4.64780855178833 -2.4020309448242188
4.298285007476807 -4.562151908874512 -2.4020309448242188
4.38931131362915 -4.474643230438232 -2.4020309448242188
4.47855806350708 -4.385310649871826 -2.4020309448242188
-5.277224540710449 -2.5682618618011475 -2.4020309448242188
-5.2244181632995605 -2.6740448474884033 -2.4020309448242188
-5.169493198394775 -2.778742551803589 -2.4020309448242188
-4.992224216461182 -3.0859007835388184 -2.4020309448242188
-4.929050922393799 -3.1858346462249756 -2.4020309448242188
-4.796725273132324 -3.381789207458496 -2.4020309448242188
-4.727633476257324 -3.477726936340332 -2.4020309448242188
-4.508951187133789 -3.7569191455841064 -2.4020309448242188
-4.43235445022583 -3.8469841480255127 -2.4020309448242188
-4.353962421417236 -3.935488224029541 -2.4020309448242188
-4.1919145584106445 -4.107667922973633 -2.4020309448242188
-4.108315944671631 -4.191280364990234 -2.4020309448242188
-4.023054599761963 -4.2731828689575195 -2.4020309448242188
-3.936160087585449 -4.353355407714844 -2.4020309448242188
-3.8476688861846924 -4.4317626953125 -2.4020309448242188
-3.7576169967651367 -4.508368492126465 -2.4020309448242188
-3.666036367416382 -4.58314847946167 -2.4020309448242188
-3.5729687213897705 -4.65606689453125 -2.4020309448242188
-3.478455066680908 -4.72709321975708 -2.4020309448242188
-3.382526159286499 -4.79620361328125 -2.4020309448242188
-3.186598539352417 -4.928555011749268 -2.4020309448242188
-2.5690746307373047 -5.276827335357666 -2.4020309448242188
-2.462256908416748 -5.327507972717285 -2.4020309448242188
-2.3544397354125977 -5.376025676727295 -2.4020309448242188
-2.2456822395324707 -5.42236328125 -2.4020309448242188
-1.8019250631332397 -5.585529804229736 -2.4020309448242188
-1.5754797458648682 -5.653575897216797 -2.4020309448242188
-1.3464819192886353 -5.712447166442871 -2.4020309448242188
-1.231136441230774 -5.738411903381348 -2.4020309448242188
-0.7652380466461182 -5.818889617919922 -2.4020309448242188
-0.05802856385707855 -5.868704795837402 -2.4020309448242188
0.06020263582468033 -5.868681907653809 -2.4020309448242188
0.1784020960330963 -5.866279602050781 -2.4020309448242188
0.6500195264816284 -5.832883358001709 -2.4020309448242188
0.7673888802528381 -5.818605422973633 -2.4020309448242188
0.8844384551048279 -5.801967620849609 -2.4020309448242188
1.6911206245422363 -5.6200690269470215 -2.4020309448242188
1.80398428440094 -5.584863662719727 -2.4020309448242188
2.3564257621765137 -5.375156879425049 -2.4020309448242188
2.5710229873657227 -5.275879383087158 -2.4020309448242188
