ply
format ascii 1.0
element vertex 395
property float x
property float y
property float z
end_header
-17.246726989746094 14.64548397064209 3.9895880222320557
-17.424625396728516 13.623724937438965 3.9000682830810547
-17.786069869995117 13.335943222045898 3.9198193550109863
-20.027936935424805 13.199929237365723 4.229480266571045
-20.937049865722656 13.199926376342773 4.364217281341553
-22.943058013916016 13.199921607971191 4.667243480682373
-28.077171325683594 14.67645263671875 5.586328506469727
-29.742206573486328 14.046683311462402 5.799811363220215
-32.99225997924805 13.199909210205078 6.265753746032715
-35.43062210083008 13.351177215576172 6.676208972930908
-37.2969970703125 13.19987964630127 6.976179599761963
-40.0313720703125 13.263394355773926 7.43595552444458
-17.246728897094727 14.645487785339355 3.4661900997161865
-17.246728897094727 14.055485725402832 3.408381223678589
-17.424625396728516 13.623726844787598 3.3884148597717285
-18.366729736328125 13.199931144714355 3.4649553298950195
-20.027923583984375 13.199929237365723 3.6746087074279785
-20.93704605102539 13.199926376342773 3.791670560836792
-22.943050384521484 13.199921607971191 4.054942607879639
-25.252460479736328 13.19991683959961 4.365164756774902
-27.949308395385742 13.199930191040039 4.735174655914307
-33.147823333740234 13.262142181396484 5.469410419464111
-37.297019958496094 13.19987964630127 6.060972690582275
-42.71280288696289 13.199869155883789 6.848696708679199
-17.310516357421875 14.699661254882812 2.957285165786743
-17.30683135986328 14.104470252990723 2.9073448181152344
-17.47381591796875 13.662187576293945 2.8884057998657227
-18.452329635620117 13.261449813842773 2.959063768386841
-20.122573852539062 13.262304306030273 3.138312816619873
-21.036727905273438 13.262770652770996 3.2384021282196045
-22.94305419921875 13.199921607971191 3.446849822998047
-27.949302673339844 13.199930191040039 4.025071144104004
-31.151317596435547 13.19991683959961 4.405704975128174
-35.511619567871094 13.381697654724121 4.941781044006348
-40.03136444091797 13.263394355773926 5.4915971755981445
-17.310514450073242 14.6996488571167 2.4386138916015625
-17.30683135986328 14.10446834564209 2.3974337577819824
-18.452329635620117 13.261449813842773 2.440082550048828
-19.262916564941406 13.26186466217041 2.5113022327423096
-22.01153564453125 13.26326847076416 2.759568929672241
-26.693632125854492 14.647709846496582 3.2695274353027344
-27.8726806640625 14.569547653198242 3.3772501945495605
-29.263017654418945 14.550921440124512 3.5093541145324707
-29.742198944091797 13.31821060180664 3.49934983253479
-32.99225616455078 13.199909210205078 3.8157970905303955
-37.2969970703125 13.19987964630127 4.248440265655518
-17.246728897094727 14.645491600036621 1.9153614044189453
-19.172954559326172 13.199930191040039 1.9705017805099487
-20.027923583984375 13.199929237365723 2.0305302143096924
-20.937049865722656 13.199926376342773 2.095216751098633
-22.943056106567383 13.199921607971191 2.2406961917877197
-26.693626403808594 14.647709846496582 2.5776567459106445
-29.74220085144043 14.046680450439453 2.784430980682373
-37.37523651123047 13.227570533752441 3.3562192916870117
-39.839664459228516 13.199874877929688 3.552830219268799
-17.246728897094727 14.64548397064209 1.4030506610870361
-17.246726989746094 14.055485725402832 1.3796501159667969
-17.786069869995117 13.335942268371582 1.3785133361816406
-18.366729736328125 13.199931144714355 1.402550458908081
-20.937047958374023 13.199926376342773 1.534799337387085
-21.906414031982422 13.19992446899414 1.5859718322753906
-24.055219650268555 13.199918746948242 1.701492428779602
-27.94930076599121 13.199930191040039 1.916712760925293
-31.151317596435547 13.19991683959961 2.097968339920044
-32.99224853515625 13.199909210205078 2.203528642654419
-35.51161575317383 13.381698608398438 2.353242874145508
-40.031375885009766 13.263394355773926 2.6150622367858887
-22.44601058959961 14.79362964630127 1.0600084066390991
-25.29982566833496 14.555851936340332 1.1509217023849487
-25.588876724243164 14.041488647460938 1.1509214639663696
-25.86746597290039 13.521392822265625 1.1509217023849487
-27.004596710205078 13.427928924560547 1.1891950368881226
-27.94930076599121 13.199930191040039 1.218795895576477
-31.15131187438965 13.19991683959961 1.3340528011322021
-32.99227523803711 13.199909210205078 1.4011765718460083
-37.29702377319336 13.19987964630127 1.560045599937439
-19.099828720092773 16.219099044799805 0.42326003313064575
-19.950191497802734 15.598381042480469 0.42777174711227417
-20.157339096069336 15.113913536071777 0.42557477951049805
-20.583513259887695 14.793105125427246 0.42817121744155884
-23.13618278503418 15.248497009277344 0.46805739402770996
-24.221399307250977 15.2705717086792 0.48366743326187134
-26.015329360961914 14.967504501342773 0.5069859027862549
-29.19710350036621 15.261857986450195 0.5565052628517151
-36.56711196899414 16.37432098388672 0.6767829656600952
-37.32949447631836 15.817824363708496 0.6848344206809998
-40.44548797607422 15.240907669067383 0.7300922870635986
-43.12189483642578 15.26137638092041 0.7726777195930481
-19.522764205932617 15.910378456115723 -0.14179596304893494
-19.9501895904541 15.598381042480469 -0.1425810158252716
-20.15733528137207 15.113914489746094 -0.1418485939502716
-20.583515167236328 14.793102264404297 -0.14271362125873566
-23.136180877685547 15.248497009277344 -0.15600845217704773
-24.221399307250977 15.2705717086792 -0.16121138632297516
-30.63397216796875 15.232622146606445 -0.19262069463729858
-36.56711196899414 16.37432289123535 -0.22557677328586578
-37.329490661621094 15.817824363708496 -0.22826232016086578
-37.816078186035156 15.129865646362305 -0.22932082414627075
-43.12188720703125 15.26137638092041 -0.25754135847091675
-44.17448043823242 14.63611125946045 -0.2620268166065216
-19.09982681274414 16.219099044799805 -0.7055532932281494
-19.52276039123535 15.910378456115723 -0.7091500759124756
-20.15733528137207 15.113911628723145 -0.7094128131866455
-20.58350944519043 14.793107986450195 -0.7137405276298523
-22.118436813354492 15.227794647216797 -0.7561354041099548
-23.136171340942383 15.248497009277344 -0.7802279591560364
-24.22140121459961 15.2705717086792 -0.8062498569488525
-26.015329360961914 14.96750545501709 -0.8451237082481384
-30.633974075317383 15.232622146606445 -0.9633376598358154
-36.56711196899414 16.37432289123535 -1.1281647682189941
-37.81606674194336 15.129870414733887 -1.1468775272369385
-44.17448043823242 14.63611125946045 -1.310365915298462
-19.522762298583984 15.910378456115723 -1.2772325277328491
-20.15733528137207 15.113910675048828 -1.2777063846588135
-20.583513259887695 14.793105125427246 -1.2855013608932495
-23.136171340942383 15.248497009277344 -1.405251383781433
-24.221403121948242 15.2705717086792 -1.452117919921875
-26.015329360961914 14.967504501342773 -1.522125482559204
-29.197086334228516 15.261858940124512 -1.6708000898361206
-30.63397216796875 15.232622146606445 -1.7350438833236694
-37.329490661621094 15.817824363708496 -2.0560851097106934
-37.81606674194336 15.129871368408203 -2.0656142234802246
-40.97452163696289 14.501407623291016 -2.2042932510375977
-41.51784896850586 12.830588340759277 -2.2037999629974365
-19.522762298583984 15.910378456115723 -1.8466073274612427
-20.15733528137207 15.113909721374512 -1.8472936153411865
-20.58351707458496 14.793102264404297 -1.858563780784607
-22.118438720703125 15.227794647216797 -1.968955636024475
-23.087711334228516 15.216561317443848 -2.0274417400360107
-23.496206283569336 14.81336784362793 -2.036597490310669
-26.22379493713379 15.087403297424316 -2.21829891204834
-26.51999855041504 14.552431106567383 -2.2180206775665283
-16.32452392578125 8.533129692077637 -1.350627064704895
-17.833621978759766 8.422487258911133 -1.4460875988006592
-27.59627342224121 12.357312202453613 -2.217021942138672
-27.837675094604492 11.795808792114258 -2.2168004512786865
-29.324100494384766 9.062259674072266 -2.250437021255493
-29.518218994140625 8.472526550292969 -2.2517287731170654
-29.810741424560547 7.266265869140625 -2.2497823238372803
-11.805001258850098 8.48410415649414 -1.39565908908844
-19.090003967285156 13.14281940460205 -2.2250847816467285
-19.34966468811035 12.75289535522461 -2.224844217300415
-13.334451675415039 8.406816482543945 -1.5133620500564575
-14.822787284851074 8.528060913085938 -1.6417783498764038
-15.46167278289795 8.484354019165039 -1.6931965351104736
-16.324525833129883 8.533134460449219 -1.7684365510940552
-17.8336238861084 8.422487258911133 -1.8934545516967773
-21.58736228942871 9.147330284118652 -2.2508764266967773
-22.101110458374023 7.821863651275635 -2.250782012939453
-22.245073318481445 7.3703484535217285 -2.2498059272766113
-22.388593673706055 6.91893196105957 -2.2497193813323975
-24.308183670043945 5.925036430358887 -2.4020309448242188
-10.326661109924316 8.415878295898438 -1.5824205875396729
-15.452803611755371 10.6387939453125 -2.228543996810913
-16.223339080810547 9.775534629821777 -2.2499122619628906
-14.822787284851074 8.528059959411621 -2.0313611030578613
-16.61577796936035 9.117647171020508 -2.2513468265533447
-16.324522018432617 8.533126831054688 -2.188049793243408
-17.584314346313477 7.035329341888428 -2.249743938446045
-18.901273727416992 6.262481689453125 -2.365237236022949
-19.31998062133789 5.970605373382568 -2.4020309448242188
-19.436717987060547 5.578863620758057 -2.4020309448242188
-19.545513153076172 5.184854507446289 -2.4020309448242188
-10.32666015625 8.41588020324707 -1.8875353336334229
-12.511048316955566 9.78196907043457 -2.250199794769287
-11.805002212524414 8.484106063842773 -2.059793710708618
-13.090587615966797 9.012429237365723 -2.2518680095672607
-13.273460388183594 8.748223304748535 -2.2524421215057373
-13.45106029510498 8.480328559875488 -2.2530248165130615
-13.928327560424805 7.642950057983398 -2.2510910034179688
-14.075396537780762 7.357465744018555 -2.2503600120544434
-14.357040405273438 6.780557155609131 -2.2496964931488037
-14.490776062011719 6.488809108734131 -2.249640703201294
-14.79436206817627 6.268894672393799 -2.2766273021698
-15.623847007751465 6.250967502593994 -2.384340763092041
-15.981368064880371 5.656035423278809 -2.4020309448242188
-16.09244155883789 5.331851482391357 -2.4020309448242188
-16.196990966796875 5.005485534667969 -2.4020309448242188
-16.29486083984375 4.677065849304199 -2.4020309448242188
-16.38606834411621 4.34674596786499 -2.4020309448242188
-10.378158569335938 8.812875747680664 -2.2429521083831787
-10.571769714355469 8.615628242492676 -2.2466886043548584
-10.775591850280762 8.425076484680176 -2.253349542617798
-10.94091796875 8.203465461730957 -2.252777099609375
-11.101616859436035 7.978598594665527 -2.252197265625
-11.257696151733398 7.750543117523193 -2.2516095638275146
-11.409031867980957 7.519424915313721 -2.251014471054077
-11.555606842041016 7.285325527191162 -2.2504124641418457
-11.836897850036621 6.810168743133545 -2.2497034072875977
-11.971890449523926 6.569382190704346 -2.249657392501831
-12.102083206176758 6.325978755950928 -2.249630928039551
-13.425285339355469 5.68876314163208 -2.4020309448242188
-13.840898513793945 4.585835933685303 -2.4020309448242188
-13.93075180053711 4.305130481719971 -2.4020309448242188
-14.014927864074707 4.02266263961792 -2.4020309448242188
-14.09337329864502 3.7385613918304443 -2.4020309448242188
-9.131929397583008 7.754610538482666 -2.251816987991333
-9.578832626342773 7.182181358337402 -2.2503368854522705
-9.719849586486816 6.985531330108643 -2.2498292922973633
-11.555486679077148 5.4574503898620605 -2.4020309448242188
-11.958545684814453 4.506292819976807 -2.4020309448242188
-12.1309175491333 4.019276142120361 -2.4020309448242188
-12.283448219299316 3.525681734085083 -2.4020309448242188
-12.352203369140625 3.276679515838623 -2.4020309448242188
-8.704778671264648 6.256054401397705 -2.2659337520599365
-9.071515083312988 6.245445251464844 -2.328043222427368
-9.45885181427002 6.234063625335693 -2.39459228515625
-9.612646102905273 6.060362815856934 -2.4020309448242188
-9.849713325500488 5.666887283325195 -2.4020309448242188
-9.962264060974121 5.466635704040527 -2.4020309448242188
-10.175069808959961 5.05951452255249 -2.4020309448242188
-10.463001251220703 4.43354606628418 -2.4020309448242188
-10.550477981567383 4.221154689788818 -2.4020309448242188
-10.633649826049805 4.007035255432129 -2.4020309448242188
-10.712468147277832 3.7912774085998535 -2.4020309448242188
-10.856950759887695 3.3552093505859375 -2.4020309448242188
-11.040278434753418 2.691040515899658 -2.4020309448242188
-8.299376487731934 5.964654922485352 -2.4020309448242188
-8.41823673248291 5.795678615570068 -2.4020309448242188
-8.754300117492676 5.274827003479004 -2.4020309448242188
-8.858856201171875 5.096804141998291 -2.4020309448242188
-8.960066795349121 4.9166975021362305 -2.4020309448242188
-9.057621002197266 4.734582901000977 -2.4020309448242188
-9.151471138000488 4.550533294677734 -2.4020309448242188
-9.32791519165039 4.176930904388428 -2.4020309448242188
-9.489116668701172 3.7965080738067627 -2.4020309448242188
-9.634808540344238 3.4098784923553467 -2.4020309448242188
-9.701761245727539 3.2144360542297363 -2.4020309448242188
-7.308384895324707 5.7142462730407715 -2.4020309448242188
-7.64138650894165 5.260810375213623 -2.4020309448242188
-7.746129989624023 5.105287551879883 -2.4020309448242188
-7.847738265991211 4.94766902923584 -2.4020309448242188
-7.946137428283691 4.788025856018066 -2.4020309448242188
-8.13316822052002 4.462947845458984 -2.4020309448242188
-8.306902885437012 4.130574703216553 -2.4020309448242188
-8.613387107849121 3.4461400508880615 -2.4020309448242188
-8.681283950805664 3.271334648132324 -2.4020309448242188
-8.745635032653809 3.0951898097991943 -2.4020309448242188
-8.86358642578125 2.739185094833374 -2.4020309448242188
-8.917206764221191 2.5594654083251953 -2.4020309448242188
-9.013314247131348 2.196963310241699 -2.4020309448242188
-6.46765661239624 5.4921746253967285 -2.4020309448242188
-6.577345848083496 5.360311985015869 -2.4020309448242188
-7.177568435668945 4.525156021118164 -2.4020309448242188
-7.354598045349121 4.231350421905518 -2.4020309448242188
-7.519610404968262 3.9306371212005615 -2.4020309448242188
-7.672339916229248 3.6235008239746094 -2.4020309448242188
-7.7440080642700195 3.4676756858825684 -2.4020309448242188
-7.877840518951416 3.151853561401367 -2.4020309448242188
-7.939931869506836 2.9919731616973877 -2.4020309448242188
-8.155638694763184 2.340890884399414 -2.4020309448242188
-8.201302528381348 2.1755661964416504 -2.4020309448242188
-8.243606567382812 2.0093510150909424 -2.4020309448242188
-5.952780246734619 5.05495023727417 -2.4020309448242188
-6.053742408752441 4.933591842651367 -2.4020309448242188
-6.248202800750732 4.684884071350098 -2.4020309448242188
-6.341618537902832 4.55763578414917 -2.4020309448242188
-6.520640850067139 4.297598838806152 -2.4020309448242188
-6.84645414352417 3.7568845748901367 -2.4020309448242188
-7.061559677124023 3.3350415229797363 -2.4020309448242188
-7.190586566925049 3.046905517578125 -2.4020309448242188
-7.307857036590576 2.7537901401519775 -2.4020309448242188
-7.362028121948242 2.605513334274292 -2.4020309448242188
-7.5484185218811035 2.002375841140747 -2.4020309448242188
-7.587351322174072 1.8493906259536743 -2.4020309448242188
-5.692721843719482 4.450949192047119 -2.4020309448242188
-5.781527519226074 4.334972381591797 -2.4020309448242188
-6.033621311187744 3.976616621017456 -2.4020309448242188
-6.189418792724609 3.729496479034424 -2.4020309448242188
-6.335099220275879 3.476285934448242 -2.4020309448242188
-6.404070854187012 3.347524881362915 -2.4020309448242188
-6.470426082611084 3.217393159866333 -2.4020309448242188
-6.595180511474609 2.95324444770813 -2.4020309448242188
-6.7620391845703125 2.548112392425537 -2.4020309448242188
-6.812191009521484 2.41091251373291 -2.4020309448242188
-6.9457573890686035 1.993619441986084 -2.4020309448242188
-6.984635353088379 1.8528199195861816 -2.4020309448242188
-5.291545867919922 4.137277126312256 -2.4020309448242188
-5.374088764190674 4.029475688934326 -2.4020309448242188
-5.532553195953369 3.8089776039123535 -2.4020309448242188
-5.608410358428955 3.6963725090026855 -2.4020309448242188
-5.753231048583984 3.466667413711548 -2.4020309448242188
-5.888644218444824 3.231301784515381 -2.4020309448242188
-5.952755451202393 3.111614942550659 -2.4020309448242188
-6.07365608215332 2.8684747219085693 -2.4020309448242188
-6.130396366119385 2.7451202869415283 -2.4020309448242188
-6.184633731842041 2.6206488609313965 -2.4020309448242188
-6.236337184906006 2.4951040744781494 -2.4020309448242188
-6.332086086273193 2.24100661277771 -2.4020309448242188
-6.37608528137207 2.112558603286743 -2.4020309448242188
-6.417490482330322 1.9832475185394287 -2.4020309448242188
-6.456264495849609 1.8531233072280884 -2.4020309448242188
-4.777822971343994 4.0572052001953125 -2.4020309448242188
-4.937901973724365 3.860779285430908 -2.4020309448242188
-5.014931678771973 3.7601819038391113 -2.4020309448242188
-5.089906692504883 3.6580522060394287 -2.4020309448242188
-5.162808895111084 3.554419994354248 -2.4020309448242188
-5.302252292633057 3.3428471088409424 -2.4020309448242188
-5.612486362457275 2.790786027908325 -2.4020309448242188
-5.667749881744385 2.6767711639404297 -2.4020309448242188
-5.81948709487915 2.328347682952881 -2.4020309448242188
-5.865429401397705 2.21024751663208 -2.4020309448242188
-5.908905506134033 2.0912370681762695 -2.4020309448242188
-5.988600730895996 1.850705623626709 -2.4020309448242188
-6.024791717529297 1.7292771339416504 -2.4020309448242188
-4.473637580871582 3.798900604248047 -2.4020309448242188
-4.54951286315918 3.707695722579956 -2.4020309448242188
-4.900395393371582 3.229734420776367 -2.4020309448242188
-5.1452531814575195 2.8233752250671387 -2.4020309448242188
-5.201269626617432 2.718797445297241 -2.4020309448242188
-5.255163669586182 2.6131083965301514 -2.4020309448242188
-5.3069071769714355 2.506352424621582 -2.4020309448242188
-5.403867721557617 2.289811849594116 -2.4020309448242188
-5.492002010345459 2.0695297718048096 -2.4020309448242188
-5.532711505889893 1.9580979347229004 -2.4020309448242188
-4.2011871337890625 3.567540168762207 -2.4020309448242188
-4.341945648193359 3.3948211669921875 -2.4020309448242188
-4.475606441497803 3.2165606021881104 -2.4020309448242188
-4.539709568023682 3.125436305999756 -2.4020309448242188
-4.601954460144043 3.033038854598999 -2.4020309448242188
-4.662322998046875 2.9393980503082275 -2.4020309448242188
-4.720785617828369 2.8445560932159424 -2.4020309448242188
-4.777318000793457 2.748553991317749 -2.4020309448242188
-4.831898212432861 2.65142822265625 -2.4020309448242188
-4.983706474304199 2.3537113666534424 -2.4020309448242188
-5.157532691955566 1.9434928894042969 -2.4020309448242188
-5.195764541625977 1.8388465642929077 -2.4020309448242188
-5.23187255859375 1.733450174331665 -2.4020309448242188
-5.265839576721191 1.6273435354232788 -2.4020309448242188
-3.9555137157440186 3.3589227199554443 -2.4020309448242188
-4.08804178237915 3.196303129196167 -2.4020309448242188
-4.213887691497803 3.0284674167633057 -2.4020309448242188
-4.274241924285889 2.9426701068878174 -2.4020309448242188
-4.3328471183776855 2.855674982070923 -2.4020309448242188
-4.444726467132568 2.6782171726226807 -2.4020309448242188
-4.497954845428467 2.587827205657959 -2.4020309448242188
-4.778011322021484 2.0246121883392334 -2.4020309448242188
-4.855937480926514 1.829843282699585 -2.4020309448242188
-4.891931056976318 1.731316328048706 -2.4020309448242188
-4.925928115844727 1.632083535194397 -2.4020309448242188
-4.957910060882568 1.5321812629699707 -2.4020309448242188
-3.7959470748901367 3.09356689453125 -2.4020309448242188
-3.917881965637207 2.937617063522339 -2.4020309448242188
-3.976457357406616 2.857828378677368 -2.4020309448242188
-4.142348766326904 2.611576557159424 -2.4020309448242188
-4.244518280029297 2.4420158863067627 -2.4020309448242188
-4.384709358215332 2.1802825927734375 -2.4020309448242188
-4.427887916564941 2.0912091732025146 -2.4020309448242188
-4.469256401062012 2.0012803077697754 -2.4020309448242188
-4.582330226898193 1.7267411947250366 -2.4020309448242188
-4.61629581451416 1.633765697479248 -2.4020309448242188
-4.706825256347656 1.350986123085022 -2.4020309448242188
-3.7044901847839355 2.7776145935058594 -2.4020309448242188
-3.759874105453491 2.702173948287964 -2.4020309448242188
-3.8660173416137695 2.547999382019043 -2.4020309448242188
-3.916731595993042 2.4693336486816406 -2.4020309448242188
-3.965843439102173 2.389660120010376 -2.4020309448242188
-4.0132856369018555 2.3090057373046875 -2.4020309448242188
-4.059189319610596 2.2274153232574463 -2.4020309448242188
-4.14589786529541 2.061530590057373 -2.4020309448242188
-4.263218402862549 1.8064765930175781 -2.4020309448242188
-4.298861026763916 1.7199360132217407 -2.4020309448242188
-4.364865779876709 1.5447797775268555 -2.4020309448242188
-4.423734188079834 1.3671013116836548 -2.4020309448242188
-4.4504618644714355 1.277403712272644 -2.4020309448242188
-4.475372791290283 1.1871867179870605 -2.4020309448242188
-4.498456954956055 1.0964832305908203 -2.4020309448242188
-3.399650812149048 2.770599365234375 -2.4020309448242188
-3.508856773376465 2.630930185317993 -2.4020309448242188
-3.661851644515991 2.4134387969970703 -2.4020309448242188
-3.7098875045776367 2.338927745819092 -2.4020309448242188
-3.75640869140625 2.263460874557495 -2.4020309448242188
-3.8013908863067627 2.187069892883301 -2.4020309448242188
-3.8447654247283936 2.10978102684021 -2.4020309448242188
-3.8866710662841797 2.0316379070281982 -2.4020309448242188
-4.00266695022583 1.7923469543457031 -2.4020309448242188
-4.038077354431152 1.7110764980316162 -2.4020309448242188
-4.190115451812744 1.2949045896530151 -2.4020309448242188
-4.215430736541748 1.209944248199463 -2.4020309448242188
-3.1712944507598877 2.6929850578308105 -2.4020309448242188
-3.2250823974609375 2.628331184387207 -2.4020309448242188
-3.378443479537964 2.428043842315674 -2.4020309448242188
-3.5635149478912354 2.1472342014312744 -2.4020309448242188
-3.687098264694214 1.9273145198822021 -2.4020309448242188
-3.725303888320923 1.8523926734924316 -2.4020309448242188
-3.7619872093200684 1.7767151594161987 -2.4020309448242188
-3.7971324920654297 1.700310230255127 -2.4020309448242188
-3.862752676010132 1.545452356338501 -2.4020309448242188
-3.893200635910034 1.4670581817626953 -2.4020309448242188
-3.9220592975616455 1.3880665302276611 -2.4020309448242188
-3.949315071105957 1.3085072040557861 -2.4020309448242188
-3.974954843521118 1.2284116744995117 -2.4020309448242188
-3.9989726543426514 1.1478132009506226 -2.4020309448242188
-4.021358013153076 1.066749095916748 -2.4020309448242188
-4.042099952697754 0.9852479100227356 -2.4020309448242188
