ply
format ascii 1.0
element vertex 841
property float x
property float y
property float z
end_header
-17.246740341186523 22.824542999267578 3.7253410816192627
6.119797229766846 9.345890998840332 1.199594259262085
6.472786903381348 22.674596786499023 2.5321030616760254
2.7799413204193115 20.12232780456543 2.181295156478882
1.8563024997711182 19.06536865234375 2.056954860687256
1.475645661354065 19.13965606689453 2.061349391937256
0.7043505907058716 19.171762466430664 2.060086965560913
-0.9458447098731995 21.61751937866211 2.3235487937927246
-16.6267032623291 34.77719497680664 4.139284610748291
-16.96099090576172 33.71664047241211 4.052841663360596
-17.63090705871582 33.35979461669922 4.0517578125
-17.30935287475586 24.931949615478516 3.259202241897583
-17.30815315246582 23.889902114868164 3.167853355407715
6.472352027893066 22.67308235168457 1.99601149559021
2.476841926574707 17.928361892700195 1.5321012735366821
2.123370409011841 18.03890037536621 1.53758704662323
1.7613842487335205 18.090524673461914 1.5386561155319214
0.6611242294311523 17.995187759399414 1.5243711471557617
-0.8945849537849426 20.44586944580078 1.7324564456939697
-16.663822174072266 33.12590789794922 3.139019012451172
-17.31062126159668 26.036298751831055 2.646732807159424
-17.30935287475586 24.931930541992188 2.5693414211273193
6.471923828125 22.67157745361328 1.4620319604873657
4.36221170425415 19.71717643737793 1.2522343397140503
3.9817259311676025 19.885454177856445 1.2575806379318237
3.559739828109741 19.842941284179688 1.2501108646392822
2.719416379928589 19.684232711791992 1.2322196960449219
1.4732580184936523 19.108684539794922 1.1884526014328003
0.3175695836544037 19.11749267578125 1.1856458187103271
-0.44362059235572815 18.782838821411133 1.1650550365447998
-16.182817459106445 33.84870147705078 2.326517343521118
-16.889474868774414 33.57448959350586 2.330549478530884
-18.580717086791992 33.50788879394531 2.375910997390747
-17.246742248535156 23.805145263671875 1.8228669166564941
-17.246740341186523 22.82455062866211 1.7739830017089844
6.119797229766846 9.345890998840332 0.4404969811439514
2.578824520111084 18.666566848754883 0.7430329918861389
2.219512939453125 18.855676651000977 0.7486323118209839
-0.07105590403079987 20.29125213623047 0.8001099824905396
-0.47109130024909973 19.945941925048828 0.7867085337638855
-0.8817638754844666 20.152843475341797 0.7954078316688538
-1.2969945669174194 20.289377212524414 0.8016642332077026
-2.118710994720459 20.286476135253906 0.804267406463623
-12.939889907836914 38.36570358276367 1.596526026725769
-15.774669647216797 34.775482177734375 1.5057145357131958
-16.592702865600586 32.98454666137695 1.4559059143066406
-17.243412017822266 32.626617431640625 1.4551234245300293
-17.246746063232422 25.940231323242188 1.2282917499542236
6.119797229766846 9.345890998840332 0.18870437145233154
-15.829384803771973 34.896087646484375 0.6472672820091248
-15.879874229431152 33.215091705322266 0.621886134147644
-18.373912811279297 33.134944915771484 0.6400004625320435
-19.5952205657959 33.72005081176758 0.6587821841239929
-19.77168083190918 32.500999450683594 0.6426051259040833
-17.8371639251709 23.60592269897461 0.4997810125350952
6.11979866027832 9.345890998840332 -0.06289428472518921
-16.307077407836914 34.108642578125 -0.21285659074783325
-16.921537399291992 33.638206481933594 -0.21200332045555115
-18.621013641357422 33.58055877685547 -0.21618635952472687
4.429356575012207 32.06144332885742 -0.9113526940345764
3.7422971725463867 31.79234504699707 -0.9013814926147461
3.109140634536743 31.932783126831055 -0.9034072756767273
2.458449602127075 31.88697624206543 -0.9005303978919983
1.8187817335128784 31.96685218811035 -0.9015702605247498
-1.3970983028411865 31.930986404418945 -0.8999650478363037
-3.3195366859436035 31.784263610839844 -0.8998417258262634
-3.990892171859741 31.974035263061523 -0.9073031544685364
-4.613667011260986 31.753440856933594 -0.9034945368766785
-6.634896755218506 31.971071243286133 -0.919414222240448
-7.263410568237305 31.77384376525879 -0.9177581667900085
-12.957741737365723 31.918912887573242 -0.970001220703125
-13.657812118530273 31.79332733154297 -0.9743363857269287
-15.258634567260742 31.915719985961914 -0.9960998296737671
-16.90095329284668 31.9786434173584 -1.018469214439392
-18.512004852294922 31.856037139892578 -1.0374525785446167
-19.3809757232666 31.858760833740234 -1.0500258207321167
-21.247514724731445 31.957643508911133 -1.0805931091308594
6.119797229766846 9.345890998840332 -0.5665420293807983
24.332128524780273 40.63587188720703 -2.4020156860351562
23.509984970092773 41.11692428588867 -2.4020156860351562
22.67828369140625 41.58182144165039 -2.4020156860351562
17.50782012939453 44.00905990600586 -2.4020156860351562
15.723925590515137 44.677490234375 -2.4020156860351562
13.914555549621582 45.273651123046875 -2.4020156860351562
6.467763423919678 22.657001495361328 -1.1949338912963867
11.159257888793945 46.03034591674805 -2.4020156860351562
8.709197044372559 43.49523162841797 -2.2496156692504883
4.431214332580566 32.074920654296875 -1.6421055793762207
3.1142637729644775 31.98539924621582 -1.6297872066497803
2.4612720012664795 31.923574447631836 -1.623785376548767
-0.11190063506364822 31.953598022460938 -1.6205130815505981
-1.0859057903289795 24.81855010986328 -1.2598580121994019
-2.035400390625 31.840471267700195 -1.618061900138855
-2.6909167766571045 31.97832679748535 -1.6274889707565308
-3.315530300140381 31.745868682861328 -1.6187248229980469
-4.620680332183838 31.80169677734375 -1.629734754562378
-6.626558780670166 31.93088722229004 -1.6538549661636353
-7.271576404571533 31.80952262878418 -1.6548101902008057
-10.525562286376953 42.125614166259766 -2.2020480632781982
-11.044107437133789 40.70222091674805 -2.138821601867676
-11.352811813354492 38.73971939086914 -2.0472819805145264
-13.046552658081055 41.41428756713867 -2.2020480632781982
-10.935104370117188 32.421669006347656 -1.7352445125579834
-12.985105514526367 31.986310958862305 -1.7507352828979492
-13.684989929199219 31.85659408569336 -1.7583461999893188
-15.318354606628418 32.04063415527344 -1.8010733127593994
-16.022260665893555 31.850587844848633 -1.8081417083740234
-16.900775909423828 31.978307723999023 -1.8343207836151123
-17.743595123291016 31.998252868652344 -1.8555620908737183
-20.501073837280273 32.22220230102539 -1.936836838722229
-22.12051773071289 31.861825942993164 -1.96709406375885
-25.474925994873047 35.1622428894043 -2.2020480632781982
18.49382972717285 27.04034423828125 -2.4020156860351562
17.391490936279297 27.762163162231445 -2.4020156860351562
16.82964515686035 28.106306076049805 -2.4020156860351562
15.685778617858887 28.76035499572754 -2.4020156860351562
14.516542434692383 29.367862701416016 -2.4020156860351562
13.922985076904297 29.653879165649414 -2.4020156860351562
13.323802947998047 29.92789077758789 -2.4020156860351562
12.719233512878418 30.18978500366211 -2.4020156860351562
12.10952377319336 30.43946647644043 -2.4020156860351562
11.49492359161377 30.676849365234375 -2.4020156860351562
10.252006530761719 31.11427879333496 -2.4020156860351562
6.445504188537598 22.579025268554688 -1.7216765880584717
7.826943397521973 29.666114807128906 -2.2496156692504883
6.022000789642334 30.074928283691406 -2.2489304542541504
3.1206066608428955 19.662538528442383 -1.4597442150115967
1.91348135471344 24.81855010986328 -1.8251498937606812
0.9118078351020813 24.81855010986328 -1.8209766149520874
-0.0869140625 24.81855010986328 -1.819761037826538
-1.085900902748108 24.81855010986328 -1.8214874267578125
-3.119615316390991 29.870040893554688 -2.2020480632781982
-3.7197020053863525 29.8012638092041 -2.2020480632781982
-6.692708969116211 29.277278900146484 -2.2020480632781982
-7.864622592926025 28.984466552734375 -2.2020480632781982
-9.039069175720215 28.693180084228516 -2.205770254135132
-9.67756175994873 28.693178176879883 -2.220285654067993
-10.313224792480469 28.66111183166504 -2.2334048748016357
-10.884891510009766 28.440980911254883 -2.2328615188598633
-12.014013290405273 27.96681022644043 -2.231788396835327
-12.571022987365723 27.712982177734375 -2.2312588691711426
-13.122736930847168 27.448102951049805 -2.230734348297119
-13.668899536132812 27.17231559753418 -2.230215311050415
-14.743785858154297 26.588476181030273 -2.2291934490203857
-16.30934715270996 25.63391876220703 -2.227705240249634
-17.319515228271484 24.946563720703125 -2.2267448902130127
14.124335289001465 20.651578903198242 -2.4020156860351562
6.11979866027832 9.345890998840332 -1.0724984407424927
12.419062614440918 21.719858169555664 -2.4020156860351562
11.97973346710205 21.965206146240234 -2.4020156860351562
10.633427619934082 22.64762306213379 -2.4020156860351562
8.661652565002441 21.772619247436523 -2.2496156692504883
6.883961200714111 22.39826202392578 -2.2496156692504883
5.975743293762207 22.649599075317383 -2.2488837242126465
5.517967224121094 22.76079559326172 -2.248448610305786
3.008201837539673 16.768531799316406 -1.6355565786361694
2.842604875564575 20.575902938842773 -1.9941520690917969
2.4282422065734863 20.628908157348633 -1.9941520690917969
0.3449963331222534 20.768463134765625 -1.9941520690917969
-0.07274048030376434 20.771203994750977 -1.9941520690917969
-0.395111083984375 16.728961944580078 -1.606510877609253
-0.7317834496498108 16.725048065185547 -1.6072252988815308
-1.4053478240966797 16.700891494750977 -1.6090362071990967
-2.4245898723602295 23.21521759033203 -2.2409002780914307
-2.89040207862854 23.157184600830078 -2.240457534790039
-3.817800283432007 23.013166427612305 -2.2395761013031006
-4.279003143310547 22.92726707458496 -2.239137649536133
-4.73830509185791 22.83209991455078 -2.238701105117798
-5.6504435539245605 22.614347457885742 -2.2378342151641846
-6.102905750274658 22.491796493530273 -2.2374041080474854
-6.552737236022949 22.36024284362793 -2.2369766235351562
-6.999771595001221 22.21971893310547 -2.236551523208618
-7.884671688079834 21.912012100219727 -2.235710620880127
-8.322196006774902 21.74496841430664 -2.2352945804595947
-9.61298942565918 21.19196319580078 -2.234067678451538
-10.453667640686035 20.780786514282227 -2.2332684993743896
-10.867557525634766 20.562728881835938 -2.232875108718872
-11.276926040649414 20.336471557617188 -2.2324860095977783
-11.681628227233887 20.10209846496582 -2.2321012020111084
-12.866036415100098 19.351348876953125 -2.230975389480591
-13.629368782043457 18.81219482421875 -2.2302496433258057
11.748913764953613 16.45805549621582 -2.4020156860351562
6.11979866027832 9.345890998840332 -1.3269904851913452
10.388319969177246 17.348981857299805 -2.4020156860351562
9.68224811553955 17.75270652770996 -2.4020156860351562
8.39200210571289 16.977558135986328 -2.2496156692504883
8.048869132995605 17.14289665222168 -2.2496156692504883
7.702487468719482 17.301298141479492 -2.2496156692504883
7.352984428405762 17.452701568603516 -2.2496156692504883
7.000511169433594 17.597042083740234 -2.2496156692504883
6.285993576049805 17.86083984375 -2.2491767406463623
5.924617767333984 17.980899810791016 -2.248833179473877
5.1951584815979 18.198991775512695 -2.2481400966644287
4.827363014221191 18.29694366455078 -2.247790575027466
3.3584301471710205 16.77260398864746 -2.0318918228149414
3.008199453353882 16.768531799316406 -2.0236666202545166
1.979071021080017 16.813030242919922 -2.010938882827759
1.631105899810791 16.752521514892578 -1.9993762969970703
0.956591784954071 16.813030242919922 -2.000380754470825
0.27928832173347473 16.813030242919922 -1.997426152229309
-0.058879394084215164 16.813030242919922 -1.9971630573272705
-0.3951135277748108 16.728961944580078 -1.9877190589904785
-0.7317870855331421 16.725048065185547 -1.988600730895996
-1.9599828720092773 18.766666412353516 -2.241340160369873
-2.336629629135132 18.720460891723633 -2.2409820556640625
-2.712211847305298 18.666711807250977 -2.2406251430511475
-3.459571361541748 18.536666870117188 -2.239914894104004
-4.200882434844971 18.37676429748535 -2.2392101287841797
-4.568887233734131 18.28571319580078 -2.2388603687286377
-5.29887580871582 18.081586837768555 -2.238166570663452
-6.730708599090576 17.586580276489258 -2.2368056774139404
-7.081964492797852 17.445056915283203 -2.236471652984619
-7.775462627410889 17.1411075592041 -2.2358124256134033
-8.791128158569336 16.633869171142578 -2.234847068786621
-9.122586250305176 16.451391220092773 -2.234532594680786
-9.450273513793945 16.2623348236084 -2.2342216968536377
-9.774106979370117 16.066787719726562 -2.233914852142334
-10.093860626220703 15.864822387695312 -2.2336113452911377
-10.409506797790527 15.656521797180176 -2.2333130836486816
-10.720827102661133 15.441984176635742 -2.2330193519592285
-11.027764320373535 15.221281051635742 -2.23272967338562
9.84975528717041 13.797688484191895 -2.4020156860351562
8.42883014678955 13.455001831054688 -2.2496156692504883
8.156530380249023 13.621793746948242 -2.2496156692504883
7.880934715270996 13.783073425292969 -2.2496156692504883
7.320295333862305 14.088845252990723 -2.2496156692504883
7.035473346710205 14.23321533203125 -2.2496156692504883
6.45661735534668 14.502835273742676 -2.2493388652801514
5.866727352142334 14.747072219848633 -2.2487781047821045
4.6602783203125 15.163094520568848 -2.2476305961608887
4.045700550079346 15.334246635437012 -2.247046709060669
3.73600697517395 15.410490036010742 -2.2467522621154785
2.7988476753234863 15.601543426513672 -2.245861768722534
2.4841907024383545 15.652589797973633 -2.245562791824341
1.5352075099945068 15.767569541931152 -2.2446608543395996
1.2176318168640137 15.793130874633789 -2.244359016418457
0.26298338174819946 15.831412315368652 -2.2434518337249756
-0.05544067174196243 15.831360816955566 -2.2431490421295166
-0.37376096844673157 15.824912071228027 -2.242846727371216
-1.009555697441101 15.792821884155273 -2.2422423362731934
-1.3267663717269897 15.767205238342285 -2.241940975189209
-2.2742114067077637 15.65222454071045 -2.2410409450531006
-2.9010276794433594 15.543981552124023 -2.240445852279663
-3.8315606117248535 15.334721565246582 -2.239563226699829
-4.138615131378174 15.252583503723145 -2.239272356033325
-4.443991184234619 15.164311408996582 -2.238983154296875
-4.747408866882324 15.069937705993652 -2.2386958599090576
-5.0488691329956055 14.96950626373291 -2.238410472869873
-5.6453118324279785 14.750641822814941 -2.2378451824188232
-6.232359886169434 14.508078575134277 -2.237287998199463
-6.522061824798584 14.378045082092285 -2.237013101577759
-6.809080123901367 14.242237091064453 -2.236740827560425
-7.6527252197265625 13.800790786743164 -2.235940456390381
-7.927857398986816 13.642499923706055 -2.2356793880462646
-8.733112335205078 13.135140419006348 -2.2349164485931396
-5.829193115234375 8.396222114562988 -1.44825279712677
6.119797229766846 9.345890998840332 -1.8403478860855103
7.015291690826416 11.715866088867188 -2.2496156692504883
6.778255462646484 11.854581832885742 -2.2496156692504883
6.537918567657471 11.987476348876953 -2.2494235038757324
6.294871807098389 12.115288734436035 -2.249191999435425
6.049319744110107 12.238163948059082 -2.2489583492279053
5.801367282867432 12.356046676635742 -2.2487220764160156
5.298663139343262 12.57667064666748 -2.248243808746338
3.1284778118133545 8.349047660827637 -1.4688036441802979
2.967808723449707 8.43263053894043 -1.472707748413086
4.007128715515137 13.037942886352539 -2.2470152378082275
3.478813409805298 13.185590744018555 -2.2465131282806396
2.9450926780700684 13.311813354492188 -2.2460060119628906
1.6817455291748047 8.398907661437988 -1.41109037399292
1.8649511337280273 13.499260902404785 -2.2449798583984375
1.5929137468338013 13.532482147216797 -2.2447214126586914
1.3202892541885376 13.560215950012207 -2.244462490081787
1.0471935272216797 13.582454681396484 -2.2442030906677246
0.7737389802932739 13.59919548034668 -2.243943452835083
0.5000329613685608 13.610427856445312 -2.243683338165283
0.13886840641498566 8.359395980834961 -1.3773092031478882
-0.029508056119084358 8.428226470947266 -1.3884669542312622
-0.3214733898639679 13.611076354980469 -2.242903232574463
-0.8683556914329529 13.583990097045898 -2.2423837184906006
-1.1412341594696045 13.562214851379395 -2.2421247959136963
-1.4135863780975342 13.534957885742188 -2.241866111755371
-1.685305118560791 13.502241134643555 -2.241608142852783
-1.9562829732894897 13.464073181152344 -2.2413508892059326
-1.3856688737869263 8.352643966674805 -1.3948135375976562
-2.495569944381714 13.371453285217285 -2.2408387660980225
-2.763665199279785 13.317052841186523 -2.240584373474121
-3.0305774211883545 13.257280349731445 -2.2403311729431152
-3.8231866359710693 13.046030044555664 -2.2395787239074707
-2.8289520740509033 8.387629508972168 -1.4582479000091553
-5.110788345336914 12.589469909667969 -2.238363027572632
-5.362367630004883 12.482818603515625 -2.238125801086426
-5.611753940582275 12.37115478515625 -2.2378904819488525
-4.41209602355957 8.348224639892578 -1.5555323362350464
-4.69365119934082 8.46439266204834 -1.5944534540176392
-5.386202335357666 8.465677261352539 -1.6529738903045654
-7.5151262283325195 11.303239822387695 -2.2360904216766357
-5.829193115234375 8.396222114562988 -1.683860182762146
6.953895092010498 9.74111557006836 -2.2496161460876465
6.119799613952637 9.345890998840332 -2.099764108657837
6.1513352394104 10.273022651672363 -2.250622272491455
5.731812477111816 10.50946044921875 -2.250061273574829
5.518653392791748 10.621352195739746 -2.2497944831848145
5.300493240356445 10.723511695861816 -2.2483956813812256
5.083113670349121 10.82628059387207 -2.24804949760437
4.642778396606445 11.019880294799805 -2.2476305961608887
2.967808723449707 8.43263053894043 -1.6803008317947388
3.740757942199707 11.353001594543457 -2.246772527694702
2.597327709197998 8.45087718963623 -1.6617628335952759
2.4125256538391113 8.451220512390137 -1.6519535779953003
2.049021005630493 8.451894760131836 -1.6346429586410522
1.6817443370819092 8.398904800415039 -1.6100040674209595
1.8721667528152466 11.79631519317627 -2.2449965476989746
1.167877197265625 8.453527450561523 -1.6040229797363281
0.6781213283538818 11.918648719787598 -2.2438626289367676
0.13887085020542145 8.359396934509277 -1.5714555978775024
-0.029508056119084358 8.428226470947266 -1.5841854810714722
-0.7611144781112671 11.906355857849121 -2.2424967288970947
-1.00030517578125 11.887442588806152 -2.24226975440979
-1.2390429973602295 11.863718032836914 -2.2420434951782227
-1.0556530952453613 8.457650184631348 -1.602041482925415
-1.714781403541565 11.801924705505371 -2.2415924072265625
-1.3856688737869263 8.352643966674805 -1.591426968574524
-2.889495849609375 11.56440544128418 -2.240478754043579
-2.479311466217041 8.460289001464844 -1.657080054283142
-3.5805180072784424 11.365800857543945 -2.239824056625366
-3.4352378845214844 8.46205997467041 -1.7166006565093994
-3.6352953910827637 8.462431907653809 -1.731160044670105
-4.919978141784668 10.845986366271973 -2.238555669784546
-5.136528968811035 10.743847846984863 -2.2383482456207275
-4.41209602355957 8.348224639892578 -1.7748034000396729
-6.009139060974121 10.340652465820312 -2.247987747192383
-6.2206645011901855 10.225598335266113 -2.2497222423553467
-6.425783634185791 10.099621772766113 -2.249986410140991
-7.025761604309082 9.69741439819336 -2.2508342266082764
6.008041858673096 8.78452205657959 -2.2496261596679688
5.830163478851318 8.903573989868164 -2.249626636505127
5.467403411865234 9.130821228027344 -2.249626636505127
5.10249137878418 9.355575561523438 -2.252582311630249
4.721164226531982 9.551217079162598 -2.25211501121521
4.527680397033691 9.64328384399414 -2.251894235610962
4.332421779632568 9.73147201538086 -2.2516815662384033
3.93688702583313 9.896066665649414 -2.2512826919555664
2.967808723449707 8.432629585266113 -1.8896583318710327
3.12792706489563 10.177302360534668 -2.2505898475646973
2.7157788276672363 10.293516159057617 -2.2502973079681396
2.508074998855591 10.345442771911621 -2.250164747238159
1.668245792388916 10.51148509979248 -2.2497262954711914
0.6035791039466858 10.609275817871094 -2.2462146282196045
0.13886840641498566 8.359395980834961 -1.7672511339187622
-0.677490234375 10.597879409790039 -2.244751214981079
-1.103336215019226 10.565614700317383 -2.2455055713653564
-1.3856688737869263 8.352643966674805 -1.7897112369537354
-1.9519702196121216 10.458663940429688 -2.248924493789673
-2.16239857673645 10.420511245727539 -2.2496182918548584
-2.371767520904541 10.375292778015137 -2.249701499938965
-2.5800585746765137 10.325920104980469 -2.2497944831848145
-3.1984832286834717 10.153069496154785 -2.2501296997070312
-2.8289520740509033 8.387629508972168 -1.8711074590682983
-3.80560040473938 9.943571090698242 -2.250547170639038
-4.202981948852539 9.783902168273926 -2.250870943069458
-4.399228572845459 9.698155403137207 -2.2510461807250977
-4.593766212463379 9.608504295349121 -2.251230001449585
-4.786460876464844 9.514997482299805 -2.251422882080078
-5.537741184234619 9.103031158447266 -2.2522799968719482
-5.720287799835205 8.990761756896973 -2.2525155544281006
-5.900580883026123 8.874862670898438 -2.2527592182159424
-5.8291916847229 8.396224021911621 -2.160586357116699
5.403649806976318 7.900822639465332 -2.249630928039551
4.751247406005859 8.309518814086914 -2.249630928039551
4.58317232131958 8.403389930725098 -2.249630928039551
4.417422771453857 8.501893997192383 -2.2517588138580322
4.076010704040527 8.68129825592041 -2.2540016174316406
3.722989320755005 8.836714744567871 -2.253626585006714
2.999943733215332 9.104671478271484 -2.2529704570770264
2.816056966781616 9.16257381439209 -2.252826452255249
0.9284985065460205 9.536267280578613 -2.251840114593506
0.7365099787712097 9.552788734436035 -2.2517876625061035
0.3517517149448395 9.574342727661133 -2.2517082691192627
-0.029508056119084358 8.428226470947266 -1.9808379411697388
-0.41878294944763184 9.571404457092285 -2.251652240753174
-0.6111925840377808 9.561075210571289 -2.251659631729126
-0.8033568859100342 9.546918869018555 -2.251675605773926
-1.9470140933990479 9.381929397583008 -2.251950263977051
-2.322885751724243 9.296701431274414 -2.2521097660064697
-2.695086717605591 9.196560859680176 -2.252302646636963
-2.828953266143799 8.387626647949219 -2.0803885459899902
-3.2452361583709717 9.018722534179688 -2.2526543140411377
-3.426154613494873 8.952165603637695 -2.2527880668640137
-3.6057238578796387 8.882010459899902 -2.2529296875
-3.7838733196258545 8.808284759521484 -2.253079891204834
-4.309073448181152 8.565982818603516 -2.2535769939422607
-4.480831623077393 8.478273391723633 -2.253758668899536
-4.817729949951172 8.290511131286621 -2.2535645961761475
-4.982898235321045 8.190979957580566 -2.2532989978790283
-5.145994663238525 8.088130950927734 -2.2530252933502197
-5.306946754455566 7.982006549835205 -2.252743721008301
-5.465692520141602 7.872651100158691 -2.2524542808532715
5.04819917678833 7.071579456329346 -2.249630928039551
4.904958248138428 7.171677112579346 -2.249630928039551
4.759738445281982 7.2688727378845215 -2.249630928039551
4.318362712860107 7.552439212799072 -2.2525506019592285
4.165989875793457 7.6384711265563965 -2.2527596950531006
3.054547071456909 8.151763916015625 -2.253946542739868
2.7245874404907227 8.268973350524902 -2.2542107105255127
2.5578978061676025 8.322532653808594 -2.2543296813964844
2.22123646736145 8.419058799743652 -2.2544355392456055
2.0513720512390137 8.461615562438965 -2.254326820373535
1.8807042837142944 8.500781059265137 -2.254225730895996
1.5372142791748047 8.568852424621582 -2.2540459632873535
1.364526391029358 8.597729682922363 -2.253967761993408
1.1913061141967773 8.623162269592285 -2.253896951675415
0.8435351252555847 8.663639068603516 -2.2537782192230225
0.49443724751472473 8.69021987915039 -2.253690719604492
0.31956419348716736 8.69827938079834 -2.2536585330963135
0.13886840641498566 8.359395980834961 -2.1646933555603027
-0.029508056119084358 8.428226470947266 -2.18222975730896
-0.3804663121700287 8.695631980895996 -2.2536075115203857
-1.2515746355056763 8.61392593383789 -2.253718852996826
-1.7688440084457397 8.523390769958496 -2.253878593444824
-2.2797656059265137 8.401973724365234 -2.254080295562744
-2.615480899810791 8.302464485168457 -2.2537992000579834
-2.781724691390991 8.24761962890625 -2.253645658493042
-3.273259162902832 8.063054084777832 -2.253136157989502
-3.4344732761383057 7.994931697845459 -2.2529501914978027
-3.5942399501800537 7.923569202423096 -2.252755880355835
-3.7525243759155273 7.848971843719482 -2.252553701400757
-3.9092602729797363 7.77119255065918 -2.2523436546325684
-4.217775344848633 7.606203556060791 -2.2519001960754395
-4.369441986083984 7.5190653800964355 -2.251667022705078
-4.519286632537842 7.428874492645264 -2.2514266967773438
-4.667260646820068 7.335683345794678 -2.251178503036499
-4.81329870223999 7.239513874053955 -2.2509233951568604
-4.957341194152832 7.14041805267334 -2.2506608963012695
-5.099321365356445 7.038433074951172 -2.2503912448883057
-5.239192962646484 6.9336090087890625 -2.250114917755127
4.617099285125732 6.467701435089111 -2.249630928039551
4.084344387054443 6.821046829223633 -2.250697612762451
3.946676015853882 6.902395248413086 -2.250889301300049
3.8073766231536865 6.980942726135254 -2.2510738372802734
3.6665074825286865 7.0566630363464355 -2.251250982284546
3.524111270904541 7.12950325012207 -2.251420736312866
3.380261182785034 7.199454307556152 -2.2515833377838135
2.940563917160034 7.391633033752441 -2.252025604248047
2.791483163833618 7.44971227645874 -2.252157688140869
2.4899144172668457 7.556756973266602 -2.252398729324341
2.3375511169433594 7.605663776397705 -2.2525076866149902
2.184222459793091 7.65148401260376 -2.25260853767395
2.0299901962280273 7.6941819190979 -2.2527015209198
1.7190600633621216 7.770147323608398 -2.252863645553589
1.5624951124191284 7.803386211395264 -2.252932548522949
1.4052855968475342 7.833444595336914 -2.25299334526062
1.2474926710128784 7.860306262969971 -2.2530462741851807
1.0891833305358887 7.883955001831055 -2.2530910968780518
0.771289050579071 7.921613693237305 -2.2531561851501465
0.4521130323410034 7.946329116821289 -2.2531888484954834
-0.027872314676642418 7.959095478057861 -2.253176212310791
-0.3479016125202179 7.951360702514648 -2.253127098083496
-0.5077319145202637 7.942625522613525 -2.2530903816223145
-0.6673486232757568 7.930644512176514 -2.2530453205108643
-0.8266857862472534 7.915441513061523 -2.2529923915863037
-1.302364468574524 7.85045862197876 -2.2527847290039062
-2.237307071685791 7.634463787078857 -2.252155065536499
-2.390249013900757 7.587479114532471 -2.2520227432250977
-2.542196035385132 7.537399768829346 -2.251882791519165
-2.693087100982666 7.48426628112793 -2.2517354488372803
-2.991455554962158 7.368873119354248 -2.251417636871338
-3.138806104660034 7.30666446685791 -2.2512474060058594
-3.2848546504974365 7.24150276184082 -2.251070261001587
-3.854830741882324 6.951682090759277 -2.250288963317871
-3.9934825897216797 6.872106552124023 -2.2500760555267334
-4.3998332023620605 6.617595672607422 -2.2496700286865234
-4.531972408294678 6.52772855758667 -2.249652862548828
4.2508225440979 6.215247631072998 -2.316023111343384
4.073593616485596 6.221019744873047 -2.2871780395507812
3.9024243354797363 6.229470729827881 -2.2609684467315674
3.757418155670166 6.275068283081055 -2.249630928039551
3.6304614543914795 6.349362850189209 -2.249630928039551
2.4293272495269775 6.902625560760498 -2.250749111175537
2.2901268005371094 6.95041561126709 -2.2508561611175537
2.0089502334594727 7.0374884605407715 -2.251049041748047
1.7244482040405273 7.113099098205566 -2.2512125968933105
1.437097191810608 7.177122592926025 -2.2513468265533447
1.2925000190734863 7.204751968383789 -2.2514028549194336
1.0017651319503784 7.251185894012451 -2.251492500305176
0.8557519316673279 7.269974231719971 -2.251526355743408
0.709381103515625 7.2857985496521 -2.2515523433685303
0.5627172589302063 7.298652172088623 -2.2515711784362793
0.41582274436950684 7.308528900146484 -2.251582384109497
0.2687609791755676 7.315426349639893 -2.2515859603881836
-0.025635985657572746 7.3202667236328125 -2.2515709400177
-0.3199792504310608 7.313168048858643 -2.251525640487671
-0.46697998046875 7.305143356323242 -2.2514917850494385
-0.6137865781784058 7.29414176940918 -2.251450538635254
-0.7603368759155273 7.280165672302246 -2.251401662826538
-1.1978490352630615 7.220458030700684 -2.251211166381836
-1.342767357826233 7.19465970993042 -2.2511327266693115
-1.4871325492858887 7.165926456451416 -2.251047134399414
-1.6308752298355103 7.134276390075684 -2.2509541511535645
-2.1984899044036865 6.978764533996582 -2.2505109310150146
-2.4770593643188477 6.883902549743652 -2.250246286392212
-2.6148314476013184 6.832264423370361 -2.2501039505004883
-2.887075662612915 6.720672607421875 -2.249798059463501
-3.1547985076904297 6.598752975463867 -2.249666929244995
-3.286830425262451 6.533935546875 -2.249654531478882
-3.4175493717193604 6.466475486755371 -2.2496416568756104
-3.553051710128784 6.40746545791626 -2.2535197734832764
-3.6748430728912354 6.3237810134887695 -2.249630928039551
-3.806100368499756 6.256664752960205 -2.252535104751587
-4.701241970062256 6.221749305725098 -2.398566722869873
4.198526382446289 5.881359100341797 -2.4020309448242188
4.079400539398193 5.96460485458374 -2.4020309448242188
3.958622932434082 6.045439720153809 -2.4020309448242188
3.712322950363159 6.199739456176758 -2.4020309448242188
3.5483763217926025 6.205803871154785 -2.376246690750122
3.387321710586548 6.210763454437256 -2.3515801429748535
3.0744993686676025 6.219905853271484 -2.3063244819641113
2.922320604324341 6.224110126495361 -2.2856240272521973
2.77275013923645 6.228082180023193 -2.2661430835723877
2.501666307449341 6.288387298583984 -2.249630928039551
2.250234365463257 6.39375638961792 -2.2531042098999023
2.1179285049438477 6.427809715270996 -2.2496368885040283
1.5946874618530273 6.577859878540039 -2.2498552799224854
1.1952356100082397 6.662571907043457 -2.250030994415283
0.9263781309127808 6.705493450164795 -2.2501142024993896
0.791351318359375 6.7228593826293945 -2.250145196914673
0.5203686356544495 6.749369144439697 -2.2501866817474365
0.2485339343547821 6.7648773193359375 -2.2502002716064453
0.11243530362844467 6.768496513366699 -2.250196695327759
-0.023707274347543716 6.769357204437256 -2.2501864433288574
-0.2958984375 6.762803077697754 -2.2501447200775146
-0.5675988793373108 6.745224952697754 -2.250075101852417
-0.7031213045120239 6.732311248779297 -2.250030279159546
-0.973236083984375 6.69826078414917 -2.2499196529388428
-1.241732120513916 6.653298854827881 -2.249781608581543
-1.7722448110580444 6.531623840332031 -2.24965500831604
-1.9032506942749023 6.494639873504639 -2.249647855758667
-2.291674852371216 6.368008136749268 -2.249630928039551
-2.419024705886841 6.320639133453369 -2.249630928039551
-2.5458483695983887 6.270711421966553 -2.249630928039551
-2.8303723335266113 6.2396159172058105 -2.277496814727783
-3.291978120803833 6.228816986083984 -2.341874599456787
-3.451730966567993 6.22474479675293 -2.3659684658050537
-3.755635976791382 6.173587322235107 -2.4020309448242188
-3.879023313522339 6.096811294555664 -2.4020309448242188
-4.00086784362793 6.0175652503967285 -2.4020309448242188
-4.121074676513672 5.935887813568115 -2.4020309448242188
3.902643918991089 5.466882705688477 -2.4020309448242188
3.6796460151672363 5.619398593902588 -2.4020309448242188
3.334101438522339 5.8310546875 -2.4020309448242188
3.096916437149048 5.960414886474609 -2.4020309448242188
2.9764208793640137 6.021490573883057 -2.4020309448242188
2.854722738265991 6.080131530761719 -2.4020309448242188
2.731867551803589 6.1363115310668945 -2.4020309448242188
2.6078808307647705 6.190012454986572 -2.4020309448242188
2.1866111755371094 6.2129807472229 -2.35539174079895
1.9113610982894897 6.218979358673096 -2.3266196250915527
1.642156958580017 6.224195957183838 -2.301982879638672
1.5095140933990479 6.226524353027344 -2.2911508083343506
0.9901183843612671 6.238625526428223 -2.2589008808135986
0.7353173494338989 6.248286724090576 -2.2498598098754883
0.609619140625 6.261178493499756 -2.249630928039551
0.4835766553878784 6.272171974182129 -2.249630928039551
0.3573400676250458 6.280627727508545 -2.249630928039551
0.2309594601392746 6.286543846130371 -2.249630928039551
0.10448364168405533 6.289917469024658 -2.249630928039551
-0.27498167753219604 6.284773349761963 -2.249630928039551
-0.40131956338882446 6.2779717445373535 -2.249630928039551
-0.6534008383750916 6.256754398345947 -2.249630928039551
-0.9074255228042603 6.245320796966553 -2.256823778152466
-1.035253882408142 6.240358829498291 -2.2620975971221924
-1.1640161275863647 6.23714017868042 -2.268960475921631
-1.2940856218338013 6.235875606536865 -2.277508497238159
-1.4251537322998047 6.234438419342041 -2.2869908809661865
-1.557342529296875 6.232826232910156 -2.29742693901062
-1.8254516124725342 6.229069232940674 -2.321242570877075
-1.9616369009017944 6.2269134521484375 -2.3346707820892334
-2.0994091033935547 6.22456693649292 -2.349149465560913
-2.2388916015625 6.222025394439697 -2.3647077083587646
-2.774789333343506 6.117029666900635 -2.4020309448242188
-2.897233724594116 6.059990882873535 -2.4020309448242188
-3.0185210704803467 6.000497817993164 -2.4020309448242188
-3.257380962371826 5.874258995056152 -2.4020309448242188
-3.374795436859131 5.80756139755249 -2.4020309448242188
-3.490912437438965 5.738516807556152 -2.4020309448242188
-3.8306517601013184 5.517569541931152 -2.4020309448242188
-4.049429893493652 5.359064102172852 -2.4020309448242188
3.327580451965332 5.311842918395996 -2.4020309448242188
2.6639366149902344 5.673791408538818 -2.4020309448242188
2.549339532852173 5.726219177246094 -2.4020309448242188
2.080883741378784 5.912561893463135 -2.4020309448242188
1.9615551233291626 5.953216552734375 -2.4020309448242188
1.8414355516433716 5.991459846496582 -2.4020309448242188
1.5990111827850342 6.060663223266602 -2.4020309448242188
1.3539965152740479 6.120063304901123 -2.4020309448242188
1.1067968606948853 6.169561862945557 -2.4020309448242188
0.7309240698814392 6.2090325355529785 -2.395841360092163
0.6046557426452637 6.210214138031006 -2.391120195388794
-0.146759033203125 6.213753700256348 -2.3818867206573486
-0.39720335602760315 6.213596820831299 -2.3860230445861816
-0.6489184498786926 6.212770462036133 -2.3937952518463135
-0.7754565477371216 6.212103366851807 -2.399062395095825
-1.0257799625396729 6.183539390563965 -2.4020309448242188
-1.1499706506729126 6.161659240722656 -2.4020309448242188
-1.2736401557922363 6.13728666305542 -2.4020309448242188
-1.3968298435211182 6.11043119430542 -2.4020309448242188
-1.5194323062896729 6.081103324890137 -2.4020309448242188
-1.7627440690994263 6.015082836151123 -2.4020309448242188
-1.8833544254302979 5.9784159660339355 -2.4020309448242188
-2.122241258621216 5.897844314575195 -2.4020309448242188
-2.2404234409332275 5.8539719581604 -2.4020309448242188
-2.473991632461548 5.759140968322754 -2.4020309448242188
-2.589357852935791 5.708226680755615 -2.4020309448242188
-2.8167920112609863 5.599480628967285 -2.4020309448242188
-3.039686918258667 5.481678485870361 -2.4020309448242188
-3.1493144035339355 5.419438362121582 -2.4020309448242188
-3.470377206802368 5.219671726226807 -2.4020309448242188
3.3132152557373047 4.844343662261963 -2.4020309448242188
3.2151219844818115 4.9099955558776855 -2.4020309448242188
3.115729808807373 4.973659992218018 -2.4020309448242188
3.01507306098938 5.035315036773682 -2.4020309448242188
2.913198232650757 5.094931125640869 -2.4020309448242188
2.8101463317871094 5.15248966217041 -2.4020309448242188
2.6003406047821045 5.261327266693115 -2.4020309448242188
2.386991024017334 5.361653804779053 -2.4020309448242188
2.169450521469116 5.453305721282959 -2.4020309448242188
1.836669921875 5.574199199676514 -2.4020309448242188
1.611029028892517 5.643548965454102 -2.4020309448242188
1.4972070455551147 5.674807071685791 -2.4020309448242188
1.3827648162841797 5.703769207000732 -2.4020309448242188
1.152258276939392 5.754761695861816 -2.4020309448242188
0.6861047148704529 5.828749179840088 -2.4020309448242188
0.45115354657173157 5.851624488830566 -2.4020309448242188
0.21547362208366394 5.865034580230713 -2.4020309448242188
-0.020551757887005806 5.868955612182617 -2.4020309448242188
-0.1385766565799713 5.8673553466796875 -2.4020309448242188
-0.49212646484375 5.848321437835693 -2.4020309448242188
-0.6096398830413818 5.8372416496276855 -2.4020309448242188
-0.7269091606140137 5.823800563812256 -2.4020309448242188
-0.8438439965248108 5.808003902435303 -2.4020309448242188
-0.9605236649513245 5.789859294891357 -2.4020309448242188
-1.076760172843933 5.769372940063477 -2.4020309448242188
-1.1924853324890137 5.746550559997559 -2.4020309448242188
-1.3079051971435547 5.721405029296875 -2.4020309448242188
-1.4227160215377808 5.693944454193115 -2.4020309448242188
-1.6505101919174194 5.63212776184082 -2.4020309448242188
-1.8756688833236694 5.561198711395264 -2.4020309448242188
-1.9871264696121216 5.522354602813721 -2.4020309448242188
-2.207592725753784 5.4379777908325195 -2.4020309448242188
-2.4244847297668457 5.344805717468262 -2.4020309448242188
-2.531481981277466 5.294965744018555 -2.4020309448242188
-2.6374571323394775 5.242984294891357 -2.4020309448242188
-2.7423558235168457 5.1888837814331055 -2.4020309448242188
-2.846161365509033 5.1326823234558105 -2.4020309448242188
-3.050264835357666 5.014074802398682 -2.4020309448242188
-3.249427318572998 4.88735818862915 -2.4020309448242188
-3.3470635414123535 4.821020603179932 -2.4020309448242188
-3.4433422088623047 4.7527337074279785 -2.4020309448242188
3.202296018600464 4.485822677612305 -2.4020309448242188
3.1114354133605957 4.549315929412842 -2.4020309448242188
2.9259753227233887 4.670756816864014 -2.4020309448242188
2.735781192779541 4.784643650054932 -2.4020309448242188
2.5411620140075684 4.8907880783081055 -2.4020309448242188
2.4422874450683594 4.9409050941467285 -2.4020309448242188
2.342432737350464 4.989022254943848 -2.4020309448242188
2.1399083137512207 5.079183101654053 -2.4020309448242188
1.933931827545166 5.161128044128418 -2.4020309448242188
1.6191930770874023 5.2683515548706055 -2.4020309448242188
1.4060254096984863 5.329202651977539 -2.4020309448242188
1.1905834674835205 5.381433010101318 -2.4020309448242188
1.082116723060608 5.404288291931152 -2.4020309448242188
0.9732140898704529 5.424956321716309 -2.4020309448242188
0.6443188190460205 5.4737701416015625 -2.4020309448242188
0.3130786120891571 5.50266170501709 -2.4020309448242188
-0.019301757216453552 5.511527061462402 -2.4020309448242188
-0.24092163145542145 5.506293296813965 -2.4020309448242188
-0.5725122094154358 5.481745719909668 -2.4020309448242188
-0.7924914360046387 5.454288959503174 -2.4020309448242188
-0.9020214676856995 5.437248229980469 -2.4020309448242188
-1.0111840963363647 5.418008804321289 -2.4020309448242188
-1.2282445430755615 5.372962474822998 -2.4020309448242188
-1.3360509872436523 5.347174644470215 -2.4020309448242188
-1.4433153867721558 5.3192243576049805 -2.4020309448242188
-1.549996256828308 5.289122104644775 -2.4020309448242188
-1.6559264659881592 5.2568817138671875 -2.4020309448242188
-1.8661071062088013 5.186033725738525 -2.4020309448242188
-1.9700231552124023 5.147456645965576 -2.4020309448242188
-2.073143243789673 5.106796741485596 -2.4020309448242188
-2.575345516204834 4.872872352600098 -2.4020309448242188
-2.6728246212005615 4.820094585418701 -2.4020309448242188
-2.8644981384277344 4.708710670471191 -2.4020309448242188
-2.9586126804351807 4.65015172958374 -2.4020309448242188
-3.2336297035217285 4.46328592300415 -2.4020309448242188
3.015035390853882 4.223505020141602 -2.4020309448242188
2.9294896125793457 4.283286094665527 -2.4020309448242188
2.7548742294311523 4.39762544631958 -2.4020309448242188
2.4846813678741455 4.555742263793945 -2.4020309448242188
2.299471378326416 4.651975631713867 -2.4020309448242188
2.1105382442474365 4.740683555603027 -2.4020309448242188
1.6239598989486694 4.928613185882568 -2.4020309448242188
1.5245091915130615 4.960274696350098 -2.4020309448242188
1.424444556236267 4.989930152893066 -2.4020309448242188
1.3238061666488647 5.017568111419678 -2.4020309448242188
1.1209667921066284 5.066743850708008 -2.4020309448242188
0.8133984208106995 5.125116348266602 -2.4020309448242188
0.7101659774780273 5.140438556671143 -2.4020309448242188
0.5028722882270813 5.1648383140563965 -2.4020309448242188
0.2947729527950287 5.180883884429932 -2.4020309448242188
0.1905224621295929 5.185764789581299 -2.4020309448242188
-0.018172606825828552 5.189230442047119 -2.4020309448242188
-0.1225268542766571 5.1878180503845215 -2.4020309448242188
-0.849273681640625 5.119295597076416 -2.4020309448242188
-0.9520507454872131 5.101181983947754 -2.4020309448242188
-1.054451823234558 5.081001281738281 -2.4020309448242188
-1.3589147329330444 5.008172035217285 -2.4020309448242188
-1.559206485748291 4.9494757652282715 -2.4020309448242188
-1.7569860219955444 4.882771968841553 -2.4020309448242188
-1.8548204898834229 4.84644889831543 -2.4020309448242188
-1.951910376548767 4.808168411254883 -2.4020309448242188
-2.048212766647339 4.767939567565918 -2.4020309448242188
-2.1436877250671387 4.72578763961792 -2.4020309448242188
-2.2382922172546387 4.681717872619629 -2.4020309448242188
-2.424750804901123 4.587921142578125 -2.4020309448242188
-2.5165233612060547 4.538229942321777 -2.4020309448242188
-2.607287645339966 4.486701488494873 -2.4020309448242188
-3.0445427894592285 4.2022857666015625 -2.4020309448242188
-3.128436803817749 4.140209674835205 -2.4020309448242188
2.7644262313842773 4.041944980621338 -2.4020309448242188
2.6825804710388184 4.09672212600708 -2.4020309448242188
2.515667676925659 4.201284885406494 -2.4020309448242188
2.4306676387786865 4.251026630401611 -2.4020309448242188
2.1699070930480957 4.389861583709717 -2.4020309448242188
2.081184148788452 4.432611465454102 -2.4020309448242188
1.7182421684265137 4.585522174835205 -2.4020309448242188
1.6256749629974365 4.619150161743164 -2.4020309448242188
1.3441870212554932 4.708773136138916 -2.4020309448242188
1.2492175102233887 4.7348527908325195 -2.4020309448242188
1.1537426710128784 4.759018421173096 -2.4020309448242188
0.9614354968070984 4.8015642166137695 -2.4020309448242188
0.7675695419311523 4.836343288421631 -2.4020309448242188
0.4745422303676605 4.87382698059082 -2.4020309448242188
0.2781652808189392 4.8889665603637695 -2.4020309448242188
0.1797814965248108 4.893571853637695 -2.4020309448242188
-0.11562255769968033 4.895508289337158 -2.4020309448242188
-0.4106091260910034 4.879627704620361 -2.4020309448242188
-0.508654773235321 4.870383262634277 -2.4020309448242188
-0.7041100859642029 4.8459882736206055 -2.4020309448242188
-0.8984081745147705 4.813754081726074 -2.4020309448242188
-0.9950329661369324 4.794713497161865 -2.4020309448242188
-1.187042236328125 4.750821590423584 -2.4020309448242188
-1.4713512659072876 4.67059850692749 -2.4020309448242188
-1.750311255455017 4.573376178741455 -2.4020309448242188
-1.9328075647354126 4.499290466308594 -2.4020309448242188
-2.022895574569702 4.459511756896973 -2.4020309448242188
-2.4603796005249023 4.2338995933532715 -2.4020309448242188
-2.628652334213257 4.131535053253174 -2.4020309448242188
-2.9521636962890625 3.906930446624756 -2.4020309448242188
2.6901891231536865 3.768455743789673 -2.4020309448242188
2.2169761657714844 4.0648980140686035 -2.4020309448242188
1.967830777168274 4.191184997558594 -2.4020309448242188
1.8831419944763184 4.229910850524902 -2.4020309448242188
1.7976964712142944 4.266928195953369 -2.4020309448242188
1.7115209102630615 4.302218437194824 -2.4020309448242188
1.6246557235717773 4.335766315460205 -2.4020309448242188
1.5371325016021729 4.367563247680664 -2.4020309448242188
1.2709728479385376 4.452304363250732 -2.4020309448242188
1.0001879930496216 4.520841598510742 -2.4020309448242188
0.8175793290138245 4.557405948638916 -2.4020309448242188
0.6336462497711182 4.586596488952637 -2.4020309448242188
0.4486938416957855 4.608368873596191 -2.4020309448242188
0.3559240698814392 4.616459846496582 -2.4020309448242188
-0.016214599832892418 4.63013219833374 -2.4020309448242188
-0.10932616889476776 4.62886905670166 -2.4020309448242188
-0.6657556295394897 4.5820465087890625 -2.4020309448242188
-0.8494775295257568 4.551568031311035 -2.4020309448242188
-1.1223913431167603 4.492061614990234 -2.4020309448242188
-1.3021228313446045 4.443294525146484 -2.4020309448242188
-1.3912194967269897 4.416208267211914 -2.4020309448242188
-1.4797509908676147 4.387337684631348 -2.4020309448242188
-1.6549829244613647 4.324282646179199 -2.4020309448242188
-1.8275377750396729 4.25423002243042 -2.4020309448242188
-1.912722110748291 4.216619968414307 -2.4020309448242188
-1.997137427330017 4.177299499511719 -2.4020309448242188
-2.080742120742798 4.13629150390625 -2.4020309448242188
-2.1635046005249023 4.0936079025268555 -2.4020309448242188
-2.406412363052368 3.9556987285614014 -2.4020309448242188
-2.485478401184082 3.906505584716797 -2.4020309448242188
-2.5635411739349365 3.855729341506958 -2.4020309448242188
-2.7165160179138184 3.7495219707489014 -2.4020309448242188
-2.791370153427124 3.694133758544922 -2.4020309448242188
2.4758191108703613 3.619966983795166 -2.4020309448242188
2.402519464492798 3.669025182723999 -2.4020309448242188
2.253033399581909 3.7626702785491943 -2.4020309448242188
2.09989857673645 3.850229501724243 -2.4020309448242188
1.8639074563980103 3.9698486328125 -2.4020309448242188
1.5388586521148682 4.106794357299805 -2.4020309448242188
1.3724645376205444 4.165355682373047 -2.4020309448242188
1.2884191274642944 4.192113399505615 -2.4020309448242188
1.203851342201233 4.217177867889404 -2.4020309448242188
1.1187975406646729 4.240535259246826 -2.4020309448242188
1.0332921743392944 4.262176990509033 -2.4020309448242188
0.9473668932914734 4.282094478607178 -2.4020309448242188
0.5126965045928955 4.355569839477539 -2.4020309448242188
0.4249975383281708 4.364999771118164 -2.4020309448242188
0.24912230670452118 4.378559589385986 -2.4020309448242188
0.1610156148672104 4.382683753967285 -2.4020309448242188
-0.19170531630516052 4.3814496994018555 -2.4020309448242188
-0.6305981278419495 4.340068340301514 -2.4020309448242188
-0.7177514433860779 4.326509475708008 -2.4020309448242188
-0.8046166896820068 4.311199188232422 -2.4020309448242188
-0.8911559581756592 4.294146537780762 -2.4020309448242188
-0.9773351550102234 4.275355815887451 -2.4020309448242188
-1.063118815422058 4.254835605621338 -2.4020309448242188
-1.2333593368530273 4.208643913269043 -2.4020309448242188
-1.48489248752594 4.126613140106201 -2.4020309448242188
-1.5675817728042603 4.095917224884033 -2.4020309448242188
-1.6496386528015137 4.063561916351318 -2.4020309448242188
-1.731024146080017 4.029565334320068 -2.4020309448242188
-1.8916661739349365 3.9566972255706787 -2.4020309448242188
-1.9708569049835205 3.9178526401519775 -2.4020309448242188
-2.049250364303589 3.8774242401123047 -2.4020309448242188
-2.2793309688568115 3.746798515319824 -2.4020309448242188
-2.3542187213897705 3.700202465057373 -2.4020309448242188
-2.428159236907959 3.6521074771881104 -2.4020309448242188
-2.5011143684387207 3.6025378704071045 -2.4020309448242188
-2.5730578899383545 3.5515098571777344 -2.4020309448242188
-2.643958568572998 3.49904727935791 -2.4020309448242188
2.417276620864868 3.386155366897583 -2.4020309448242188
2.279151678085327 3.4806225299835205 -2.4020309448242188
1.9920703172683716 3.6525230407714844 -2.4020309448242188
1.918212890625 3.6918468475341797 -2.4020309448242188
1.8435778617858887 3.7296764850616455 -2.4020309448242188
1.6921019554138184 3.8007965087890625 -2.4020309448242188
1.5378918647766113 3.8657665252685547 -2.4020309448242188
1.4598388671875 3.895911693572998 -2.4020309448242188
1.3811925649642944 3.9244823455810547 -2.4020309448242188
1.3019896745681763 3.951467275619507 -2.4020309448242188
0.9802331328392029 4.043315887451172 -2.4020309448242188
0.8987194895744324 4.0622124671936035 -2.4020309448242188
0.8168432712554932 4.079463481903076 -2.4020309448242188
0.6521337628364563 4.109012126922607 -2.4020309448242188
