ply
format ascii 1.0
element vertex 831
property float x
property float y
property float z
end_header
-4.486125469207764 -8.120406150817871 -2.4020309448242188
-4.322080135345459 -8.20889949798584 -2.4020309448242188
-4.156281471252441 -8.294075965881348 -2.4020309448242188
-3.988809823989868 -8.375905990600586 -2.4020309448242188
-3.649103879928589 -8.529380798339844 -2.4020309448242188
-3.1282615661621094 -8.733716011047363 -2.4020309448242188
-2.952533006668091 -8.794808387756348 -2.4020309448242188
-2.775247812271118 -8.852346420288086 -2.4020309448242188
-2.596888303756714 -8.906322479248047 -2.4020309448242188
-2.4174280166625977 -8.956692695617676 -2.4020309448242188
-2.2369956970214844 -9.003458023071289 -2.4020309448242188
-1.8734923601150513 -9.086051940917969 -2.4020309448242188
-1.6905713081359863 -9.121861457824707 -2.4020309448242188
-0.9528332352638245 -9.228139877319336 -2.4020309448242188
-0.5813000202178955 -9.258962631225586 -2.4020309448242188
-0.2088916003704071 -9.274845123291016 -2.4020309448242188
-0.02251586876809597 -9.27717113494873 -2.4020309448242188
0.35023435950279236 -9.270585060119629 -2.4020309448242188
0.5364099144935608 -9.261678695678711 -2.4020309448242188
1.0933630466461182 -9.212540626525879 -2.4020309448242188
1.2781982421875 -9.188715934753418 -2.4020309448242188
1.4625463485717773 -9.161181449890137 -2.4020309448242188
1.8293993473052979 -9.095030784606934 -2.4020309448242188
2.011759042739868 -9.056446075439453 -2.4020309448242188
2.3739612102508545 -8.968317031860352 -2.4020309448242188
2.732325315475464 -8.865702629089355 -2.4020309448242188
2.909930467605591 -8.809025764465332 -2.4020309448242188
3.2614221572875977 -8.685011863708496 -2.4020309448242188
3.9481396675109863 -8.39515209197998 -2.4020309448242188
4.116003513336182 -8.314131736755371 -2.4020309448242188
4.282211780548096 -8.229766845703125 -2.4020309448242188
4.770191669464111 -7.956858158111572 -2.4020309448242188
5.085992336273193 -7.758800029754639 -2.4020309448242188
5.240848064422607 -7.655025959014893 -2.4020309448242188
5.393580436706543 -7.548219203948975 -2.4020309448242188
5.69245719909668 -7.325477123260498 -2.4020309448242188
5.83848237991333 -7.20960807800293 -2.4020309448242188
6.123409271240234 -6.969236850738525 -2.4020309448242188
6.262186050415039 -6.844790458679199 -2.4020309448242188
6.398431301116943 -6.717614650726318 -2.4020309448242188
6.917071342468262 -6.182292461395264 -2.4020299911499023
7.039886474609375 -6.042043209075928 -2.402029514312744
7.159852027893066 -5.899394989013672 -2.402029037475586
7.39106559753418 -5.6069817543029785 -2.4020278453826904
7.502219200134277 -5.457338809967041 -2.402027130126953
7.610343933105469 -5.305612087249756 -2.402026414871216
7.715395450592041 -5.151568412780762 -2.4020256996154785
8.011703491210938 -4.6774420738220215 -2.402024984359741
8.1040620803833 -4.515533924102783 -2.402024984359741
8.193144798278809 -4.351809501647949 -2.402024984359741
8.278921127319336 -4.186324596405029 -2.402024984359741
8.36136245727539 -4.019149303436279 -2.402024984359741
8.440420150756836 -3.8503551483154297 -2.402024745941162
8.516069412231445 -3.6800031661987305 -2.402024745941162
8.58828353881836 -3.508169412612915 -2.402024745941162
8.657031059265137 -3.334920644760132 -2.402024745941162
8.722285270690918 -3.1603245735168457 -2.402024745941162
8.784013748168945 -2.984449625015259 -2.402024745941162
8.995256423950195 -2.269622802734375 -2.402024507522583
9.039037704467773 -2.088442087173462 -2.402024507522583
9.115639686584473 -1.7236294746398926 -2.402024507522583
9.148432731628418 -1.5401531457901 -2.402024507522583
9.224592208862305 -0.9862562417984009 -2.402024269104004
9.267255783081055 -0.42877838015556335 -2.402024269104004
9.276996612548828 -0.056139830499887466 -2.402024269104004
9.276257514953613 0.130249485373497 -2.402024269104004
9.271767616271973 0.3165876567363739 -2.402024269104004
9.235854148864746 0.874539315700531 -2.402024269104004
9.166403770446777 1.4293122291564941 -2.402024269104004
9.135834693908691 1.6131818294525146 -2.402024269104004
9.101584434509277 1.796402096748352 -2.402024269104004
9.02206802368164 2.160592555999756 -2.402024269104004
8.97684097290039 2.341413736343384 -2.402024507522583
8.927985191345215 2.5212903022766113 -2.402024507522583
8.875527381896973 2.7001495361328125 -2.402024507522583
8.696757316589355 3.229897975921631 -2.402024507522583
8.486395835876465 3.747920513153076 -2.402024745941162
8.409392356872559 3.917658567428589 -2.402024745941162
8.3289794921875 4.085818767547607 -2.402024745941162
8.24521255493164 4.252331256866455 -2.402024745941162
-7.431976795196533 -4.093942642211914 -2.4020309448242188
-7.261505603790283 -4.3892011642456055 -2.4020309448242188
-6.784698486328125 -5.095330715179443 -2.4020309448242188
-6.6809611320495605 -5.230611324310303 -2.4020309448242188
-6.574513912200928 -5.363778114318848 -2.4020309448242188
-6.353739261627197 -5.623571872711182 -2.4020309448242188
-6.239442825317383 -5.750085830688477 -2.4020309448242188
-6.00344181060791 -5.996098518371582 -2.4020309448242188
-5.631338596343994 -6.346845626831055 -2.4020309448242188
-5.3718132972717285 -6.567955017089844 -2.4020309448242188
-5.23876953125 -6.674554824829102 -2.4020309448242188
-4.966409683227539 -6.8796257972717285 -2.4020309448242188
-4.827199459075928 -6.978015422821045 -2.4020309448242188
-4.542975425720215 -7.166303634643555 -2.4020309448242188
-4.398082256317139 -7.256131649017334 -2.4020309448242188
-4.103025436401367 -7.426950931549072 -2.4020309448242188
-3.9529905319213867 -7.507889270782471 -2.4020309448242188
-3.648179769515991 -7.660634994506836 -2.4020309448242188
-3.4935388565063477 -7.732381820678711 -2.4020309448242188
-3.3374829292297363 -7.80100154876709 -2.4020309448242188
-2.5382933616638184 -8.096388816833496 -2.4020309448242188
-2.375119686126709 -8.145748138427734 -2.4020309448242188
-2.0459630489349365 -8.234590530395508 -2.4020309448242188
-1.8801134824752808 -8.274039268493652 -2.4020309448242188
-1.040826439857483 -8.420872688293457 -2.4020309448242188
-0.8714318871498108 -8.440093040466309 -2.4020309448242188
-0.5316638350486755 -8.468287467956543 -2.4020309448242188
-0.3614245653152466 -8.477259635925293 -2.4020309448242188
0.14989256858825684 -8.483628273010254 -2.4020309448242188
0.49058836698532104 -8.47076416015625 -2.4020309448242188
1.169045329093933 -8.404032707214355 -2.4020309448242188
1.3376513719558716 -8.378849029541016 -2.4020309448242188
1.839962124824524 -8.283058166503906 -2.4020309448242188
2.171234130859375 -8.202454566955566 -2.4020309448242188
2.3355846405029297 -8.15717887878418 -2.4020309448242188
2.498995304107666 -8.108609199523926 -2.4020309448242188
2.9829113483428955 -7.943347454071045 -2.4020309448242188
3.1418957710266113 -7.881815433502197 -2.4020309448242188
3.2996106147766113 -7.817103862762451 -2.4020309448242188
3.45599102973938 -7.7492289543151855 -2.4020309448242188
3.7645153999328613 -7.604141712188721 -2.4020309448242188
3.916529417037964 -7.526975154876709 -2.4020309448242188
4.508161544799805 -7.188246726989746 -2.4020309448242188
4.651666164398193 -7.09623908996582 -2.4020309448242188
4.793298244476318 -7.001345157623291 -2.4020309448242188
5.07069206237793 -6.803134441375732 -2.4020309448242188
5.20634126663208 -6.699884414672852 -2.4020309448242188
5.47130012512207 -6.485343933105469 -2.4020309448242188
5.600488185882568 -6.374086380004883 -2.4020309448242188
5.727415561676025 -6.260286808013916 -2.4020309448242188
5.852029800415039 -6.143954753875732 -2.4020309448242188
6.094133377075195 -5.903903484344482 -2.4020309448242188
6.211513519287109 -5.780275821685791 -2.4020309448242188
6.655515193939209 -5.262883186340332 -2.4020304679870605
6.759898662567139 -5.128172397613525 -2.4020302295684814
6.86156702041626 -4.991306781768799 -2.4020302295684814
6.960456371307373 -4.852465629577637 -2.4020297527313232
7.149772644042969 -4.5689191818237305 -2.402029275894165
7.240124225616455 -4.424316883087158 -2.402028799057007
7.412018775939941 -4.129948616027832 -2.4020278453826904
7.571943283081055 -3.828914165496826 -2.402026653289795
7.6473388671875 -3.675985097885132 -2.4020261764526367
7.917751312255859 -3.0501251220703125 -2.402024984359741
7.977438926696777 -2.890446424484253 -2.402024984359741
8.033891677856445 -2.7295892238616943 -2.402024984359741
8.137060165405273 -2.4046411514282227 -2.402024984359741
8.227091789245605 -2.07580828666687 -2.402024984359741
8.303842544555664 -1.743623971939087 -2.402024984359741
8.337203979492188 -1.5764408111572266 -2.402024745941162
8.367192268371582 -1.408619999885559 -2.402024745941162
8.39379596710205 -1.240235686302185 -2.402024745941162
8.417028427124023 -1.0713474750518799 -2.402024745941162
8.436845779418945 -0.9020293951034546 -2.402024745941162
8.482030868530273 -0.2217980921268463 -2.402024745941162
8.48409366607666 0.11912856996059418 -2.402024745941162
8.429377555847168 0.9694074988365173 -2.402024745941162
8.40820026397705 1.1385633945465088 -2.402024745941162
8.355673789978027 1.4754270315170288 -2.402024745941162
8.324345588684082 1.6429988145828247 -2.402024745941162
8.289648056030273 1.8099085092544556 -2.402024745941162
8.251623153686523 1.9760841131210327 -2.402024745941162
8.210256576538086 2.1414670944213867 -2.402024745941162
8.165568351745605 2.3059816360473633 -2.402024745941162
8.011828422546387 2.7936766147613525 -2.402024984359741
7.954091548919678 2.9540770053863525 -2.402024984359741
7.828991413116455 3.2712292671203613 -2.402024984359741
7.691267013549805 3.58316707611084 -2.4020259380340576
7.617726802825928 3.7369067668914795 -2.402026414871216
7.541115760803223 3.889197826385498 -2.402026891708374
-6.986177921295166 -3.490187644958496 -2.4020309448242188
-6.914650917053223 -3.6298418045043945 -2.4020309448242188
-6.840329647064209 -3.7680320739746094 -2.4020309448242188
-6.6834306716918945 -4.039785861968994 -2.4020309448242188
-6.515747547149658 -4.305020332336426 -2.4020309448242188
-6.427938461303711 -4.435056209564209 -2.4020309448242188
-6.337545871734619 -4.563298225402832 -2.4020309448242188
-6.149106502532959 -4.814212799072266 -2.4020309448242188
-5.847932815551758 -5.175886631011963 -2.4020309448242188
-5.742780685424805 -5.292335510253906 -2.4020309448242188
-5.63525915145874 -5.406634330749512 -2.4020309448242188
-5.52551794052124 -5.51876163482666 -2.4020309448242188
-5.4135332107543945 -5.628660678863525 -2.4020309448242188
-5.183044910430908 -5.841590881347656 -2.4020309448242188
-5.064630031585693 -5.944546222686768 -2.4020309448242188
-4.442914962768555 -6.422510147094727 -2.4020309448242188
-4.312988758087158 -6.510475158691406 -2.4020309448242188
-4.1813178062438965 -6.595808506011963 -2.4020309448242188
-4.047959327697754 -6.6784844398498535 -2.4020309448242188
-3.912971019744873 -6.758460998535156 -2.4020309448242188
-3.776395082473755 -6.835711479187012 -2.4020309448242188
-3.63830304145813 -6.910201072692871 -2.4020309448242188
-3.498734712600708 -6.981904029846191 -2.4020309448242188
-3.2154271602630615 -7.1168212890625 -2.4020309448242188
-3.071796178817749 -7.179985046386719 -2.4020309448242188
-2.9269261360168457 -7.240251541137695 -2.4020309448242188
-2.7808752059936523 -7.2975921630859375 -2.4020309448242188
-2.33622670173645 -7.4518561363220215 -2.4020309448242188
-1.883089542388916 -7.579056262969971 -2.4020309448242188
-1.7304431200027466 -7.615360736846924 -2.4020309448242188
-1.1134874820709229 -7.729700088500977 -2.4020309448242188
-0.9579687118530273 -7.7505106925964355 -2.4020309448242188
-0.8020617365837097 -7.768191814422607 -2.4020309448242188
-0.6458324790000916 -7.782739639282227 -2.4020309448242188
-0.48934081196784973 -7.794142246246338 -2.4020309448242188
-0.01893920823931694 -7.80946683883667 -2.4020309448242188
0.13795898854732513 -7.80826997756958 -2.4020309448242188
0.6080737113952637 -7.78577995300293 -2.4020309448242188
0.9203625321388245 -7.75506591796875 -2.4020309448242188
1.0759801864624023 -7.735010147094727 -2.4020309448242188
1.539980411529541 -7.6561479568481445 -2.4020309448242188
1.6934863328933716 -7.623660564422607 -2.4020309448242188
1.8463072776794434 -7.588099002838135 -2.4020309448242188
1.998384952545166 -7.549474716186523 -2.4020309448242188
2.1496520042419434 -7.507802963256836 -2.4020309448242188
2.598012685775757 -7.3646745681762695 -2.4020309448242188
2.745447874069214 -7.3109941482543945 -2.4020309448242188
2.8917760848999023 -7.254360198974609 -2.4020309448242188
3.180870294570923 -7.132333755493164 -2.4020309448242188
3.464830160140991 -6.998791217803955 -2.4020309448242188
3.743194580078125 -6.853946208953857 -2.4020309448242188
3.8801403045654297 -6.777359485626221 -2.4020309448242188
4.540284156799316 -6.354048252105713 -2.4020309448242188
4.791878700256348 -6.166523456573486 -2.4020309448242188
4.914798259735107 -6.06895637512207 -2.4020309448242188
5.49868631362915 -5.5455002784729 -2.4020309448242188
5.608992576599121 -5.433905601501465 -2.4020309448242188
5.71702766418457 -5.320160388946533 -2.4020309448242188
5.822756290435791 -5.204193115234375 -2.4020309448242188
5.926137447357178 -5.086151123046875 -2.4020309448242188
6.125682353973389 -4.843966484069824 -2.4020309448242188
6.221762657165527 -4.719893932342529 -2.4020309448242188
6.406351089477539 -4.466177940368652 -2.4020309448242188
6.580600261688232 -4.205251693725586 -2.4020307064056396
6.66375732421875 -4.072116374969482 -2.4020304679870605
6.744223594665527 -3.937450408935547 -2.4020304679870605
6.821967601776123 -3.8011491298675537 -2.4020302295684814
6.969162464141846 -3.524087429046631 -2.4020297527313232
7.038559436798096 -3.3833022117614746 -2.402029514312744
7.105109691619873 -3.2411892414093018 -2.402029275894165
7.287453651428223 -2.8072493076324463 -2.4020285606384277
7.394344329833984 -2.512355327606201 -2.4020278453826904
7.443322658538818 -2.363232374191284 -2.4020276069641113
7.532248497009277 -2.0623042583465576 -2.402027130126953
7.572163105010986 -1.910349726676941 -2.402026653289795
7.701100826263428 -1.2966763973236084 -2.4020259380340576
7.725593090057373 -1.1415090560913086 -2.4020254611968994
7.746970176696777 -0.9860659837722778 -2.4020254611968994
7.780326843261719 -0.6740497946739197 -2.402024984359741
7.792299747467041 -0.5176787972450256 -2.402024984359741
7.806801795959473 -0.20414352416992188 -2.402024984359741
7.809328556060791 -0.04725997895002365 -2.402024984359741
7.804921627044678 0.2661232054233551 -2.402024984359741
7.797993183135986 0.4233912527561188 -2.402024984359741
7.787912368774414 0.5798801779747009 -2.402024984359741
7.774692058563232 0.7361820936203003 -2.4020252227783203
7.716230392456055 1.2031883001327515 -2.4020256996154785
7.661664962768555 1.5122013092041016 -2.4020261764526367
7.515536785125732 2.1224098205566406 -2.402027130126953
7.471380233764648 2.2729737758636475 -2.4020273685455322
7.320893287658691 2.7189788818359375 -2.4020283222198486
7.01130485534668 3.439425468444824 -2.4020297527313232
6.94079065322876 3.579592704772949 -2.4020297527313232
-6.464386940002441 -3.229508638381958 -2.4020309448242188
-6.39819860458374 -3.358732223510742 -2.4020309448242188
-6.329429626464844 -3.4865996837615967 -2.4020309448242188
-6.25809907913208 -3.6130590438842773 -2.4020309448242188
-6.1078996658325195 -3.86154842376709 -2.4020309448242188
-6.029088497161865 -3.98348069190979 -2.4020309448242188
-5.947839736938477 -4.103805065155029 -2.4020309448242188
-5.864194869995117 -4.222468852996826 -2.4020309448242188
-5.778179168701172 -4.339432239532471 -2.4020309448242188
-5.599189758300781 -4.568057537078857 -2.4020309448242188
-5.112825870513916 -5.106570720672607 -2.4020309448242188
-5.009202003479004 -5.208261013031006 -2.4020309448242188
-4.686361789703369 -5.500553607940674 -2.4020309448242188
-4.5749125480651855 -5.5935959815979 -2.4020309448242188
-4.229640483856201 -5.859024524688721 -2.4020309448242188
-3.9908459186553955 -6.024211883544922 -2.4020309448242188
-3.8690154552459717 -6.1031718254089355 -2.4020309448242188
-3.6207056045532227 -6.253675937652588 -2.4020309448242188
-3.366556406021118 -6.394083499908447 -2.4020309448242188
-3.2374114990234375 -6.460430145263672 -2.4020309448242188
-2.5731749534606934 -6.752541542053223 -2.4020309448242188
-2.4369945526123047 -6.802874565124512 -2.4020309448242188
-1.7424437999725342 -7.012983322143555 -2.4020309448242188
-1.6011974811553955 -7.046574592590332 -2.4020309448242188
-1.4593054056167603 -7.0773210525512695 -2.4020309448242188
-1.3168212175369263 -7.10521125793457 -2.4020309448242188
-1.1738097667694092 -7.130232334136963 -2.4020309448242188
-1.0303186178207397 -7.152376174926758 -2.4020309448242188
-0.8864184617996216 -7.171632766723633 -2.4020309448242188
-0.4527917504310608 -7.212004661560059 -2.4020309448242188
-0.16269652545452118 -7.224372863769531 -2.4020309448242188
0.27278807759284973 -7.221055030822754 -2.4020309448242188
0.7072839140892029 -7.191507339477539 -2.4020309448242188
1.282344937324524 -7.111514091491699 -2.4020309448242188
1.424959659576416 -7.084313869476318 -2.4020309448242188
1.5670007467269897 -7.054257869720459 -2.4020309448242188
1.7084081172943115 -7.021351337432861 -2.4020309448242188
1.849127173423767 -6.985611438751221 -2.4020309448242188
1.9890966415405273 -6.947052478790283 -2.4020309448242188
2.128267765045166 -6.905686378479004 -2.4020309448242188
2.266575813293457 -6.861535549163818 -2.4020309448242188
2.403970956802368 -6.814614295959473 -2.4020309448242188
2.540393114089966 -6.764942646026611 -2.4020309448242188
3.075289249420166 -6.539161205291748 -2.4020309448242188
3.206044912338257 -6.476057052612305 -2.4020309448242188
3.335505247116089 -6.410339832305908 -2.4020309448242188
3.4636192321777344 -6.3420329093933105 -2.4020309448242188
3.9615893363952637 -6.043496131896973 -2.4020309448242188
4.659625053405762 -5.523221969604492 -2.4020309448242188
4.983875751495361 -5.232497215270996 -2.4020309448242188
5.087993144989014 -5.131310939788818 -2.4020309448242188
5.387857437133789 -4.815495491027832 -2.4020309448242188
5.576966285705566 -4.595158576965332 -2.4020309448242188
5.668160438537598 -4.482227802276611 -2.4020309448242188
5.75706672668457 -4.367445468902588 -2.4020309448242188
6.009696960449219 -4.01265287399292 -2.4020309448242188
6.089100360870361 -3.8911259174346924 -2.4020309448242188
6.166047096252441 -3.7679989337921143 -2.4020309448242188
6.312443733215332 -3.517240285873413 -2.4020309448242188
6.381832122802734 -3.389725685119629 -2.4020309448242188
6.448646068572998 -3.2608046531677246 -2.4020309448242188
6.512856483459473 -3.1305766105651855 -2.4020307064056396
6.633364200592041 -2.866398334503174 -2.4020304679870605
6.689616680145264 -2.7325210571289062 -2.4020304679870605
6.743162631988525 -2.5976521968841553 -2.4020304679870605
6.842072486877441 -2.3246567249298096 -2.4020302295684814
6.969682693481445 -1.9082740545272827 -2.4020297527313232
7.040715217590332 -1.626739740371704 -2.402029514312744
7.071977615356445 -1.4849588871002197 -2.402029275894165
7.100380897521973 -1.3425805568695068 -2.402029275894165
7.125922679901123 -1.1996582746505737 -2.402029275894165
7.148584842681885 -1.0562517642974854 -2.402029037475586
7.16836404800415 -0.9124186635017395 -2.402029037475586
7.185248851776123 -0.7684951424598694 -2.402028799057007
7.223730087280273 -0.18895462155342102 -2.402028799057007
7.226066589355469 -0.04384201020002365 -2.402028799057007
7.221989631652832 0.24638411402702332 -2.402028799057007
7.20625114440918 0.5365278720855713 -2.402028799057007
7.19401741027832 0.6811979413032532 -2.402028799057007
7.178881645202637 0.8254759311676025 -2.402029037475586
7.08942985534668 1.3992588520050049 -2.402029275894165
6.992266654968262 1.8237489461898804 -2.4020297527313232
6.913356781005859 2.1032092571258545 -2.4020299911499023
6.869707107543945 2.241677761077881 -2.4020299911499023
6.82328462600708 2.3792383670806885 -2.4020302295684814
6.774106502532959 2.5158402919769287 -2.4020302295684814
6.722196102142334 2.651430606842041 -2.4020304679870605
6.550269603729248 3.0515551567077637 -2.4020307064056396
6.4876389503479 3.1825382709503174 -2.4020307064056396
6.422391414642334 3.312237501144409 -2.4020309448242188
-5.817082405090332 -3.35843825340271 -2.4020309448242188
-5.7484307289123535 -3.474623441696167 -2.4020309448242188
-5.528677940368652 -3.8145973682403564 -2.4020309448242188
-5.370972156524658 -4.033618450164795 -2.4020309448242188
-5.029816627502441 -4.451789855957031 -2.4020309448242188
-4.752510070800781 -4.746695518493652 -2.4020309448242188
-4.557984352111816 -4.933788776397705 -2.4020309448242188
-4.3560967445373535 -5.112912654876709 -2.4020309448242188
-4.2524943351745605 -5.199398040771484 -2.4020309448242188
-4.1471757888793945 -5.283784866333008 -2.4020309448242188
-3.5964837074279785 -5.67307186126709 -2.4020309448242188
-3.481658935546875 -5.744173526763916 -2.4020309448242188
-3.365546226501465 -5.812960624694824 -2.4020309448242188
-3.248084545135498 -5.879405498504639 -2.4020309448242188
-3.1293108463287354 -5.943473815917969 -2.4020309448242188
-3.009263753890991 -6.005144119262695 -2.4020309448242188
-2.6420483589172363 -6.175514221191406 -2.4020309448242188
-2.5174522399902344 -6.227349758148193 -2.4020309448242188
-2.009392023086548 -6.409352779388428 -2.4020309448242188
-1.8802196979522705 -6.448427677154541 -2.4020309448242188
-1.7502880096435547 -6.484901428222656 -2.4020309448242188
-1.4883556365966797 -6.549980163574219 -2.4020309448242188
-1.2240209579467773 -6.604485511779785 -2.4020309448242188
-1.0910875797271729 -6.627743244171143 -2.4020309448242188
-0.9577099680900574 -6.648326396942139 -2.4020309448242188
-0.8239501714706421 -6.666225433349609 -2.4020309448242188
-0.6898522973060608 -6.68143367767334 -2.4020309448242188
-0.55548095703125 -6.693943977355957 -2.4020309448242188
-0.42088255286216736 -6.703753471374512 -2.4020309448242188
-0.28611692786216736 -6.710855484008789 -2.4020309448242188
-0.15123169124126434 -6.715249061584473 -2.4020309448242188
0.25356200337409973 -6.712164878845215 -2.4020309448242188
0.5230065584182739 -6.696559906005859 -2.4020309448242188
0.791607677936554 -6.670144081115723 -2.4020309448242188
1.1919738054275513 -6.610343933105469 -2.4020309448242188
1.3245397806167603 -6.585062026977539 -2.4020309448242188
1.456569790840149 -6.557122230529785 -2.4020309448242188
1.588011384010315 -6.526535511016846 -2.4020309448242188
1.8489196300506592 -6.4574713706970215 -2.4020309448242188
1.9782812595367432 -6.419022560119629 -2.4020309448242188
2.361363410949707 -6.288196086883545 -2.4020309448242188
2.735870361328125 -6.134531021118164 -2.4020309448242188
3.21952748298645 -5.895090579986572 -2.4020309448242188
3.3373167514801025 -5.829217433929443 -2.4020309448242188
3.4537534713745117 -5.760991096496582 -2.4020309448242188
3.5687999725341797 -5.690440654754639 -2.4020309448242188
3.9051060676574707 -5.465125560760498 -2.4020309448242188
4.014113903045654 -5.385565757751465 -2.4020309448242188
4.121501445770264 -5.303834915161133 -2.4020309448242188
4.227227687835693 -5.219960689544678 -2.4020309448242188
4.331248760223389 -5.133978843688965 -2.4020309448242188
4.533998966217041 -4.95583438873291 -2.4020309448242188
4.632647514343262 -4.863744258880615 -2.4020309448242188
4.824301719665527 -4.673709392547607 -2.4020309448242188
4.917223930358887 -4.575869083404541 -2.4020309448242188
5.00816011428833 -4.4761481285095215 -2.4020309448242188
5.097077369689941 -4.374553203582764 -2.4020309448242188
5.268708229064941 -4.166262626647949 -2.4020309448242188
5.510112285614014 -3.8413522243499756 -2.4020309448242188
5.58617639541626 -3.729891538619995 -2.4020309448242188
5.800717830657959 -3.386613607406616 -2.4020309448242188
5.867585182189941 -3.2693679332733154 -2.4020309448242188
5.932087421417236 -3.150883197784424 -2.4020309448242188
6.111117839813232 -2.787799119949341 -2.4020309448242188
6.218177318572998 -2.5400302410125732 -2.4020309448242188
6.267953872680664 -2.414588212966919 -2.4020309448242188
6.315197467803955 -2.2882096767425537 -2.4020309448242188
6.573596000671387 -1.380310297012329 -2.4020307064056396
6.623741149902344 -1.115114688873291 -2.4020307064056396
6.663191795349121 -0.8481191992759705 -2.4020304679870605
6.678886413574219 -0.7140798568725586 -2.4020304679870605
6.714654445648193 -0.1755593866109848 -2.4020304679870605
6.716829776763916 -0.04063171148300171 -2.4020304679870605
6.716287612915039 0.09430129826068878 -2.4020304679870605
6.713037014007568 0.22917799651622772 -2.4020304679870605
6.698409080505371 0.4987177848815918 -2.4020304679870605
6.687036991119385 0.6331916451454163 -2.4020304679870605
6.656204700469971 0.9013206362724304 -2.4020304679870605
6.614620208740234 1.1679664850234985 -2.4020307064056396
6.589818954467773 1.3006714582443237 -2.4020307064056396
6.56235933303833 1.4327806234359741 -2.4020307064056396
6.464131832122803 1.8254902362823486 -2.4020309448242188
6.426153182983398 1.9549906253814697 -2.4020309448242188
6.342429161071777 2.211514711380005 -2.4020309448242188
6.296717166900635 2.33854341506958 -2.4020309448242188
6.19768762588501 2.5895750522613525 -2.4020309448242188
6.144411563873291 2.713604688644409 -2.4020309448242188
6.088653564453125 2.8365020751953125 -2.4020309448242188
6.030436992645264 2.9582536220550537 -2.4020309448242188
5.969786167144775 3.0788159370422363 -2.4020309448242188
-5.607248783111572 -2.801295042037964 -2.4020309448242188
-5.549838066101074 -2.9133846759796143 -2.4020309448242188
-5.490185260772705 -3.0242979526519775 -2.4020309448242188
-5.229669094085693 -3.455294609069824 -2.4020309448242188
-5.159193992614746 -3.5596652030944824 -2.4020309448242188
-5.012030124664307 -3.7640492916107178 -2.4020309448242188
-4.935392379760742 -3.8639843463897705 -2.4020309448242188
-4.85676908493042 -3.9623568058013916 -2.4020309448242188
-4.776183128356934 -4.059134006500244 -2.4020309448242188
-4.60925817489624 -4.247735500335693 -2.4020309448242188
-4.434893608093262 -4.429469108581543 -2.4020309448242188
-4.34500789642334 -4.517676830291748 -2.4020309448242188
-4.253366470336914 -4.6040568351745605 -2.4020309448242188
-4.064977169036865 -4.771213054656982 -2.4020309448242188
-3.5659759044647217 -5.154834270477295 -2.4020309448242188
-3.4616899490356445 -5.225438117980957 -2.4020309448242188
-3.031017303466797 -5.48647928237915 -2.4020309448242188
-2.9201786518096924 -5.546267032623291 -2.4020309448242188
-2.8083221912384033 -5.603828430175781 -2.4020309448242188
-2.6949987411499023 -5.659101963043213 -2.4020309448242188
-2.465479612350464 -5.7627997398376465 -2.4020309448242188
-2.231987237930298 -5.857194900512695 -2.4020309448242188
-2.113858699798584 -5.900851726531982 -2.4020309448242188
-1.9948877096176147 -5.942132472991943 -2.4020309448242188
-1.8751013278961182 -5.981009483337402 -2.4020309448242188
-1.7545678615570068 -6.017474174499512 -2.4020309448242188
-1.26580810546875 -6.138909339904785 -2.4020309448242188
-1.0181652307510376 -6.184805393218994 -2.4020309448242188
-0.7688842415809631 -6.220715045928955 -2.4020309448242188
-0.5183581709861755 -6.246581077575684 -2.4020309448242188
-0.2669934034347534 -6.262362480163574 -2.4020309448242188
-0.015202636830508709 -6.268034934997559 -2.4020309448242188
0.23661865293979645 -6.263585567474365 -2.4020309448242188
0.36241087317466736 -6.257566452026367 -2.4020309448242188
0.48805296421051025 -6.249022483825684 -2.4020309448242188
0.6135022044181824 -6.237955093383789 -2.4020309448242188
0.863604724407196 -6.208276271820068 -2.4020309448242188
1.2360180616378784 -6.14497709274292 -2.4020309448242188
1.3592272996902466 -6.118902683258057 -2.4020309448242188
1.4818835258483887 -6.090361595153809 -2.4020309448242188
1.6039440631866455 -6.059361934661865 -2.4020309448242188
1.846071720123291 -5.990034580230713 -2.4020309448242188
2.085217237472534 -5.911036968231201 -2.4020309448242188
2.66752552986145 -5.6721086502075195 -2.4020309448242188
3.004364013671875 -5.501116752624512 -2.4020309448242188
3.1142797470092773 -5.439647197723389 -2.4020309448242188
3.436304807662964 -5.242164134979248 -2.4020309448242188
3.540928840637207 -5.172069072723389 -2.4020309448242188
3.644124746322632 -5.099886417388916 -2.4020309448242188
3.74584698677063 -5.025645732879639 -2.4020309448242188
3.8460569381713867 -4.949375629425049 -2.4020309448242188
3.944716691970825 -4.87110710144043 -2.4020309448242188
4.041785717010498 -4.7908711433410645 -2.4020309448242188
4.323044300079346 -4.538698196411133 -2.4020309448242188
4.413355827331543 -4.450929641723633 -2.4020309448242188
4.588601112365723 -4.270038604736328 -2.4020309448242188
4.756435394287109 -4.082215309143066 -2.4020309448242188
4.8374924659729 -3.9858665466308594 -2.4020309448242188
5.068814754486084 -3.687218189239502 -2.4020309448242188
5.141867637634277 -3.5846266746520996 -2.4020309448242188
5.348465442657471 -3.268392562866211 -2.4020309448242188
5.413051605224609 -3.1602721214294434 -2.4020309448242188
5.475451469421387 -3.0508816242218018 -2.4020309448242188
5.535639762878418 -2.9402925968170166 -2.4020309448242188
5.593595027923584 -2.8284597396850586 -2.4020309448242188
5.702707290649414 -2.601501703262329 -2.4020309448242188
5.8026123046875 -2.3703033924102783 -2.4020309448242188
5.84906005859375 -2.2532124519348145 -2.4020309448242188
5.893146991729736 -2.1352484226226807 -2.4020309448242188
5.93485689163208 -2.0164215564727783 -2.4020309448242188
5.974169731140137 -1.8967868089675903 -2.4020309448242188
6.011070251464844 -1.7763210535049438 -2.4020309448242188
6.134278297424316 -1.2880630493164062 -2.4020309448242188
6.158918380737305 -1.1645629405975342 -2.4020309448242188
6.217886924743652 -0.7914783954620361 -2.4020309448242188
6.232533931732178 -0.6664279103279114 -2.4020309448242188
6.244661808013916 -0.540966808795929 -2.4020309448242188
6.254270076751709 -0.41545775532722473 -2.4020309448242188
6.261353492736816 -0.2897025942802429 -2.4020309448242188
6.267936706542969 -0.037932585924863815 -2.4020309448242188
6.26439905166626 0.21389968693256378 -2.4020309448242188
6.211365699768066 0.8410792350769043 -2.4020309448242188
6.172562122344971 1.0899351835250854 -2.4020309448242188
6.149420261383057 1.2137260437011719 -2.4020309448242188
6.032129764556885 1.7034919261932373 -2.4020309448242188
5.99669075012207 1.8243354558944702 -2.4020309448242188
5.875903129577637 2.1822571754455566 -2.4020309448242188
5.733776569366455 2.5321998596191406 -2.4020309448242188
5.681745529174805 2.646937131881714 -2.4020309448242188
5.627418041229248 2.760552406311035 -2.4020309448242188
-5.140646934509277 -2.8317527770996094 -2.4020309448242188
-5.08271598815918 -2.9344615936279297 -2.4020309448242188
-4.960729122161865 -3.136279582977295 -2.4020309448242188
-4.896716117858887 -3.23531174659729 -2.4020309448242188
-4.830728054046631 -3.333035707473755 -2.4020309448242188
-4.5475616455078125 -3.7100906372070312 -2.4020309448242188
-4.068377494812012 -4.2300543785095215 -2.4020309448242188
-3.982574939727783 -4.3109354972839355 -2.4020309448242188
-3.8061747550964355 -4.467449188232422 -2.4020309448242188
-3.7156524658203125 -4.5430169105529785 -2.4020309448242188
-3.623629570007324 -4.616750240325928 -2.4020309448242188
-3.530149459838867 -4.688615322113037 -2.4020309448242188
-3.4352385997772217 -4.75859260559082 -2.4020309448242188
-3.142348051071167 -4.956885814666748 -2.4020309448242188
-3.0421252250671387 -5.019017219543457 -2.4020309448242188
-2.838038921356201 -5.137178421020508 -2.4020309448242188
-2.734257698059082 -5.193159580230713 -2.4020309448242188
-2.6293699741363525 -5.247044086456299 -2.4020309448242188
-2.416461229324341 -5.3484392166137695 -2.4020309448242188
-2.3085241317749023 -5.395906925201416 -2.4020309448242188
-1.642855167388916 -5.634366512298584 -2.4020309448242188
-1.5293285846710205 -5.666236400604248 -2.4020309448242188
-1.4151744842529297 -5.695816516876221 -2.4020309448242188
-1.0695006847381592 -5.770722389221191 -2.4020309448242188
-0.9533459544181824 -5.791044235229492 -2.4020309448242188
-0.7199316024780273 -5.824667930603027 -2.4020309448242188
-0.6027624607086182 -5.83795690536499 -2.4020309448242188
-0.4853515625 -5.848886966705322 -2.4020309448242188
-0.014238281175494194 -5.8689751625061035 -2.4020309448242188
0.10368163883686066 -5.868075370788574 -2.4020309448242188
0.4569799602031708 -5.851173400878906 -2.4020309448242188
0.574444591999054 -5.840811252593994 -2.4020309448242188
1.0414965152740479 -5.775840759277344 -2.4020309448242188
1.1573290824890137 -5.753751754760742 -2.4020309448242188
1.2726879119873047 -5.729338645935059 -2.4020309448242188
1.3875402212142944 -5.702613353729248 -2.4020309448242188
1.6155163049697876 -5.64226770401001 -2.4020309448242188
2.063257932662964 -5.494363307952881 -2.4020309448242188
2.390489339828491 -5.360095500946045 -2.4020309448242188
2.4976916313171387 -5.310987949371338 -2.4020309448242188
2.7090368270874023 -5.20635986328125 -2.4020309448242188
2.813089609146118 -5.150882244110107 -2.4020309448242188
2.9160070419311523 -5.093326091766357 -2.4020309448242188
3.01774525642395 -5.033712863922119 -2.4020309448242188
3.1182665824890137 -4.972067832946777 -2.4020309448242188
3.217529296875 -4.908417701721191 -2.4020309448242188
3.315493106842041 -4.842784404754639 -2.4020309448242188
3.412116527557373 -4.775198459625244 -2.4020309448242188
3.5073633193969727 -4.705683708190918 -2.4020309448242188
3.6935741901397705 -4.560983657836914 -2.4020309448242188
3.784461498260498 -4.485856056213379 -2.4020309448242188
4.047814846038818 -4.249736309051514 -2.4020309448242188
4.132375240325928 -4.167561054229736 -2.4020309448242188
4.296462535858154 -3.9981794357299805 -2.4020309448242188
4.375921726226807 -3.911058187484741 -2.4020309448242188
4.45361328125 -3.8223516941070557 -2.4020309448242188
4.5295090675354 -3.7321043014526367 -2.4020309448242188
4.60357666015625 -3.640350341796875 -2.4020309448242188
4.945456504821777 -3.160283327102661 -2.4020309448242188
5.237473011016846 -2.6484217643737793 -2.4020309448242188
5.339639663696289 -2.43585467338562 -2.4020309448242188
5.387499809265137 -2.3280704021453857 -2.4020309448242188
5.476675987243652 -2.109759569168091 -2.4020309448242188
5.593819618225098 -1.7760202884674072 -2.4020309448242188
5.660651683807373 -1.549865961074829 -2.4020309448242188
5.718344688415527 -1.32120943069458 -2.4020309448242188
5.766805171966553 -1.09039306640625 -2.4020309448242188
5.80595588684082 -0.8578692674636841 -2.4020309448242188
5.835731029510498 -0.6239327788352966 -2.4020309448242188
5.847089767456055 -0.5065638422966003 -2.4020309448242188
5.862719535827637 -0.271258682012558 -2.4020309448242188
5.868884086608887 -0.035517577081918716 -2.4020309448242188
5.852791786193848 0.435758501291275 -2.4020309448242188
5.842854976654053 0.5532569885253906 -2.4020309448242188
5.81591272354126 0.7875361442565918 -2.4020309448242188
5.798917293548584 0.9042216539382935 -2.4020309448242188
5.757910251617432 1.1364729404449463 -2.4020309448242188
5.733914852142334 1.251964807510376 -2.4020309448242188
5.541748046875 1.932374119758606 -2.4020309448242188
5.501807689666748 2.043318510055542 -2.4020309448242188
5.415280818939209 2.2626953125 -2.4020309448242188
5.320010662078857 2.4784164428710938 -2.4020309448242188
5.269144058227539 2.5848138332366943 -2.4020309448242188
-4.930502891540527 -2.4632065296173096 -2.4020309448242188
-4.827571868896484 -2.659296751022339 -2.4020309448242188
-4.773170471191406 -2.7557485103607178 -2.4020309448242188
-4.598498344421387 -3.0382750034332275 -2.4020309448242188
-4.407128810882568 -3.309767007827759 -2.4020309448242188
-4.199746131896973 -3.5692367553710938 -2.4020309448242188
-3.8996458053588867 -3.89487624168396 -2.4020309448242188
-3.740029811859131 -4.048393726348877 -2.4020309448242188
-3.574374198913574 -4.195375442504883 -2.4020309448242188
-3.315155506134033 -4.403073787689209 -2.4020309448242188
-3.0438969135284424 -4.5947794914245605 -2.4020309448242188
-2.8568546772003174 -4.713352680206299 -2.4020309448242188
-2.5677380561828613 -4.876887798309326 -2.4020309448242188
-2.4692394733428955 -4.927491188049316 -2.4020309448242188
-2.167926073074341 -5.067287921905518 -2.4020309448242188
-2.0656847953796387 -5.109820365905762 -2.4020309448242188
-1.9626061916351318 -5.150289058685303 -2.4020309448242188
-1.8587414026260376 -5.188679218292236 -2.4020309448242188
-1.7541210651397705 -5.224974632263184 -2.4020309448242188
-1.6487963199615479 -5.259161472320557 -2.4020309448242188
-1.4361950159072876 -5.32115364074707 -2.4020309448242188
-1.3289928436279297 -5.348933219909668 -2.4020309448242188
-1.1131738424301147 -5.398013114929199 -2.4020309448242188
-1.004370093345642 -5.419276714324951 -2.4020309448242188
-0.5660644173622131 -5.482417106628418 -2.4020309448242188
-0.12407836318016052 -5.510162830352783 -2.4020309448242188
-0.013367919251322746 -5.511544704437256 -2.4020309448242188
0.09736450016498566 -5.5107011795043945 -2.4020309448242188
0.20806273818016052 -5.507632255554199 -2.4020309448242188
0.3186694383621216 -5.5023417472839355 -2.4020309448242188
0.5394616723060608 -5.485096454620361 -2.4020309448242188
0.8688927888870239 -5.4426398277282715 -2.4020309448242188
0.9780651926994324 -5.424083709716797 -2.4020309448242188
1.086846947669983 -5.40333890914917 -2.4020309448242188
1.3030407428741455 -5.3553147315979 -2.4020309448242188
1.623268961906433 -5.267096519470215 -2.4020309448242188
1.728758454322815 -5.233421325683594 -2.4020309448242188
1.8335522413253784 -5.197632789611816 -2.4020309448242188
2.0408763885498047 -5.119777202606201 -2.4020309448242188
2.143322706222534 -5.0777435302734375 -2.4020309448242188
2.3455798625946045 -4.987540245056152 -2.4020309448242188
2.445310115814209 -4.939409255981445 -2.4020309448242188
2.5440514087677 -4.889284610748291 -2.4020309448242188
2.641766309738159 -4.83718729019165 -2.4020309448242188
2.8339598178863525 -4.727151870727539 -2.4020309448242188
2.928359270095825 -4.669261932373047 -2.4020309448242188
3.021575927734375 -4.609487056732178 -2.4020309448242188
3.381876230239868 -4.352035045623779 -2.4020309448242188
3.4686279296875 -4.283212184906006 -2.4020309448242188
3.553982973098755 -4.212655067443848 -2.4020309448242188
3.8012962341308594 -3.9909210205078125 -2.4020309448242188
3.8807055950164795 -3.913747549057007 -2.4020309448242188
4.182382583618164 -3.5895657539367676 -2.4020309448242188
4.323211669921875 -3.4186460971832275 -2.4020309448242188
4.5837082862854 -3.0605430603027344 -2.4020309448242188
4.702959060668945 -2.873905897140503 -2.4020309448242188
4.759750843048096 -2.7788610458374023 -2.4020309448242188
4.814619064331055 -2.682675361633301 -2.4020309448242188
4.867542743682861 -2.5854060649871826 -2.4020309448242188
4.918503284454346 -2.4870927333831787 -2.4020309448242188
4.967477798461914 -2.3877720832824707 -2.4020309448242188
5.014448165893555 -2.287492513656616 -2.4020309448242188
5.143136978149414 -1.981272578239441 -2.4020309448242188
5.218578815460205 -1.7730599641799927 -2.4020309448242188
5.253146648406982 -1.6678773164749146 -2.4020309448242188
5.344077110290527 -1.3483837842941284 -2.4020309448242188
5.393931865692139 -1.1326067447662354 -2.4020309448242188
5.452363014221191 -0.8056235909461975 -2.4020309448242188
5.46744966506958 -0.6959191560745239 -2.4020309448242188
5.480327129364014 -0.5859342813491821 -2.4020309448242188
5.499442100524902 -0.3653143346309662 -2.4020309448242188
5.505670070648193 -0.2547287046909332 -2.4020309448242188
5.51101541519165 0.0773756355047226 -2.4020309448242188
5.50834846496582 0.18811507523059845 -2.4020309448242188
5.503458023071289 0.29874008893966675 -2.4020309448242188
5.496347427368164 0.40921127796173096 -2.4020309448242188
5.487015247344971 0.5196055769920349 -2.4020309448242188
5.407244682312012 1.0672410726547241 -2.4020309448242188
5.360004901885986 1.2836058139801025 -2.4020309448242188
5.304112434387207 1.4978975057601929 -2.4020309448242188
5.272947788238525 1.6041556596755981 -2.4020309448242188
5.127145767211914 2.0222952365875244 -2.4020309448242188
5.085482120513916 2.1248939037323 -2.4020309448242188
5.041762351989746 2.2266342639923096 -2.4020309448242188
4.996013164520264 2.327479362487793 -2.4020309448242188
4.948243141174316 2.4273831844329834 -2.4020309448242188
4.898477554321289 2.5263047218322754 -2.4020309448242188
-4.642189979553223 -2.3191659450531006 -2.4020309448242188
-4.441018104553223 -2.6843621730804443 -2.4020309448242188
-4.386192321777344 -2.7730445861816406 -2.4020309448242188
-4.211181640625 -3.0322277545928955 -2.4020309448242188
-4.149411678314209 -3.1162221431732178 -2.4020309448242188
-4.020875930786133 -3.2803990840911865 -2.4020309448242188
-3.815967321395874 -3.5166614055633545 -2.4020309448242188
-3.6716113090515137 -3.6671175956726074 -2.4020309448242188
-3.4440386295318604 -3.8816301822662354 -2.4020309448242188
-3.3653576374053955 -3.9500434398651123 -2.4020309448242188
-2.8659002780914307 -4.326089859008789 -2.4020309448242188
-2.6000964641571045 -4.490873336791992 -2.4020309448242188
-2.509345531463623 -4.542205810546875 -2.4020309448242188
-2.4175877571105957 -4.59170389175415 -2.4020309448242188
-2.324846029281616 -4.63934850692749 -2.4020309448242188
-2.2311694622039795 -4.685120582580566 -2.4020309448242188
-2.041152238845825 -4.770968437194824 -2.4020309448242188
-1.847841739654541 -4.849116325378418 -2.4020309448242188
-1.6515477895736694 -4.919436931610107 -2.4020309448242188
-1.4525878429412842 -4.981810569763184 -2.4020309448242188
-1.352205753326416 -5.009988307952881 -2.4020309448242188
-1.2512792348861694 -5.036143779754639 -2.4020309448242188
-0.9456310868263245 -5.1023736000061035 -2.4020309448242188
-0.8429333567619324 -5.12034273147583 -2.4020309448242188
-0.7398900985717773 -5.1362433433532715 -2.4020309448242188
-0.6365514993667603 -5.1500725746154785 -2.4020309448242188
-0.4291442632675171 -5.171487331390381 -2.4020309448242188
-0.3251574635505676 -5.179067134857178 -2.4020309448242188
0.09167113900184631 -5.188452243804932 -2.4020309448242188
0.30003538727760315 -5.180581092834473 -2.4020309448242188
0.4040539562702179 -5.173508167266846 -2.4020309448242188
0.6115636825561523 -5.153099060058594 -2.4020309448242188
0.8180871605873108 -5.12437105178833 -2.4020309448242188
1.023288607597351 -5.087369441986084 -2.4020309448242188
1.1252917051315308 -5.065783977508545 -2.4020309448242188
1.226837158203125 -5.042153358459473 -2.4020309448242188
1.528344750404358 -4.959092617034912 -2.4020309448242188
1.6276648044586182 -4.927387714385986 -2.4020309448242188
1.8242992162704468 -4.858021259307861 -2.4020309448242188
1.9215307235717773 -4.820389270782471 -2.4020309448242188
2.0179858207702637 -4.780814170837402 -2.4020309448242188
2.1136279106140137 -4.739304542541504 -2.4020309448242188
2.2084155082702637 -4.695888519287109 -2.4020309448242188
2.302314519882202 -4.650568008422852 -2.4020309448242188
2.395282030105591 -4.603374481201172 -2.4020309448242188
2.4872851371765137 -4.554324626922607 -2.4020309448242188
2.578282356262207 -4.50343132019043 -2.4020309448242188
2.7571191787719727 -4.3962178230285645 -2.4020309448242188
2.8448851108551025 -4.339939117431641 -2.4020309448242188
2.9315013885498047 -4.281907081604004 -2.4020309448242188
3.1841137409210205 -4.097541809082031 -2.4020309448242188
3.2657957077026367 -4.032745361328125 -2.4020309448242188
3.3461570739746094 -3.966317653656006 -2.4020309448242188
3.5027966499328613 -3.828690767288208 -2.4020309448242188
3.869114875793457 -3.4580905437469482 -2.4020309448242188
3.937809944152832 -3.3796584606170654 -2.4020309448242188
4.134246826171875 -3.1362969875335693 -2.4020309448242188
4.196425914764404 -3.0526182651519775 -2.4020309448242188
4.256904125213623 -2.967679738998413 -2.4020309448242188
4.315666198730469 -2.881582021713257 -2.4020309448242188
4.372690200805664 -2.7943217754364014 -2.4020309448242188
4.481414794921875 -2.6163690090179443 -2.4020309448242188
4.582902908325195 -2.4342188835144043 -2.4020309448242188
4.676997184753418 -2.2481448650360107 -2.4020309448242188
4.803927898406982 -1.9623234272003174 -2.4020309448242188
4.842382907867432 -1.865413784980774 -2.4020309448242188
4.878884315490723 -1.76775324344635 -2.4020309448242188
4.945958137512207 -1.570324182510376 -2.4020309448242188
4.976510047912598 -1.4706395864486694 -2.4020309448242188
5.005051136016846 -1.3703649044036865 -2.4020309448242188
5.056063175201416 -1.1681910753250122 -2.4020309448242188
5.098910808563232 -0.9641304016113281 -2.4020309448242188
5.117253303527832 -0.8614965677261353 -2.4020309448242188
5.133527755737305 -0.7585134506225586 -2.4020309448242188
5.147730827331543 -0.6552242636680603 -2.4020309448242188
5.169898509979248 -0.4478949010372162 -2.4020309448242188
5.189167499542236 -0.03140411153435707 -2.4020309448242188
5.18874979019165 0.07285568118095398 -2.4020309448242188
5.181634426116943 0.28124526143074036 -2.4020309448242188
5.16615104675293 0.4891807436943054 -2.4020309448242188
5.142330169677734 0.6963261365890503 -2.4020309448242188
5.127304553985596 0.7994974851608276 -2.4020309448242188
5.110205173492432 0.9023466110229492 -2.4020309448242188
5.04656982421875 1.2085444927215576 -2.4020309448242188
4.964602947235107 1.510354995727539 -2.4020309448242188
4.899920463562012 1.7085685729980469 -2.4020309448242188
4.864604473114014 1.8066694736480713 -2.4020309448242188
4.827325344085693 1.904037594795227 -2.4020309448242188
4.788097858428955 2.0006370544433594 -2.4020309448242188
4.6120285987854 2.3785746097564697 -2.4020309448242188
-4.335771560668945 -2.276061773300171 -2.4020309448242188
-4.240830421447754 -2.4484078884124756 -2.4020309448242188
-4.190791130065918 -2.533111810684204 -2.4020309448242188
-4.030582904815674 -2.780963659286499 -2.4020309448242188
-3.915614604949951 -2.9406378269195557 -2.4020309448242188
-3.7943193912506104 -3.095564842224121 -2.4020309448242188
-3.7313592433929443 -3.171170473098755 -2.4020309448242188
-3.5335564613342285 -3.3901848793029785 -2.4020309448242188
-3.4647326469421387 -3.4604930877685547 -2.4020309448242188
-3.394510507583618 -3.529404640197754 -2.4020309448242188
-3.32291316986084 -3.596888542175293 -2.4020309448242188
-3.175734758377075 -3.7274763584136963 -2.4020309448242188
-3.100207567214966 -3.790527820587158 -2.4020309448242188
-2.8662383556365967 -3.97039794921875 -2.4020309448242188
-2.4535961151123047 -4.23783540725708 -2.4020309448242188
-2.2813658714294434 -4.332983493804932 -2.4020309448242188
-2.1938536167144775 -4.377943515777588 -2.4020309448242188
-2.1054539680480957 -4.421135902404785 -2.4020309448242188
-2.016207218170166 -4.46254301071167 -2.4020309448242188
-1.926146149635315 -4.50214958190918 -2.4020309448242188
-1.6514428853988647 -4.610002517700195 -2.4020309448242188
-1.4649120569229126 -4.672623634338379 -2.4020309448242188
-1.1807775497436523 -4.752383232116699 -2.4020309448242188
-0.98890620470047 -4.795981407165527 -2.4020309448242188
-0.8923534750938416 -4.814882278442383 -2.4020309448242188
-0.7954382300376892 -4.831837177276611 -2.4020309448242188
-0.5029259920120239 -4.870979309082031 -2.4020309448242188
-0.4049658179283142 -4.880101203918457 -2.4020309448242188
-0.30683836340904236 -4.887251377105713 -2.4020309448242188
-0.11025390028953552 -4.895632743835449 -2.4020309448242188
-0.011877440847456455 -4.896859169006348 -2.4020309448242188
0.28312864899635315 -4.888681411743164 -2.4020309448242188
0.47929197549819946 -4.873361587524414 -2.4020309448242188
0.5771045088768005 -4.862749099731445 -2.4020309448242188
0.771984875202179 -4.8356428146362305 -2.4020309448242188
0.8689867854118347 -4.81915283203125 -2.4020309448242188
1.061885952949524 -4.7803521156311035 -2.4020309448242188
1.3479199409484863 -4.707705020904541 -2.4020309448242188
1.44222891330719 -4.679673194885254 -2.4020309448242188
