ply
format ascii 1.0
element vertex 284
property float x
property float y
property float z
end_header
-18.439800262451172 -34.4688606262207 -1.1007200479507446
-18.138511657714844 -35.58937072753906 -1.1247657537460327
-20.69581413269043 -42.68410873413086 -1.3357139825820923
-19.65923309326172 -42.688072204589844 -1.3233407735824585
-18.616178512573242 -42.63442611694336 -1.3099437952041626
-4.00614595413208 -20.502099990844727 -0.5882108807563782
-3.165675640106201 -20.501461029052734 -0.5841168165206909
-2.408029794692993 -21.137298583984375 -0.5990260243415833
-19.94379234313965 -39.13149642944336 -2.2274065017700195
-19.133256912231445 -39.4614372253418 -2.2240893840789795
-18.38548469543457 -39.9222526550293 -2.229013204574585
-10.65871810913086 -25.797252655029297 -1.4155611991882324
-10.058209419250488 -25.784915924072266 -1.4036310911178589
-9.472967147827148 -25.787681579589844 -1.393249750137329
-8.897455215454102 -25.794342041015625 -1.383777379989624
-8.327742576599121 -25.795499801635742 -1.3746834993362427
-6.729861736297607 -26.07084846496582 -1.3655033111572266
-4.794658184051514 -20.227731704711914 -1.054259181022644
-3.953666925430298 -20.233503341674805 -1.045533537864685
-1.9017248153686523 -20.269081115722656 -1.032446265220642
-14.364965438842773 -26.85191535949707 -2.23287034034729
-13.831722259521484 -27.139060974121094 -2.2334330081939697
-12.198539733886719 -27.936872482299805 -2.2351510524749756
-10.05181884765625 -25.7685489654541 -2.028066396713257
-9.464609146118164 -25.76494026184082 -2.012570381164551
-8.886592864990234 -25.762847900390625 -1.998207688331604
-7.20707368850708 -25.789413452148438 -1.9633859395980835
-7.635529518127441 -29.57932472229004 -2.2399137020111084
-4.398861408233643 -20.352991104125977 -1.5267815589904785
-3.9766294956207275 -20.35102081298828 -1.5204005241394043
-3.520186185836792 -20.134220123291016 -1.4986776113510132
-3.1084728240966797 -20.130983352661133 -1.4935402870178223
-2.2938342094421387 -20.134958267211914 -1.4858880043029785
-10.167043685913086 -20.96902084350586 -2.2372846603393555
-9.749589920043945 -21.170263290405273 -2.2376270294189453
-9.328192710876465 -21.363258361816406 -2.23797607421875
-8.474194526672363 -21.724199295043945 -2.238694190979004
-8.041915893554688 -21.892024993896484 -2.239063024520874
-7.606321334838867 -22.05126190185547 -2.239438056945801
-7.167598247528076 -22.20191192626953 -2.239819049835205
-6.281433582305908 -22.47714614868164 -2.2405989170074463
-5.833809852600098 -22.59963035583496 -2.240798234939575
-5.384129047393799 -22.71441650390625 -2.2411227226257324
-3.9244585037231445 -20.084028244018555 -1.9646337032318115
-3.5074572563171387 -20.061412811279297 -1.9552117586135864
-2.691326856613159 -20.06745719909668 -1.9438261985778809
-2.28910756111145 -20.09344482421875 -1.9415498971939087
-1.8839892148971558 -20.080028533935547 -1.9362502098083496
-6.630715847015381 -12.394558906555176 -1.6697405576705933
-8.229365348815918 -16.97267723083496 -2.240600109100342
-7.549960613250732 -17.290761947631836 -2.2411606311798096
-6.858337879180908 -17.58180809020996 -2.2417426109313965
-5.800325870513916 -17.96672248840332 -2.2426540851593018
-5.082864284515381 -18.188243865966797 -2.2432861328125
-4.720901966094971 -18.28834342956543 -2.2436089515686035
-4.3569841384887695 -18.38127326965332 -2.24393630027771
-3.6238231658935547 -18.545480728149414 -2.2446038722991943
-3.2548668384552 -18.616682052612305 -2.244943857192993
-2.512906551361084 -18.73714256286621 -2.2456352710723877
-1.7665343284606934 -18.828149795532227 -2.2463414669036865
-6.630715847015381 -12.394558906555176 -1.9916881322860718
-7.1870574951171875 -14.10163402557373 -2.242588520050049
-6.906000137329102 -14.243321418762207 -2.2428364753723145
-6.622190475463867 -14.379434585571289 -2.243088960647583
-6.3356804847717285 -14.509855270385742 -2.243335008621216
-5.755059719085693 -14.753485679626465 -2.243824005126953
-4.566766738891602 -15.171049118041992 -2.2448527812957764
-4.264729022979736 -15.260665893554688 -2.2451202869415283
-3.9609363079071045 -15.3442964553833 -2.245391368865967
-3.6555192470550537 -15.421905517578125 -2.245666265487671
-3.3485851287841797 -15.49345874786377 -2.2459447383880615
-3.0402417182922363 -15.558929443359375 -2.2462265491485596
-2.108081102371216 -15.7185640335083 -2.2470924854278564
-1.7953661680221558 -15.759439468383789 -2.247387409210205
-5.6992998123168945 -12.375471115112305 -2.2445342540740967
-5.452658653259277 -12.487571716308594 -2.2447550296783447
-5.1193437576293945 -12.390335083007812 -2.2085320949554443
-4.9528679847717285 -12.697038650512695 -2.2452070713043213
-4.699924945831299 -12.79432201385498 -2.24543833732605
-4.445069313049316 -12.886584281921387 -2.2456724643707275
-3.670095682144165 -13.132880210876465 -2.2463936805725098
-3.1457481384277344 -13.271332740783691 -2.2468888759613037
-2.349759578704834 -13.439825057983398 -2.2476511001586914
-1.8139721155166626 -13.52563190460205 -2.2481513023376465
-1.2750805616378784 -13.590142250061035 -2.248661518096924
-5.4377241134643555 -10.669303894042969 -2.2508480548858643
-5.225163459777832 -10.776679039001465 -2.2511351108551025
-4.575032711029053 -11.072938919067383 -2.251932382583618
-4.354442119598389 -11.162922859191895 -2.252176284790039
-4.132061004638672 -11.24846363067627 -2.2524092197418213
-3.9079790115356445 -11.32950496673584 -2.2526309490203857
-3.4550859928131104 -11.478009223937988 -2.2530407905578613
-3.226461172103882 -11.54539680480957 -2.2532286643981934
-2.9965014457702637 -11.60818099975586 -2.2534050941467285
-2.7653117179870605 -11.666316986083984 -2.2535698413848877
-2.0652732849121094 -11.812641143798828 -2.2539939880371094
-1.8300927877426147 -11.851996421813965 -2.2541120052337646
-1.119088053703308 -11.926875114440918 -2.251631259918213
-5.1768622398376465 -9.676926612854004 -2.319819211959839
-4.465793132781982 -9.697025299072266 -2.256678342819214
-4.2589640617370605 -9.75334644317627 -2.249630928039551
-3.867635488510132 -9.914999961853027 -2.2496418952941895
-3.26973557472229 -10.128121376037598 -2.2496824264526367
-2.660684823989868 -10.307233810424805 -2.250161647796631
-2.45536732673645 -10.358770370483398 -2.25030779838562
-2.0418248176574707 -10.44941234588623 -2.2505691051483154
-1.8337621688842773 -10.488479614257812 -2.2506840229034424
-1.6249194145202637 -10.523355484008789 -2.250788450241089
-1.415438175201416 -10.554025650024414 -2.250882625579834
-4.275317668914795 -9.2832670211792 -2.4020309448242188
-4.089870929718018 -9.366436004638672 -2.4020309448242188
-3.9027862548828125 -9.445899963378906 -2.4020309448242188
-2.9115569591522217 -9.672407150268555 -2.3739962577819824
-2.7038512229919434 -9.675311088562012 -2.3610446453094482
-2.498260498046875 -9.678020477294922 -2.3491175174713135
-2.2946178913116455 -9.68053913116455 -2.3381903171539307
-2.0927441120147705 -9.682872772216797 -2.3282415866851807
-1.8924731016159058 -9.685025215148926 -2.319251298904419
-1.693636417388916 -9.686999320983887 -2.311201810836792
-1.496069312095642 -9.688799858093262 -2.3040771484375
-1.2996203899383545 -9.690427780151367 -2.2978641986846924
-1.1041308641433716 -9.691887855529785 -2.2925503253936768
-0.9094567894935608 -9.693181037902832 -2.288125514984131
-4.047469615936279 -8.347712516784668 -2.4020309448242188
-3.880692720413208 -8.42653751373291 -2.4020309448242188
-2.496924877166748 -8.934856414794922 -2.4020309448242188
-2.3187828063964844 -8.982742309570312 -2.4020309448242188
-2.1397204399108887 -9.027069091796875 -2.4020309448242188
-1.5977526903152466 -9.13857364654541 -2.4020309448242188
-1.415734887123108 -9.168537139892578 -2.4020309448242188
-1.2330639362335205 -9.194873809814453 -2.4020309448242188
-0.866561233997345 -9.236626625061035 -2.4020309448242188
-3.8529040813446045 -7.559741497039795 -2.4020309448242188
-3.701829671859741 -7.634847640991211 -2.4020309448242188
-3.3953611850738525 -7.775993347167969 -2.4020309448242188
-3.2400829792022705 -7.841962814331055 -2.4020309448242188
-3.083522319793701 -7.90482759475708 -2.4020309448242188
-2.6067821979522705 -8.074604034423828 -2.4020309448242188
-2.2836973667144775 -8.171858787536621 -2.4020309448242188
-2.1207666397094727 -8.215649604797363 -2.4020309448242188
-1.6272008419036865 -8.327463150024414 -2.4020309448242188
-1.2948338985443115 -8.385580062866211 -2.4020309448242188
-1.1278502941131592 -8.409658432006836 -2.4020309448242188
-0.9604211449623108 -8.430428504943848 -2.4020309448242188
-0.7926110625267029 -8.447851181030273 -2.4020309448242188
-3.5461833477020264 -6.957925796508789 -2.4020309448242188
-3.407137393951416 -7.027058124542236 -2.4020309448242188
-2.982149600982666 -7.217680931091309 -2.4020309448242188
-2.838052988052368 -7.275546550750732 -2.4020309448242188
-2.6928343772888184 -7.330538272857666 -2.4020309448242188
-2.54655385017395 -7.38262939453125 -2.4020309448242188
-2.101898193359375 -7.521312236785889 -2.4020309448242188
-1.951937198638916 -7.561619758605957 -2.4020309448242188
-1.6497619152069092 -7.633244037628174 -2.4020309448242188
-1.4976671934127808 -7.664535999298096 -2.4020309448242188
-1.1917577981948853 -7.718021869659424 -2.4020309448242188
-1.0380651950836182 -7.740190029144287 -2.4020309448242188
-0.7295153737068176 -7.775341033935547 -2.4020309448242188
-3.2813212871551514 -6.438243389129639 -2.4020309448242188
-3.152660369873047 -6.5022125244140625 -2.4020309448242188
-3.0227508544921875 -6.563610076904297 -2.4020309448242188
-2.759413957595825 -6.678598880767822 -2.4020309448242188
-2.626080274581909 -6.732142925262451 -2.4020309448242188
-2.491708993911743 -6.78302526473999 -2.4020309448242188
-1.8061461448669434 -6.996847152709961 -2.4020309448242188
-1.2445214986801147 -7.118229389190674 -2.4020309448242188
-1.1027452945709229 -7.141567707061768 -2.4020309448242188
-0.9605334401130676 -7.162082195281982 -2.4020309448242188
-3.168466091156006 -5.922693252563477 -2.4020309448242188
-2.9304778575897217 -6.043981075286865 -2.4020309448242188
-2.687878370285034 -6.155712604522705 -2.4020309448242188
-2.5649473667144775 -6.207937717437744 -2.4020309448242188
-2.4410154819488525 -6.2577080726623535 -2.4020309448242188
-2.316108465194702 -6.3050079345703125 -2.4020309448242188
-2.1902928352355957 -6.349808692932129 -2.4020309448242188
-2.0636022090911865 -6.392101287841797 -2.4020309448242188
-1.9361095428466797 -6.431868553161621 -2.4020309448242188
-1.8078429698944092 -6.46909236907959 -2.4020309448242188
-1.678863525390625 -6.503758430480957 -2.4020309448242188
-1.5492199659347534 -6.535852909088135 -2.4020309448242188
-1.4189611673355103 -6.56536340713501 -2.4020309448242188
-1.288143277168274 -6.592278957366943 -2.4020309448242188
-1.1568175554275513 -6.616586685180664 -2.4020309448242188
-0.8928417563438416 -6.6573486328125 -2.4020309448242188
-0.760299026966095 -6.673784255981445 -2.4020309448242188
-2.956785202026367 -5.52687931060791 -2.4020309448242188
-2.6219518184661865 -5.693314075469971 -2.4020309448242188
-2.5082359313964844 -5.744321823120117 -2.4020309448242188
-2.393524169921875 -5.793056011199951 -2.4020309448242188
-2.277879476547241 -5.8394999504089355 -2.4020309448242188
-2.161318302154541 -5.883636951446533 -2.4020309448242188
-2.0439159870147705 -5.925446510314941 -2.4020309448242188
-1.9256932735443115 -5.964912414550781 -2.4020309448242188
-1.8067187070846558 -6.002020835876465 -2.4020309448242188
-1.6870238780975342 -6.03675651550293 -2.4020309448242188
-1.5666539669036865 -6.069106101989746 -2.4020309448242188
-1.2020519971847534 -6.151710510253906 -2.4020309448242188
-1.0795080661773682 -6.174395561218262 -2.4020309448242188
-2.665029287338257 -5.229023456573486 -2.4020309448242188
-2.560533285140991 -5.280978202819824 -2.4020309448242188
-2.455024242401123 -5.330844402313232 -2.4020309448242188
-2.348470449447632 -5.378597736358643 -2.4020309448242188
-1.913763403892517 -5.548195838928223 -2.4020309448242188
-1.6916906833648682 -5.619897365570068 -2.4020309448242188
-1.5796154737472534 -5.652420997619629 -2.4020309448242188
-1.466921329498291 -5.682711124420166 -2.4020309448242188
-1.1255260705947876 -5.760056495666504 -2.4020309448242188
-0.5482434034347534 -5.843328952789307 -2.4020309448242188
-2.5998668670654297 -4.859835624694824 -2.4020309448242188
-2.502725839614868 -4.9105682373046875 -2.4020309448242188
-2.404594659805298 -4.959359169006348 -2.4020309448242188
-2.3055126667022705 -5.00618839263916 -2.4020309448242188
-2.205519914627075 -5.05103874206543 -2.4020309448242188
-2.104656934738159 -5.093891620635986 -2.4020309448242188
-1.9004724025726318 -5.173539161682129 -2.4020309448242188
-1.7972338199615479 -5.21030330657959 -2.4020309448242188
-1.6932824850082397 -5.2450079917907715 -2.4020309448242188
-1.4834131002426147 -5.308180809020996 -2.4020309448242188
-1.3775866031646729 -5.336626052856445 -2.4020309448242188
-1.2711999416351318 -5.3629608154296875 -2.4020309448242188
-2.1706933975219727 -4.713441848754883 -2.4020309448242188
-2.076547861099243 -4.755669593811035 -2.4020309448242188
-1.9815832376480103 -4.796016216278076 -2.4020309448242188
-1.885836124420166 -4.834466934204102 -2.4020309448242188
-1.7893407344818115 -4.871009349822998 -2.4020309448242188
-1.692138671875 -4.905620098114014 -2.4020309448242188
-1.594265103340149 -4.938295841217041 -2.4020309448242188
-1.4957653284072876 -4.969017028808594 -2.4020309448242188
-1.0962365865707397 -5.072150707244873 -2.4020309448242188
-0.9951733350753784 -5.092944622039795 -2.4020309448242188
-0.8937133550643921 -5.111722946166992 -2.4020309448242188
-0.689776599407196 -5.143214225769043 -2.4020309448242188
-0.5873767137527466 -5.155913352966309 -2.4020309448242188
-2.2236058712005615 -4.362910270690918 -2.4020309448242188
-2.048387289047241 -4.447864055633545 -2.4020309448242188
-1.6885217428207397 -4.596550941467285 -2.4020309448242188
-1.596795678138733 -4.629214286804199 -2.4020309448242188
-1.3179773092269897 -4.716175556182861 -2.4020309448242188
-1.2239477634429932 -4.741448879241943 -2.4020309448242188
-1.1294323205947876 -4.7648468017578125 -2.4020309448242188
-0.9390990734100342 -4.80598258972168 -2.4020309448242188
-0.5542834401130676 -4.865403175354004 -2.4020309448242188
-2.184098958969116 -4.082657337188721 -2.4020309448242188
-2.1024913787841797 -4.125277519226074 -2.4020309448242188
-1.9368188381195068 -4.205605506896973 -2.4020309448242188
-1.6826512813568115 -4.3135905265808105 -2.4020309448242188
-1.3346068859100342 -4.433644771575928 -2.4020309448242188
-1.2461925745010376 -4.459304332733154 -2.4020309448242188
-1.1572827100753784 -4.4832000732421875 -2.4020309448242188
-0.8879504203796387 -4.544219493865967 -2.4020309448242188
-0.7065795660018921 -4.575928211212158 -2.4020309448242188
-0.6154589653015137 -4.589073181152344 -2.4020309448242188
-0.4325219690799713 -4.609913349151611 -2.4020309448242188
-1.991461157798767 -3.9074206352233887 -2.4020309448242188
-1.9133764505386353 -3.9462432861328125 -2.4020309448242188
-1.834536075592041 -3.9835081100463867 -2.4020309448242188
-1.7549694776535034 -4.019196033477783 -2.4020309448242188
-1.67471182346344 -4.053295135498047 -2.4020309448242188
-1.5937926769256592 -4.085791110992432 -2.4020309448242188
-1.5122557878494263 -4.116678714752197 -2.4020309448242188
-1.430090308189392 -4.145925045013428 -2.4020309448242188
-1.3473767042160034 -4.173539161682129 -2.4020309448242188
-1.2641284465789795 -4.199504375457764 -2.4020309448242188
-1.1803820133209229 -4.223807334899902 -2.4020309448242188
-1.096166968345642 -4.246440887451172 -2.4020309448242188
-1.0115197896957397 -4.267396926879883 -2.4020309448242188
-0.9264721274375916 -4.286666393280029 -2.4020309448242188
-0.6692651510238647 -4.334273815155029 -2.4020309448242188
-0.5829553008079529 -4.3467230796813965 -2.4020309448242188
-0.40968137979507446 -4.366464138031006 -2.4020309448242188
-1.8892004489898682 -3.706777572631836 -2.4020309448242188
-1.740332007408142 -3.778956174850464 -2.4020309448242188
-1.6648657321929932 -3.812816619873047 -2.4020309448242188
-1.5119482278823853 -3.875986337661743 -2.4020309448242188
-1.4345849752426147 -3.905283212661743 -2.4020309448242188
-1.356652855873108 -3.933032751083374 -2.4020309448242188
-1.2781872749328613 -3.959228992462158 -2.4020309448242188
-1.0398778915405273 -4.028389930725098 -2.4020309448242188
-0.9595776200294495 -4.048270225524902 -2.4020309448242188
-0.8788976669311523 -4.066546440124512 -2.4020309448242188
-0.6348986625671387 -4.111711502075195 -2.4020309448242188
-0.5530200004577637 -4.123523235321045 -2.4020309448242188
-0.47096678614616394 -4.133723258972168 -2.4020309448242188
-0.3886438012123108 -4.142247200012207 -2.4020309448242188
