ply
format ascii 1.0
element vertex 283
property float x
property float y
property float z
end_header
-39.025753021240234 -22.618305206298828 5.873810768127441
-22.820825576782227 -33.460750579833984 4.349176406860352
-22.81819725036621 -33.45689010620117 3.4282121658325195
-22.812957763671875 -33.449214935302734 1.5964841842651367
-22.80843734741211 -33.44257354736328 -0.2279101461172104
-35.43009567260742 -31.60737419128418 -1.3369206190109253
-34.04507064819336 -31.63709831237793 -1.3086460828781128
-33.743900299072266 -35.425472259521484 -1.3776073455810547
-19.835962295532227 -26.686925888061523 -0.9362855553627014
-24.79585838317871 -34.81547546386719 -1.2035447359085083
-22.80624771118164 -33.43936538696289 -1.1397167444229126
-37.24991226196289 -22.612272262573242 -2.2099270820617676
-36.30727005004883 -24.11127471923828 -2.210334300994873
-27.625898361206055 -20.009477615356445 -1.729921579360962
-25.592113494873047 -20.170839309692383 -1.6525540351867676
-24.626590728759766 -20.234344482421875 -1.6164237260818481
-24.46885108947754 -20.951778411865234 -1.6336779594421387
-32.58229446411133 -29.066844940185547 -2.2143542766571045
-31.993854522705078 -29.73093605041504 -2.214962959289551
-28.856088638305664 -32.870262145996094 -2.218207597732544
-19.935871124267578 -25.713285446166992 -1.650055170059204
-18.468769073486328 -25.931713104248047 -1.6145544052124023
-26.23157501220703 -15.203129768371582 -2.223040819168091
-19.57989501953125 -12.437103271484375 -1.7007790803909302
-24.201990127563477 -18.290489196777344 -2.2243058681488037
-21.38127899169922 -21.552562713623047 -2.2259905338287354
-19.098644256591797 -23.626150131225586 -2.2275373935699463
-18.619457244873047 -24.015377044677734 -2.2281036376953125
-18.132375717163086 -24.39495849609375 -2.2286758422851562
-17.637617111206055 -24.76470375061035 -2.2292540073394775
-17.135272979736328 -25.12436866760254 -2.2298271656036377
-20.298513412475586 -11.764484405517578 -2.2524032592773438
-18.714847564697266 -12.428333282470703 -2.1568210124969482
-17.657386779785156 -15.119362831115723 -2.231736183166504
-17.34832000732422 -15.476521492004395 -2.2319576740264893
-17.032062530517578 -15.827390670776367 -2.2321879863739014
-16.37860870361328 -16.50981330871582 -2.232675075531006
-16.04159164428711 -16.84099769592285 -2.2329208850860596
-15.697738647460938 -17.165151596069336 -2.233147144317627
-13.88390827178955 -18.679161071777344 -2.2344107627868652
-16.65886116027832 -9.655027389526367 -2.287165880203247
-16.18914794921875 -9.827494621276855 -2.249630928039551
-15.986608505249023 -10.154648780822754 -2.2496933937072754
-15.777438163757324 -10.477622032165527 -2.2497551441192627
-15.12485408782959 -11.430512428283691 -2.251980781555176
-14.611539840698242 -12.005241394042969 -2.246319055557251
-13.790597915649414 -12.815186500549316 -2.236236333847046
-12.987869262695312 -13.63509750366211 -2.2368390560150146
-12.425682067871094 -14.15420913696289 -2.2372753620147705
-12.136799812316895 -14.405200958251953 -2.2375035285949707
-11.842866897583008 -14.650334358215332 -2.2377383708953857
-10.619192123413086 -15.570249557495117 -2.2387278079986572
-14.667414665222168 -8.500846862792969 -2.4020309448242188
-14.491687774658203 -8.79706859588623 -2.4020309448242188
-14.309809684753418 -9.089664459228516 -2.4020309448242188
-14.122358322143555 -9.378509521484375 -2.4020309448242188
-13.329830169677734 -9.654815673828125 -2.3320693969726562
-12.791646003723145 -9.667280197143555 -2.2718276977539062
-12.476494789123535 -9.835338592529297 -2.2512691020965576
-11.850225448608398 -10.571648597717285 -2.2500855922698975
-10.731410026550293 -11.734580993652344 -2.253099203109741
-9.433759689331055 -12.691999435424805 -2.240675449371338
-8.912111282348633 -13.067264556884766 -2.241107225418091
-12.464042663574219 -7.566204071044922 -2.4020309448242188
-12.307767868041992 -7.8178629875183105 -2.4020309448242188
-12.146398544311523 -8.066292762756348 -2.4020309448242188
-11.980023384094238 -8.311385154724121 -2.4020309448242188
-11.451504707336426 -9.025690078735352 -2.4020309448242188
-11.265801429748535 -9.25648021697998 -2.4020309448242188
-11.0753173828125 -9.483445167541504 -2.4020309448242188
-9.21586799621582 -10.077369689941406 -2.2496755123138428
-8.587950706481934 -10.623835563659668 -2.2504799365997314
-8.372079849243164 -10.798297882080078 -2.2509357929229736
-8.152569770812988 -10.968323707580566 -2.2513809204101562
-11.056646347045898 -6.408138275146484 -2.4020309448242188
-10.924177169799805 -6.631436824798584 -2.4020309448242188
-10.645767211914062 -7.069740295410156 -2.4020309448242188
-10.49994945526123 -7.284561634063721 -2.4020309448242188
-10.195363998413086 -7.705084800720215 -2.4020309448242188
-10.036730766296387 -7.910609722137451 -2.4020309448242188
-9.873937606811523 -8.112886428833008 -2.4020309448242188
-9.707084655761719 -8.311817169189453 -2.4020309448242188
-9.536216735839844 -8.507309913635254 -2.4020309448242188
-9.361743927001953 -8.699286460876465 -2.4020309448242188
-9.182717323303223 -8.887665748596191 -2.4020309448242188
-8.430951118469238 -9.603781700134277 -2.4020309448242188
-7.500970840454102 -9.674753189086914 -2.301007032394409
-9.46630859375 -6.286475658416748 -2.4020309448242188
-9.336641311645508 -6.477492332458496 -2.4020309448242188
-9.065805435180664 -6.851424217224121 -2.4020309448242188
-8.479681015014648 -7.564770221710205 -2.4020309448242188
-8.324250221252441 -7.735482692718506 -2.4020309448242188
-8.165387153625488 -7.902992248535156 -2.4020309448242188
-7.837601184844971 -8.22817325592041 -2.4020309448242188
-7.496877670288086 -8.539767265319824 -2.4020309448242188
-7.321834564208984 -8.690313339233398 -2.4020309448242188
-6.7788543701171875 -9.1201753616333 -2.4020309448242188
-8.842607498168945 -5.124943733215332 -2.4020309448242188
-8.277395248413086 -5.995264053344727 -2.4020309448242188
-7.896729946136475 -6.488321781158447 -2.4020309448242188
-7.763279438018799 -6.647415637969971 -2.4020309448242188
-7.343952655792236 -7.107958793640137 -2.4020309448242188
-6.897346019744873 -7.542105674743652 -2.4020309448242188
-6.585269451141357 -7.816071510314941 -2.4020309448242188
-6.425115585327148 -7.948248863220215 -2.4020309448242188
-6.096930027008057 -8.202695846557617 -2.4020309448242188
-5.929030418395996 -8.32486343383789 -2.4020309448242188
-7.830941677093506 -4.974196434020996 -2.4020309448242188
-7.728274822235107 -5.132265090942383 -2.4020309448242188
-7.622419834136963 -5.288208484649658 -2.4020309448242188
-7.5134196281433105 -5.44197416305542 -2.4020309448242188
-7.401302337646484 -5.5934906005859375 -2.4020309448242188
-7.286104679107666 -5.742687225341797 -2.4020309448242188
-7.16799783706665 -5.889537811279297 -2.4020309448242188
-7.046841144561768 -6.033945083618164 -2.4020309448242188
-6.922800064086914 -6.175863742828369 -2.4020309448242188
-6.795899391174316 -6.315231800079346 -2.4020309448242188
-6.398598670959473 -6.7174601554870605 -2.4020309448242188
-6.260810375213623 -6.846065521240234 -2.4020309448242188
-6.120432376861572 -6.971845626831055 -2.4020309448242188
-5.9775285720825195 -7.094749450683594 -2.4020309448242188
-5.53425931930542 -7.4456939697265625 -2.4020309448242188
-5.381857872009277 -7.556581974029541 -2.4020309448242188
-5.227229118347168 -7.664357662200928 -2.4020309448242188
-7.253157615661621 -4.402972221374512 -2.4020309448242188
-7.068302631378174 -4.693985939025879 -2.4020309448242188
-6.971492290496826 -4.836615562438965 -2.4020309448242188
-6.769259929656982 -5.115827560424805 -2.4020309448242188
-6.555848121643066 -5.386592388153076 -2.4020309448242188
-6.445070266723633 -5.518670082092285 -2.4020309448242188
-6.331615924835205 -5.648469924926758 -2.4020309448242188
-5.975787162780762 -6.023660659790039 -2.4020309448242188
-5.198957920074463 -6.705619812011719 -2.4020309448242188
-4.780840873718262 -7.0098490715026855 -2.4020309448242188
-6.675755500793457 -4.052464008331299 -2.4020309448242188
-6.592044353485107 -4.187250137329102 -2.4020309448242188
-6.505617141723633 -4.320310592651367 -2.4020309448242188
-6.230374813079834 -4.708565711975098 -2.4020309448242188
-6.033951759338379 -4.957775115966797 -2.4020309448242188
-5.611570835113525 -5.431241989135742 -2.4020309448242188
-5.5000715255737305 -5.544130802154541 -2.4020309448242188
-5.2704691886901855 -5.762988090515137 -2.4020309448242188
-5.0318450927734375 -5.972318649291992 -2.4020309448242188
-4.909479141235352 -6.073315143585205 -2.4020309448242188
-4.65871000289917 -6.267740249633789 -2.4020309448242188
-4.530417442321777 -6.361088752746582 -2.4020309448242188
-6.252049922943115 -3.6235227584838867 -2.4020309448242188
-6.099694728851318 -3.874509572982788 -2.4020309448242188
-6.019717216491699 -3.9976305961608887 -2.4020309448242188
-5.937258720397949 -4.119096755981445 -2.4020309448242188
-5.852352619171143 -4.238868236541748 -2.4020309448242188
-5.675332546234131 -4.473104476928711 -2.4020309448242188
-5.488931179046631 -4.699967384338379 -2.4020309448242188
-5.0892744064331055 -5.130043029785156 -2.4020309448242188
-4.876673698425293 -5.332545757293701 -2.4020309448242188
-4.767340660095215 -5.430520057678223 -2.4020309448242188
-4.542803764343262 -5.619704246520996 -2.4020309448242188
-4.071600437164307 -5.969932556152344 -2.4020309448242188
-5.811455726623535 -3.368163585662842 -2.4020309448242188
-5.741828441619873 -3.485529661178589 -2.4020309448242188
-5.595489501953125 -3.7159042358398438 -2.4020309448242188
-5.102109432220459 -4.368746757507324 -2.4020309448242188
-5.012303352355957 -4.471501350402832 -2.4020309448242188
-4.920426368713379 -4.5724029541015625 -2.4020309448242188
-4.8265204429626465 -4.671420097351074 -2.4020309448242188
-4.730617046356201 -4.768513202667236 -2.4020309448242188
-4.431366920471191 -5.047814846038818 -2.4020309448242188
-4.3279032707214355 -5.136799335479736 -2.4020309448242188
-4.222650527954102 -5.223668098449707 -2.4020309448242188
-4.115656852722168 -5.308375835418701 -2.4020309448242188
-3.896620988845825 -5.471182346343994 -2.4020309448242188
-5.423065185546875 -3.14306640625 -2.4020309448242188
-5.2909111976623535 -3.360771656036377 -2.4020309448242188
-5.221538066864014 -3.4675679206848145 -2.4020309448242188
-5.076363563537598 -3.676818370819092 -2.4020309448242188
-4.92281436920166 -3.879997491836548 -2.4020309448242188
-4.842970371246338 -3.9792098999023438 -2.4020309448242188
-4.59158992767334 -4.266829013824463 -2.4020309448242188
-4.5039591789245605 -4.359223365783691 -2.4020309448242188
-4.414468288421631 -4.449830532073975 -2.4020309448242188
-4.323154926300049 -4.538591384887695 -2.4020309448242188
-4.1352152824401855 -4.710464954376221 -2.4020309448242188
-4.038665294647217 -4.793505668640137 -2.4020309448242188
-3.9404473304748535 -4.874566078186035 -2.4020309448242188
-3.8406054973602295 -4.953610897064209 -2.4020309448242188
-3.636204242706299 -5.105536937713623 -2.4020309448242188
-3.5317301750183105 -5.1783552169799805 -2.4020309448242188
-5.016964435577393 -3.0455095767974854 -2.4020309448242188
-4.889106273651123 -3.246802568435669 -2.4020309448242188
-4.753178596496582 -3.4427311420440674 -2.4020309448242188
-4.682252883911133 -3.5385828018188477 -2.4020309448242188
-4.609400749206543 -3.6329739093780518 -2.4020309448242188
-4.458011150360107 -3.817228078842163 -2.4020309448242188
-4.379538059234619 -3.9070074558258057 -2.4020309448242188
-4.299260139465332 -3.9951744079589844 -2.4020309448242188
-4.2172112464904785 -4.081690788269043 -2.4020309448242188
-4.133415222167969 -4.166527271270752 -2.4020309448242188
-4.04791784286499 -4.249638080596924 -2.4020309448242188
-3.9607489109039307 -4.330996513366699 -2.4020309448242188
-3.8719420433044434 -4.410568714141846 -2.4020309448242188
-3.6895751953125 -4.564220428466797 -2.4020309448242188
-3.501117467880249 -4.710335731506348 -2.4020309448242188
-3.306880474090576 -4.84867000579834 -2.4020309448242188
-4.711423397064209 -2.8600335121154785 -2.4020309448242188
-4.652347087860107 -2.955160140991211 -2.4020309448242188
-4.591350555419922 -3.0490670204162598 -2.4020309448242188
-4.5284600257873535 -3.1417126655578613 -2.4020309448242188
-4.463701248168945 -3.2330636978149414 -2.4020309448242188
-4.397098064422607 -3.3230786323547363 -2.4020309448242188
-4.258475303649902 -3.49895977973938 -2.4020309448242188
-4.186511039733887 -3.5847527980804443 -2.4020309448242188
-4.037429332733154 -3.751864433288574 -2.4020309448242188
-3.960374593734741 -3.833109140396118 -2.4020309448242188
-3.8816795349121094 -3.9127790927886963 -2.4020309448242188
-3.801393985748291 -3.9908294677734375 -2.4020309448242188
-3.7195348739624023 -4.067233085632324 -2.4020309448242188
-3.6360363960266113 -4.141930103302002 -2.4020309448242188
-3.5512382984161377 -4.2149763107299805 -2.4020309448242188
-3.2878923416137695 -4.423469066619873 -2.4020309448242188
-3.105487108230591 -4.553379535675049 -2.4020309448242188
-4.435912609100342 -2.6927874088287354 -2.4020309448242188
-4.380293369293213 -2.7823517322540283 -2.4020309448242188
-4.322864055633545 -2.870767116546631 -2.4020309448242188
-4.263650417327881 -2.9579946994781494 -2.4020309448242188
-4.202676296234131 -3.04400372505188 -2.4020309448242188
-4.139969348907471 -3.128754138946533 -2.4020309448242188
-4.075555324554443 -3.212214946746826 -2.4020309448242188
-4.009453773498535 -3.2943506240844727 -2.4020309448242188
-3.654696464538574 -3.6839725971221924 -2.4020309448242188
-3.502047538757324 -3.829399824142456 -2.4020309448242188
-3.2623443603515625 -4.035632133483887 -2.4020309448242188
-3.179600238800049 -4.101051330566406 -2.4020309448242188
-3.010380268096924 -4.226826190948486 -2.4020309448242188
-2.923887252807617 -4.287111759185791 -2.4020309448242188
-4.236738681793213 -2.455498218536377 -2.4020309448242188
-4.185972690582275 -2.5410618782043457 -2.4020309448242188
-3.965877056121826 -2.8724899291992188 -2.4020309448242188
-3.9067046642303467 -2.952465534210205 -2.4020309448242188
-3.8459155559539795 -3.031221628189087 -2.4020309448242188
-3.783538818359375 -3.1087310314178467 -2.4020309448242188
-3.5186901092529297 -3.4056155681610107 -2.4020309448242188
-3.4487736225128174 -3.4763991832733154 -2.4020309448242188
-3.377439498901367 -3.5457448959350586 -2.4020309448242188
-3.304703950881958 -3.6136271953582764 -2.4020309448242188
-3.2306084632873535 -3.6800191402435303 -2.4020309448242188
-2.840759754180908 -3.98866605758667 -2.4020309448242188
-4.0059733390808105 -2.3217568397521973 -2.4020309448242188
-3.8571085929870605 -2.561464548110962 -2.4020309448242188
-3.804274320602417 -2.639293670654297 -2.4020309448242188
-3.693918466567993 -2.791656017303467 -2.4020309448242188
-3.6364452838897705 -2.8661224842071533 -2.4020309448242188
-3.193479537963867 -3.3526203632354736 -2.4020309448242188
-2.910775661468506 -3.600801706314087 -2.4020309448242188
-2.6860363483428955 -3.7714202404022217 -2.4020309448242188
-2.6088647842407227 -3.825209379196167 -2.4020309448242188
-3.7019500732421875 -2.3514699935913086 -2.4020309448242188
-3.6534299850463867 -2.4261929988861084 -2.4020309448242188
-3.55184006690979 -2.5726025104522705 -2.4020309448242188
-3.4444048404693604 -2.7147624492645264 -2.4020309448242188
-3.3312761783599854 -2.852447032928467 -2.4020309448242188
-3.2126519680023193 -2.9854207038879395 -2.4020309448242188
-3.024832010269165 -3.1755692958831787 -2.4020309448242188
-2.959696054458618 -3.2363646030426025 -2.4020309448242188
-2.8257787227630615 -3.35392689704895 -2.4020309448242188
-2.6162304878234863 -3.5198276042938232 -2.4020309448242188
-2.5441832542419434 -3.5722496509552 -2.4020309448242188
-2.4710888862609863 -3.623199939727783 -2.4020309448242188
-3.5995781421661377 -2.0862205028533936 -2.4020309448242188
-3.556450128555298 -2.1589152812957764 -2.4020309448242188
-3.511855363845825 -2.230722665786743 -2.4020309448242188
-3.319179058074951 -2.5084497928619385 -2.4020309448242188
-3.267535924911499 -2.575361490249634 -2.4020309448242188
-3.2145397663116455 -2.64121413230896 -2.4020309448242188
-3.1602165699005127 -2.7059762477874756 -2.4020309448242188
-3.047682523727417 -2.832119941711426 -2.4020309448242188
-2.989518880844116 -2.8934504985809326 -2.4020309448242188
-2.8695080280303955 -3.0125060081481934 -2.4020309448242188
-2.8077189922332764 -3.070178985595703 -2.4020309448242188
-2.744765520095825 -3.126587390899658 -2.4020309448242188
-2.6806774139404297 -3.1817052364349365 -2.4020309448242188
-2.5492138862609863 -3.287975311279297 -2.4020309448242188
-2.4818921089172363 -3.3390867710113525 -2.4020309448242188
-2.3441967964172363 -3.4371495246887207 -2.4020309448242188
