ply
format ascii 1.0
element vertex 234
property float x
property float y
property float z
end_header
2.4991295337677 -44.282875061035156 -2.249347686767578
6.068454265594482 -44.00212478637695 -2.252657413482666
6.957170486450195 -43.886962890625 -2.2534878253936768
8.706278800964355 -43.495849609375 -2.2496156692504883
10.230795860290527 -46.24555587768555 -2.4020156860351562
12.087328910827637 -45.795379638671875 -2.4020156860351562
13.00841236114502 -45.542362213134766 -2.4020156860351562
14.834335327148438 -44.980682373046875 -2.4020156860351562
18.410831451416016 -43.63898468017578 -2.4020156860351562
1.1103038787841797 -30.651506423950195 -2.248908042907715
1.7287060022354126 -30.631460189819336 -2.249537706375122
2.346747875213623 -30.598913192749023 -2.250166416168213
3.5807385444641113 -30.49635124206543 -2.2514190673828125
4.810262203216553 -30.34392547607422 -2.252664089202881
5.42271089553833 -30.24905776977539 -2.2532827854156494
6.033286094665527 -30.141780853271484 -2.253898859024048
7.837690353393555 -29.694730758666992 -2.251845359802246
6.290706634521484 -22.023677825927734 -1.679405927658081
10.2603759765625 -31.111515045166016 -2.4020156860351562
0.37544921040534973 -23.405502319335938 -2.2473349571228027
0.8475622534751892 -23.398160934448242 -2.247814416885376
1.3195360898971558 -23.381277084350586 -2.2482919692993164
1.7911731004714966 -23.354848861694336 -2.248767137527466
2.262272834777832 -23.31887435913086 -2.2492401599884033
2.7326512336730957 -23.273372650146484 -2.2497100830078125
4.13749885559082 -23.079824447631836 -2.251102924346924
4.603032112121582 -22.99637222290039 -2.2515604496002197
5.528857231140137 -22.80122184753418 -2.252464771270752
7.346817493438721 -22.27701759338379 -2.252011299133301
7.791543006896973 -22.115741729736328 -2.2511372566223145
8.232697486877441 -21.945419311523438 -2.2502455711364746
8.67116641998291 -21.768829345703125 -2.2496156692504883
9.725448608398438 -23.052135467529297 -2.4020156860351562
1.4481334686279297 -18.881996154785156 -2.2495017051696777
2.209136962890625 -18.814727783203125 -2.2502777576446533
2.5885729789733887 -18.769615173339844 -2.25066876411438
3.7207419872283936 -18.58850860595703 -2.251851797103882
4.468883991241455 -18.429853439331055 -2.2526471614837646
4.840495586395264 -18.3392333984375 -2.2530462741851807
5.578074932098389 -18.13556480407715 -2.253847122192383
5.941608905792236 -18.016143798828125 -2.253441333770752
6.301971435546875 -17.887678146362305 -2.252814531326294
6.659459114074707 -17.751726150512695 -2.2521514892578125
0.25462523102760315 -15.873353004455566 -2.2493748664855957
0.5747668147087097 -15.867239952087402 -2.2496936321258545
1.5338268280029297 -15.810253143310547 -2.250662088394165
2.170766592025757 -15.740118026733398 -2.2513163089752197
2.8045494556427 -15.644366264343262 -2.251976728439331
3.11993408203125 -15.586922645568848 -2.2523086071014404
3.434145450592041 -15.523128509521484 -2.2526416778564453
5.285353660583496 -15.002100944519043 -2.2536981105804443
5.585527420043945 -14.88901424407959 -2.25317645072937
0.21906737983226776 -13.656896591186523 -2.2501158714294434
0.7697948813438416 -13.640290260314941 -2.2506661415100098
1.0448485612869263 -13.623674392700195 -2.250943899154663
1.3195507526397705 -13.601516723632812 -2.25122332572937
2.1403868198394775 -13.50191879272461 -2.252070188522339
2.683795213699341 -13.408016204833984 -2.2526402473449707
3.4909656047821045 -13.226261138916016 -2.253502130508423
3.757469415664673 -13.154850006103516 -2.2537906169891357
4.285983562469482 -12.99596118927002 -2.254369020462036
4.547138690948486 -12.906723022460938 -2.2543399333953857
4.805542945861816 -12.809854507446289 -2.253892660140991
5.06141471862793 -12.706607818603516 -2.2532310485839844
5.313467979431152 -12.594449043273926 -2.251889944076538
0.1918359398841858 -11.971583366394043 -2.2504777908325195
0.6746374368667603 -11.957013130187988 -2.251025676727295
1.397393822669983 -11.904790878295898 -2.2530059814453125
1.6383581161499023 -11.880722045898438 -2.2542471885681152
1.8778893947601318 -11.846040725708008 -2.2543959617614746
3.0601561069488525 -11.594047546386719 -2.2538576126098633
3.5247302055358887 -11.459688186645508 -2.2535574436187744
3.754838705062866 -11.385425567626953 -2.2533891201019287
4.429012298583984 -11.118969917297363 -2.249630928039551
4.652341365814209 -11.027395248413086 -2.249630928039551
0.60009765625 -10.633309364318848 -2.251244306564331
1.028377652168274 -10.60023021697998 -2.2511956691741943
1.2419201135635376 -10.577144622802734 -2.251154899597168
1.4549413919448853 -10.549705505371094 -2.251102924346924
1.8790661096572876 -10.481816291809082 -2.2509665489196777
2.0899877548217773 -10.441398620605469 -2.2508819103240967
2.300036668777466 -10.396684646606445 -2.250786542892456
3.129686117172241 -10.175311088562012 -2.2502968311309814
3.536977529525757 -10.03945255279541 -2.249988317489624
3.7384350299835205 -9.965327262878418 -2.2498180866241455
3.938326358795166 -9.887116432189941 -2.2496376037597656
4.13690185546875 -9.805654525756836 -2.249630928039551
0.15555419027805328 -9.697388648986816 -2.279402494430542
1.5369921922683716 -9.695612907409668 -2.3071460723876953
2.349841356277466 -9.690845489501953 -2.3435723781585693
2.557387590408325 -9.689203262329102 -2.355170726776123
2.767040967941284 -9.687373161315918 -2.3678109645843506
3.1934313774108887 -9.683130264282227 -2.396324634552002
3.5898351669311523 -9.5692138671875 -2.4020309448242188
3.7820873260498047 -9.49487018585205 -2.4020309448242188
0.3358715772628784 -9.271117210388184 -2.4020309448242188
0.522674560546875 -9.262457847595215 -2.4020309448242188
0.709503173828125 -9.250033378601074 -2.4020309448242188
1.2674474716186523 -9.190205574035645 -2.4020309448242188
1.4525244235992432 -9.162775993347168 -2.4020309448242188
1.8208361864089966 -9.096749305725098 -2.4020309448242188
2.0039172172546387 -9.058178901672363 -2.4020309448242188
2.367560863494873 -8.970003128051758 -2.4020309448242188
2.727353572845459 -8.867234230041504 -2.4020309448242188
2.9056150913238525 -8.810429573059082 -2.4020309448242188
3.4330456256866455 -8.618613243103027 -2.4020309448242188
3.606154680252075 -8.547629356384277 -2.4020309448242188
0.13608886301517487 -8.48386001586914 -2.4020309448242188
0.3071545362472534 -8.479398727416992 -2.4020309448242188
0.4780920445919037 -8.47147274017334 -2.4020309448242188
0.6488391160964966 -8.460112571716309 -2.4020309448242188
1.159213900566101 -8.405399322509766 -2.4020309448242188
1.328485131263733 -8.3803071975708 -2.4020309448242188
1.4972203969955444 -8.351819038391113 -2.4020309448242188
1.66534423828125 -8.31991958618164 -2.4020309448242188
1.8327953815460205 -8.284649848937988 -2.4020309448242188
2.657493829727173 -8.05805492401123 -2.4020309448242188
2.8194580078125 -8.002824783325195 -2.4020309448242188
2.980273485183716 -7.944338321685791 -2.4020309448242188
3.139878988265991 -7.882619380950928 -2.4020309448242188
0.28269895911216736 -7.804370403289795 -2.4020309448242188
0.440032958984375 -7.797082901000977 -2.4020309448242188
0.5971838235855103 -7.786621570587158 -2.4020309448242188
0.7540929913520813 -7.772995948791504 -2.4020309448242188
0.9106969833374023 -7.756206035614014 -2.4020309448242188
1.0669299364089966 -7.73626708984375 -2.4020309448242188
1.2227270603179932 -7.713173866271973 -2.4020309448242188
1.3780285120010376 -7.686946868896484 -2.4020309448242188
1.532769799232483 -7.6575927734375 -2.4020309448242188
1.6868871450424194 -7.625126361846924 -2.4020309448242188
1.8403197526931763 -7.589554309844971 -2.4020309448242188
1.9929991960525513 -7.55089807510376 -2.4020309448242188
2.889918088912964 -7.255101203918457 -2.4020309448242188
0.11589965224266052 -7.225275039672852 -2.4020309448242188
0.4071667492389679 -7.214725971221924 -2.4020309448242188
0.5525829792022705 -7.205046653747559 -2.4020309448242188
0.8426769971847534 -7.1769022941589355 -2.4020309448242188
0.9872424006462097 -7.158449649810791 -2.4020309448242188
1.131404995918274 -7.137084007263184 -2.4020309448242188
1.2751049995422363 -7.1128153800964355 -2.4020309448242188
1.4182897806167603 -7.0856547355651855 -2.4020309448242188
1.5608972311019897 -7.055612087249756 -2.4020309448242188
1.7028673887252808 -7.0226969718933105 -2.4020309448242188
1.9846739768981934 -6.94831657409668 -2.4020309448242188
2.124394416809082 -6.906879901885986 -2.4020309448242188
2.263252019882202 -6.862632751464844 -2.4020309448242188
2.4011876583099365 -6.8155951499938965 -2.4020309448242188
2.5381457805633545 -6.765786170959473 -2.4020309448242188
2.6740758419036865 -6.713222980499268 -2.4020309448242188
2.8089098930358887 -6.657930374145508 -2.4020309448242188
0.24315063655376434 -6.712549686431885 -2.4020309448242188
0.5136401057243347 -6.6972856521606445 -2.4020309448242188
0.7832909822463989 -6.671123027801514 -2.4020309448242188
1.051669955253601 -6.6341118812561035 -2.4020309448242188
1.185244083404541 -6.611553192138672 -2.4020309448242188
1.318337321281433 -6.586306571960449 -2.4020309448242188
1.582861304283142 -6.5277862548828125 -2.4020309448242188
1.8448070287704468 -6.45864725112915 -2.4020309448242188
0.4793151617050171 -6.24970006942749 -2.4020309448242188
0.6052502393722534 -6.238760471343994 -2.4020309448242188
0.7309435606002808 -6.225287437438965 -2.4020309448242188
0.9813854694366455 -6.19074821472168 -2.4020309448242188
1.1060339212417603 -6.169697284698486 -2.4020309448242188
1.2302318811416626 -6.146137714385986 -2.4020309448242188
1.3539305925369263 -6.120078086853027 -2.4020309448242188
1.477077603340149 -6.091529369354248 -2.4020309448242188
1.5996227264404297 -6.060503005981445 -2.4020309448242188
1.7215173244476318 -6.027009963989258 -2.4020309448242188
2.082803964614868 -5.911886692047119 -2.4020309448242188
2.3195080757141113 -5.823090076446533 -2.4020309448242188
2.436467170715332 -5.77512788772583 -2.4020309448242188
0.09412963688373566 -5.868236541748047 -2.4020309448242188
0.8018212914466858 -5.813961505889893 -2.4020309448242188
1.035620093345642 -5.77689790725708 -2.4020309448242188
1.267733097076416 -5.730437278747559 -2.4020309448242188
1.611916422843933 -5.643295764923096 -2.4020309448242188
2.0614354610443115 -5.495047569274902 -2.4020309448242188
2.281346321105957 -5.407449722290039 -2.4020309448242188
0.08840332180261612 -5.5108513832092285 -2.4020309448242188
0.31055784225463867 -5.502804279327393 -2.4020309448242188
0.42146971821784973 -5.495423316955566 -2.4020309448242188
0.5322058200836182 -5.485805511474609 -2.4020309448242188
0.6427270174026489 -5.473956108093262 -2.4020309448242188
0.7529882788658142 -5.45988130569458 -2.4020309448242188
0.8629382252693176 -5.443586826324463 -2.4020309448242188
1.1905261278152466 -5.38144588470459 -2.4020309448242188
1.5137487649917603 -5.299610614776611 -2.4020309448242188
1.7262243032455444 -5.234257698059082 -2.4020309448242188
1.935891032218933 -5.160390377044678 -2.4020309448242188
2.039565324783325 -5.12030029296875 -2.4020309448242188
2.142409563064575 -5.078128337860107 -2.4020309448242188
0.08322998136281967 -5.188594341278076 -2.4020309448242188
0.8124816417694092 -5.125262260437012 -2.4020309448242188
1.120906949043274 -5.0667572021484375 -2.4020309448242188
1.6252782344818115 -4.92817497253418 -2.4020309448242188
1.8226854801177979 -4.858626842498779 -2.4020309448242188
0.17726196348667145 -4.893664360046387 -2.4020309448242188
0.2759167551994324 -4.889094829559326 -2.4020309448242188
0.374457985162735 -4.882535457611084 -2.4020309448242188
0.6690087914466858 -4.850958347320557 -2.4020309448242188
0.9611095786094666 -4.801629066467285 -2.4020309448242188
1.2496923208236694 -4.734726905822754 -2.4020309448242188
1.7199853658676147 -4.58486795425415 -2.4020309448242188
1.8120970726013184 -4.54925012588501 -2.4020309448242188
0.07426024973392487 -4.629562854766846 -2.4020309448242188
0.16760985553264618 -4.6271257400512695 -2.4020309448242188
0.3540637195110321 -4.616602897644043 -2.4020309448242188
0.44709348678588867 -4.608523368835449 -2.4020309448242188
0.5399401783943176 -4.598569869995117 -2.4020309448242188
0.6325708031654358 -4.586745738983154 -2.4020309448242188
0.8170190453529358 -4.557506084442139 -2.4020309448242188
0.9087621569633484 -4.540102958679199 -2.4020309448242188
1.091103434562683 -4.499763488769531 -2.4020309448242188
1.1816234588623047 -4.476845741271973 -2.4020309448242188
1.3611962795257568 -4.425553321838379 -2.4020309448242188
1.4501683712005615 -4.397202491760254 -2.4020309448242188
1.7997972965240479 -4.266040325164795 -2.4020309448242188
0.1587573140859604 -4.382767677307129 -2.4020309448242188
0.5114282369613647 -4.355719089508057 -2.4020309448242188
0.5991650223731995 -4.344519138336182 -2.4020309448242188
0.8607690334320068 -4.300339698791504 -2.4020309448242188
0.9473193287849426 -4.282104969024658 -2.4020309448242188
1.0334826707839966 -4.262130260467529 -2.4020309448242188
1.1192247867584229 -4.240422248840332 -2.4020309448242188
1.5404150485992432 -4.1062140464782715 -2.4020309448242188
0.06672851741313934 -4.1599040031433105 -2.4020309448242188
0.23442381620407104 -4.153829097747803 -2.4020309448242188
0.4017382860183716 -4.140999794006348 -2.4020309448242188
0.6513988971710205 -4.109128952026367 -2.4020309448242188
0.7341344952583313 -4.095156192779541 -2.4020309448242188
0.8986743092536926 -4.062222957611084 -2.4020309448242188
1.1426622867584229 -4.0004472732543945 -2.4020309448242188
1.3030493259429932 -3.951115608215332 -2.4020309448242188
1.3824682235717773 -3.9240353107452393 -2.4020309448242188
