ply
format ascii 1.0
element vertex 293
property float x
property float y
property float z
end_header
-40.722782135009766 13.263747215270996 7.551795959472656
-40.722774505615234 13.263747215270996 5.577148914337158
-37.96488571166992 13.199878692626953 3.4025464057922363
-40.7227783203125 13.263747215270996 2.655802011489868
-40.52666473388672 13.199872970581055 1.680633306503296
-43.69078826904297 15.190695762634277 0.7813563346862793
-43.69078826904297 15.190693855285645 -0.26042693853378296
-41.57537841796875 12.639421463012695 -2.2037482261657715
-32.84151840209961 8.583919525146484 -1.7214874029159546
-38.81739044189453 8.524539947509766 -2.015498399734497
-43.51646423339844 8.65985107421875 -2.250180244445801
-45.85169982910156 6.331376075744629 -2.3473997116088867
-47.21999740600586 3.6904962062835693 -2.4020309448242188
-47.28364944458008 2.75775146484375 -2.4020309448242188
-47.32887649536133 1.8238908052444458 -2.4020309448242188
-47.35564422607422 0.8893778920173645 -2.4020309448242188
-47.35385513305664 -0.9804429411888123 -2.4020309448242188
-47.212825775146484 -3.781339645385742 -2.4020309448242188
-47.12898254394531 -4.712516784667969 -2.4020309448242188
-47.02678680419922 -5.641838073730469 -2.4020309448242188
-29.15532112121582 9.496133804321289 -2.2482643127441406
-29.548784255981445 8.349701881408691 -2.2514171600341797
-29.68808937072754 7.759693622589111 -2.2499213218688965
-29.96757698059082 6.581075191497803 -2.2496511936187744
-32.357269287109375 5.12079381942749 -2.4020309448242188
-32.45204544067383 4.481101989746094 -2.4020309448242188
-32.603599548339844 3.196755886077881 -2.4020309448242188
-32.73318099975586 -1.324501633644104 -2.4020309448242188
-32.597412109375 -3.259477376937866 -2.4020309448242188
-32.5267219543457 -3.9022536277770996 -2.4020309448242188
-22.141063690185547 7.698150634765625 -2.250467300415039
-22.28190803527832 7.257404804229736 -2.249784231185913
-22.419950485229492 6.815943241119385 -2.249699592590332
-22.54945182800293 6.3718767166137695 -2.249630928039551
-24.437509536743164 5.366628170013428 -2.4020309448242188
-24.71231460571289 3.9109203815460205 -2.4020309448242188
-24.784671783447266 3.4223620891571045 -2.4020309448242188
-24.84737777709961 2.932490825653076 -2.4020309448242188
-24.90040397644043 2.4414572715759277 -2.4020309448242188
-24.943857192993164 1.9495048522949219 -2.4020309448242188
-25.00128936767578 0.9634632468223572 -2.4020309448242188
-25.01983070373535 -0.024069517850875854 -2.4020309448242188
-25.014482498168945 -0.517914891242981 -2.4020309448242188
-24.9993839263916 -1.0115644931793213 -2.4020309448242188
-24.94001007080078 -1.9974792003631592 -2.4020309448242188
-24.84170913696289 -2.9802775382995605 -2.4020309448242188
-18.056257247924805 6.277917861938477 -2.270771026611328
-19.347225189208984 5.881786823272705 -2.4020309448242188
-19.459535598754883 5.498747825622559 -2.4020309448242188
-20.03144645690918 2.7660186290740967 -2.4020309448242188
-20.160037994384766 1.5756205320358276 -2.4020309448242188
-20.206520080566406 0.7786851525306702 -2.4020309448242188
-20.21795082092285 0.37970077991485596 -2.4020309448242188
-20.221500396728516 -0.019446104764938354 -2.4020309448242188
-20.15696907043457 -1.6143989562988281 -2.4020309448242188
-20.12117576599121 -2.0119545459747314 -2.4020309448242188
-16.01255989074707 5.5673508644104 -2.4020309448242188
-16.11933135986328 5.25020170211792 -2.4020309448242188
-16.219816207885742 4.931021690368652 -2.4020309448242188
-16.401798248291016 4.287003040313721 -2.4020309448242188
-16.626771926879883 3.308756113052368 -2.4020309448242188
-16.793455123901367 2.318904161453247 -2.4020309448242188
-16.835954666137695 1.9869810342788696 -2.4020309448242188
-16.92404556274414 0.9870661497116089 -2.4020309448242188
-16.940227508544922 0.6528162956237793 -2.4020309448242188
-16.949810028076172 0.31832778453826904 -2.4020309448242188
-16.952800750732422 -0.016311034560203552 -2.4020309448242188
-16.938940048217773 -0.685409665107727 -2.4020309448242188
-16.83209991455078 -2.0193588733673096 -2.4020309448242188
-13.863957405090332 4.51560640335083 -2.4020309448242188
-13.950383186340332 4.241086483001709 -2.4020309448242188
-14.106903076171875 3.6871776580810547 -2.4020309448242188
-14.176936149597168 3.4080052375793457 -2.4020309448242188
-14.353785514831543 2.5629796981811523 -2.4020309448242188
-14.44375991821289 1.9944490194320679 -2.4020309448242188
-14.480321884155273 1.7089643478393555 -2.4020309448242188
-14.556078910827637 0.8489612936973572 -2.4020309448242188
-14.569994926452637 0.5614808797836304 -2.4020309448242188
-14.578238487243652 0.27378737926483154 -2.4020309448242188
-14.580802917480469 -0.014027251861989498 -2.4020309448242188
-14.577685356140137 -0.30182477831840515 -2.4020309448242188
-14.554410934448242 -0.8769636154174805 -2.4020309448242188
-12.070650100708008 4.196802139282227 -2.4020309448242188
-12.151132583618164 3.9577250480651855 -2.4020309448242188
-12.226886749267578 3.717122793197632 -2.4020309448242188
-12.297868728637695 3.475051164627075 -2.4020309448242188
-12.425451278686523 2.9869635105133057 -2.4020309448242188
-12.481926918029785 2.7411155700683594 -2.4020309448242188
-12.580458641052246 2.2463371753692627 -2.4020309448242188
-12.659318923950195 1.748045802116394 -2.4020309448242188
-12.718437194824219 1.2470334768295288 -2.4020309448242188
-12.740568161010742 0.9957459568977356 -2.4020309448242188
-12.769947052001953 0.4921107292175293 -2.4020309448242188
-12.77717399597168 0.23996199667453766 -2.4020309448242188
-12.779400825500488 -0.012291107326745987 -2.4020309448242188
-12.77669620513916 -0.2645382583141327 -2.4020309448242188
-12.7562837600708 -0.7686187624931335 -2.4020309448242188
-12.71601676940918 -1.2714985609054565 -2.4020309448242188
-12.68844985961914 -1.5222402811050415 -2.4020309448242188
-10.733322143554688 3.73183274269104 -2.4020309448242188
-10.8722505569458 3.3052966594696045 -2.4020309448242188
-10.935373306274414 3.0900468826293945 -2.4020309448242188
-11.099072456359863 2.4374263286590576 -2.4020309448242188
-11.186646461486816 1.9974610805511475 -2.4020309448242188
-11.256762504577637 1.5543769598007202 -2.4020309448242188
-11.355147361755371 0.4375874102115631 -2.4020309448242188
-11.36156940460205 0.21337631344795227 -2.4020309448242188
-11.363571166992188 -0.010932006873190403 -2.4020309448242188
-9.653564453125 3.356412887573242 -2.4020309448242188
-9.778511047363281 2.9727869033813477 -2.4020309448242188
-9.835288047790527 2.7791905403137207 -2.4020309448242188
-9.888216972351074 2.584524393081665 -2.4020309448242188
-9.982526779174805 2.1922245025634766 -2.4020309448242188
-10.023858070373535 1.9947642087936401 -2.4020309448242188
-10.061285972595215 1.7965186834335327 -2.4020309448242188
-10.094775199890137 1.5975761413574219 -2.4020309448242188
-10.171631813049316 0.9973188638687134 -2.4020309448242188
-10.189337730407715 0.7963529825210571 -2.4020309448242188
-10.212822914123535 0.3935682475566864 -2.4020309448242188
-10.218610763549805 0.1919105499982834 -2.4020309448242188
-10.22037124633789 -0.00982742290943861 -2.4020309448242188
-10.212051391601562 -0.4132157862186432 -2.4020309448242188
-10.147643089294434 -1.2174195051193237 -2.4020309448242188
-8.762663841247559 3.0466601848602295 -2.4020309448242188
-8.821087837219238 2.873102903366089 -2.4020309448242188
-9.020228385925293 2.1683802604675293 -2.4020309448242188
-9.132750511169434 1.6307233572006226 -2.4020309448242188
-9.189992904663086 1.2689893245697021 -2.4020309448242188
-9.2132568359375 1.0873496532440186 -2.4020309448242188
-9.232919692993164 0.9052821397781372 -2.4020309448242188
-9.249003410339355 0.7228565812110901 -2.4020309448242188
-9.27520751953125 -0.1920396387577057 -2.4020309448242188
-9.260397911071777 -0.5579771399497986 -2.4020309448242188
-9.24758243560791 -0.7406510710716248 -2.4020309448242188
-8.014365196228027 2.786487340927124 -2.4020309448242188
-8.06779670715332 2.6277496814727783 -2.4020309448242188
-8.287466049194336 1.8199784755706787 -2.4020309448242188
-8.321773529052734 1.6560472249984741 -2.4020309448242188
-8.380660057067871 1.3263059854507446 -2.4020309448242188
-8.405207633972168 1.1606229543685913 -2.4020309448242188
-8.426478385925293 0.9944944381713867 -2.4020309448242188
-8.483466148376465 0.15932418406009674 -2.4020309448242188
-8.484947204589844 -0.008162536658346653 -2.4020309448242188
-8.442855834960938 -0.8442171812057495 -2.4020309448242188
-8.424542427062988 -1.0106977224349976 -2.4020309448242188
-7.3763580322265625 2.5646612644195557 -2.4020309448242188
-7.42554235458374 2.4185612201690674 -2.4020309448242188
-7.471831321716309 2.2715275287628174 -2.4020309448242188
-7.515207767486572 2.1235992908477783 -2.4020309448242188
-7.555678367614746 1.974854588508606 -2.4020309448242188
-7.593174934387207 1.8253294229507446 -2.4020309448242188
-7.627724647521973 1.6750950813293457 -2.4020309448242188
-7.659302234649658 1.524214267730713 -2.4020309448242188
-7.687895774841309 1.372733235359192 -2.4020309448242188
-7.713494777679443 1.2207196950912476 -2.4020309448242188
-7.736086368560791 1.0682286024093628 -2.4020309448242188
-7.796230792999268 0.45470625162124634 -2.4020309448242188
-7.809488773345947 -0.0075135803781449795 -2.4020309448242188
-7.795350074768066 -0.4697016775608063 -2.4020309448242188
-7.784562110900879 -0.6234760880470276 -2.4020309448242188
-6.825424671173096 2.37310791015625 -2.4020309448242188
-7.026047229766846 1.6889970302581787 -2.4020309448242188
-7.087226390838623 1.4103736877441406 -2.4020309448242188
-7.137348651885986 1.1295521259307861 -2.4020309448242188
-7.191713333129883 0.7051438689231873 -2.4020309448242188
-7.213940143585205 0.4207441508769989 -2.4020309448242188
-7.226199626922607 -0.006953124888241291 -2.4020309448242188
-7.220296382904053 -0.2921591103076935 -2.4020309448242188
-7.203140735626221 -0.5769093036651611 -2.4020309448242188
-7.190349578857422 -0.7189765572547913 -2.4020309448242188
-6.3443756103515625 2.2058653831481934 -2.4020309448242188
-6.42653226852417 1.9537440538406372 -2.4020309448242188
-6.463846206665039 1.826511025428772 -2.4020309448242188
-6.530900955200195 1.569968342781067 -2.4020309448242188
-6.587774276733398 1.3109785318374634 -2.4020309448242188
-6.634388446807861 1.0499446392059326 -2.4020309448242188
-6.653817653656006 0.9187846183776855 -2.4020309448242188
-6.6706719398498535 0.787269115447998 -2.4020309448242188
-6.684876441955566 0.6554511785507202 -2.4020309448242188
-6.696531295776367 0.5233711004257202 -2.4020309448242188
-6.715773582458496 0.12612533569335938 -2.4020309448242188
-6.71146297454834 -0.27156996726989746 -2.4020309448242188
-6.683627128601074 -0.668308675289154 -2.4020309448242188
-6.669128894805908 -0.8000999093055725 -2.4020309448242188
-5.920411109924316 2.058448553085327 -2.4020309448242188
-5.959887504577637 1.9411860704421997 -2.4020309448242188
-6.031862735748291 1.7044438123703003 -2.4020309448242188
-6.064329624176025 1.5850574970245361 -2.4020309448242188
-6.122163772583008 1.3444651365280151 -2.4020309448242188
-6.191003322601318 0.9797755479812622 -2.4020309448242188
-6.224850177764893 0.7346577048301697 -2.4020309448242188
-6.248997688293457 0.4883936941623688 -2.4020309448242188
-6.266951084136963 0.1176963746547699 -2.4020309448242188
-6.2680511474609375 -0.006029968149960041 -2.4020309448242188
-6.266711711883545 -0.12974976003170013 -2.4020309448242188
-6.256705284118652 -0.3769921660423279 -2.4020309448242188
-6.248046875 -0.5004144310951233 -2.4020309448242188
-6.236952304840088 -0.6236445307731628 -2.4020309448242188
-5.580449104309082 1.8175989389419556 -2.4020309448242188
-5.615236759185791 1.7071003913879395 -2.4020309448242188
-5.647838115692139 1.5959290266036987 -2.4020309448242188
-5.706428050994873 1.371772289276123 -2.4020309448242188
-5.796849727630615 0.917396068572998 -2.4020309448242188
-5.864642143249512 0.22600235044956207 -2.4020309448242188
-5.867959499359131 0.1102030947804451 -2.4020309448242188
-5.868992328643799 -0.00564651470631361 -2.4020309448242188
-5.864192962646484 -0.23728622496128082 -2.4020309448242188
-5.850257873535156 -0.46855512261390686 -2.4020309448242188
-5.827206134796143 -0.6990940570831299 -2.4020309448242188
-5.273260593414307 1.6031352281570435 -2.4020309448242188
-5.33242654800415 1.3937565088272095 -2.4020309448242188
-5.358897686004639 1.2882294654846191 -2.4020309448242188
-5.425745964050293 0.9688090085983276 -2.4020309448242188
-5.459754943847656 0.7539042234420776 -2.4020309448242188
-5.473574161529541 0.6459916830062866 -2.4020309448242188
-5.502216815948486 0.3209080398082733 -2.4020309448242188
-5.511563777923584 -0.0053025814704597 -2.4020309448242188
-5.510380744934082 -0.11409011483192444 -2.4020309448242188
-5.501584529876709 -0.33149322867393494 -2.4020309448242188
-5.493969440460205 -0.4400193691253662 -2.4020309448242188
-4.901454925537109 1.7041693925857544 -2.4020309448242188
-4.934137344360352 1.607089638710022 -2.4020309448242188
-4.964897155761719 1.5093885660171509 -2.4020309448242188
-4.9937238693237305 1.41109299659729 -2.4020309448242188
-5.089465618133545 1.0128123760223389 -2.4020309448242188
-5.108467102050781 0.9121562242507935 -2.4020309448242188
-5.125476360321045 0.8111472725868225 -2.4020309448242188
-5.153495788574219 0.608216404914856 -2.4020309448242188
-5.164499282836914 0.5063740611076355 -2.4020309448242188
-5.188351154327393 0.0974397286772728 -2.4020309448242188
-5.188150405883789 -0.10741836577653885 -2.4020309448242188
-5.185020446777344 -0.2098042219877243 -2.4020309448242188
-5.179868221282959 -0.31210845708847046 -2.4020309448242188
-5.172700881958008 -0.4142884612083435 -2.4020309448242188
-5.163514137268066 -0.5163096785545349 -2.4020309448242188
-5.152317523956299 -0.6181271076202393 -2.4020309448242188
-4.625283241271973 1.6081483364105225 -2.4020309448242188
-4.6851487159729 1.424342155456543 -2.4020309448242188
-4.737714767456055 1.238315224647522 -2.4020309448242188
-4.761233806610107 1.1445573568344116 -2.4020309448242188
-4.782899856567383 1.0503538846969604 -2.4020309448242188
-4.802699565887451 0.9557450413703918 -2.4020309448242188
-4.863121032714844 0.5739460587501526 -2.4020309448242188
-4.881990909576416 0.3815537989139557 -2.4020309448242188
-4.888566970825195 0.28511855006217957 -2.4020309448242188
-4.893241882324219 0.18856856226921082 -2.4020309448242188
-4.896014213562012 0.09194930642843246 -2.4020309448242188
-4.896871089935303 -0.004710845649242401 -2.4020309448242188
-4.892868995666504 -0.1979827880859375 -2.4020309448242188
-4.888009071350098 -0.2945227026939392 -2.4020309448242188
-4.88124418258667 -0.3909454345703125 -2.4020309448242188
-4.8725786209106445 -0.48721832036972046 -2.4020309448242188
-4.429968357086182 1.346764087677002 -2.4020309448242188
-4.55806827545166 0.8138782978057861 -2.4020309448242188
-4.573245525360107 0.7237522602081299 -2.4020309448242188
-4.622304439544678 0.26958969235420227 -2.4020309448242188
-4.626728534698486 0.17829909920692444 -2.4020309448242188
-4.629343032836914 0.08694198727607727 -2.4020309448242188
-4.630155563354492 -0.0044541931711137295 -2.4020309448242188
-4.629168510437012 -0.09584518522024155 -2.4020309448242188
-4.6217780113220215 -0.27848127484321594 -2.4020309448242188
-4.615381240844727 -0.3696520924568176 -2.4020309448242188
-4.607186794281006 -0.4606814384460449 -2.4020309448242188
-4.59719181060791 -0.5515279769897461 -2.4020309448242188
-4.19602108001709 1.2756409645080566 -2.4020309448242188
-4.2203898429870605 1.1925663948059082 -2.4020309448242188
-4.264163017272949 1.0250657796859741 -2.4020309448242188
-4.283565521240234 0.9406971335411072 -2.4020309448242188
-4.301298141479492 0.8559657335281372 -2.4020309448242188
-4.317357063293457 0.7708973288536072 -2.4020309448242188
-4.331730842590332 0.6855299472808838 -2.4020309448242188
-4.364712238311768 0.4279554784297943 -2.4020309448242188
-4.372307777404785 0.3417201042175293 -2.4020309448242188
-4.384868144989014 0.08235030621290207 -2.4020309448242188
-4.385639667510986 -0.0042192074470222 -2.4020309448242188
-4.384702205657959 -0.09078369289636612 -2.4020309448242188
-4.377701759338379 -0.26377472281455994 -2.4020309448242188
-4.363879680633545 -0.4363526701927185 -2.4020309448242188
-4.354416847229004 -0.5224023461341858 -2.4020309448242188
-3.955897092819214 1.2884687185287476 -2.4020309448242188
-3.980556011199951 1.2101377248764038 -2.4020309448242188
-4.025218486785889 1.0520869493484497 -2.4020309448242188
-4.045200824737549 0.9724293351173401 -2.4020309448242188
-4.109296798706055 0.6503288149833679 -2.4020309448242188
-2.2358789443969727 0.30873823165893555 -1.3031337261199951
-2.227304697036743 0.26286667585372925 -1.2948594093322754
-2.229978084564209 0.17428451776504517 -1.2914042472839355
-2.2274510860443115 0.1299125701189041 -1.2882052659988403
-2.223228693008423 0.08567489683628082 -1.2845344543457031
-2.217334032058716 0.041643522679805756 -1.2804031372070312
-2.210588216781616 -0.002126617357134819 -1.2762848138809204
-2.2298669815063477 -0.22296859323978424 -1.2938340902328491
-2.2269346714019775 -0.2671668827533722 -1.2949410676956177
