ply
format ascii 1.0
element vertex 841
property float x
property float y
property float z
end_header
43.2476806640625 -10.41726303100586 -2.2560157775878906
46.79136657714844 -7.34298038482666 -2.4020309448242188
46.929969787597656 -6.39742374420166 -2.4020309448242188
47.04949188232422 -5.449255466461182 -2.4020309448242188
47.14985656738281 -4.498871326446533 -2.4020309448242188
47.23102569580078 -3.5466549396514893 -2.4020309448242188
47.29295349121094 -2.593008279800415 -2.4020309448242188
47.335662841796875 -1.6382938623428345 -2.4020309448242188
47.34808349609375 1.228294849395752 -2.4020309448242188
47.186859130859375 4.090377330780029 -2.4020309448242188
47.095096588134766 5.0415802001953125 -2.4020309448242188
44.002601623535156 5.610667705535889 -2.249630928039551
43.908416748046875 6.50144624710083 -2.25106143951416
36.639041900634766 9.273077011108398 -1.9167150259017944
34.35434341430664 9.43630599975586 -1.8067842721939087
34.35434341430664 10.186047554016113 -1.8172253370285034
34.35435104370117 11.713388442993164 -1.840743064880371
34.354366302490234 14.903129577636719 -1.899129867553711
30.48918342590332 16.263181686401367 -1.7524590492248535
31.15748405456543 18.271224975585938 -1.8317800760269165
31.15748405456543 19.126327514648438 -1.85409414768219
31.157489776611328 20.002885818481445 -1.877732753753662
31.157493591308594 21.82669448852539 -1.9292720556259155
14.149606704711914 -29.54641342163086 -2.4020156860351562
15.911120414733887 -28.63630485534668 -2.4020156860351562
16.485647201538086 -28.309452056884766 -2.4020156860351562
18.168048858642578 -27.260297775268555 -2.4020156860351562
18.7143497467041 -26.888200759887695 -2.4020156860351562
19.2530517578125 -26.505146026611328 -2.4020156860351562
19.783870697021484 -26.11130142211914 -2.4020156860351562
21.327247619628906 -24.866641998291016 -2.4020156860351562
21.824623107910156 -24.431283950805664 -2.4020156860351562
22.313112258911133 -23.98597526550293 -2.4020156860351562
22.79249382019043 -23.530912399291992 -2.4020156860351562
23.723276138305664 -22.592119216918945 -2.4020156860351562
24.65096664428711 -19.135475158691406 -2.2881174087524414
24.655954360961914 -18.354286193847656 -2.253741979598999
25.681110382080078 -16.80292320251465 -2.250234842300415
26.658451080322266 -15.223061561584473 -2.2509000301361084
27.24125862121582 -13.439737319946289 -2.2272469997406006
27.78316879272461 -13.01681900024414 -2.2496185302734375
28.28582000732422 -11.885416984558105 -2.2496278285980225
29.82247543334961 -10.457364082336426 -2.3171844482421875
31.513622283935547 -8.95024585723877 -2.4020309448242188
31.687782287597656 -8.312614440917969 -2.4020309448242188
31.997358322143555 -7.027432918548584 -2.4020309448242188
32.13262176513672 -6.380420207977295 -2.4020309448242188
32.756561279296875 -0.4723460376262665 -2.4020309448242188
32.75942611694336 0.18863998353481293 -2.4020309448242188
32.74894332885742 0.8495671153068542 -2.4020309448242188
32.68800735473633 2.170088291168213 -2.4020309448242188
32.637577056884766 2.8291637897491455 -2.4020309448242188
32.496864318847656 4.143588542938232 -2.4020309448242188
32.40664291381836 4.798399448394775 -2.4020309448242188
32.30323791503906 5.451263427734375 -2.4020309448242188
29.78838348388672 7.539224147796631 -2.253016233444214
29.415672302246094 8.721728324890137 -2.2496285438537598
29.233583450317383 9.313395500183105 -2.2496185302734375
29.03972625732422 9.901320457458496 -2.2496185302734375
28.38753890991211 11.63992977142334 -2.249616861343384
27.894821166992188 12.775711059570312 -2.2496156692504883
27.356685638427734 13.890692710876465 -2.2496156692504883
27.070863723754883 14.439823150634766 -2.2496156692504883
26.774005889892578 14.983060836791992 -2.2496156692504883
26.466257095336914 15.520217895507812 -2.2496156692504883
26.14772605895996 16.051042556762695 -2.2496156692504883
11.259594917297363 -22.342924118041992 -2.4020156860351562
12.151835441589355 -21.87047576904297 -2.4020156860351562
13.024301528930664 -21.362417221069336 -2.4020156860351562
13.452651023864746 -21.095287322998047 -2.4020156860351562
14.29274845123291 -20.535375595092773 -2.4020156860351562
14.7041597366333 -20.24283218383789 -2.4020156860351562
15.10958480834961 -19.942045211791992 -2.4020156860351562
15.90182113647461 -19.31623077392578 -2.4020156860351562
16.668169021606445 -18.65887451171875 -2.4020156860351562
17.407367706298828 -17.971315383911133 -2.4020156860351562
17.766420364379883 -17.616432189941406 -2.4020156860351562
18.118228912353516 -17.254398345947266 -2.4020156860351562
18.46265983581543 -16.885343551635742 -2.4020156860351562
19.128854751586914 -16.12672996520996 -2.4020156860351562
19.450342178344727 -15.737497329711914 -2.4020156860351562
20.655746459960938 -14.118165969848633 -2.4020156860351562
20.936403274536133 -13.698528289794922 -2.4020156860351562
21.208566665649414 -13.273333549499512 -2.4020156860351562
21.472055435180664 -12.84272289276123 -2.4020159244537354
21.972747802734375 -11.965998649597168 -2.4020164012908936
22.437589645385742 -11.069798469543457 -2.402017831802368
23.066158294677734 -9.692152976989746 -2.402017593383789
23.25704002380371 -9.224807739257812 -2.402017593383789
23.610239028930664 -8.279017448425293 -2.40201735496521
24.200843811035156 -6.348573684692383 -2.40201735496521
24.324005126953125 -5.859002113342285 -2.40201735496521
24.540578842163086 -4.8729047775268555 -2.40201735496521
24.633901596069336 -4.3767781257629395 -2.40201735496521
24.790443420410156 -3.3793935775756836 -2.402017116546631
24.853559494018555 -2.8785274028778076 -2.402017116546631
24.906579971313477 -2.3764967918395996 -2.402017116546631
24.94948387145996 -1.8734970092773438 -2.402017116546631
25.01709747314453 -0.36074385046958923 -2.402017116546631
24.96474838256836 1.6573573350906372 -2.40201735496521
24.818761825561523 3.16457462310791 -2.40201735496521
24.670888900756836 4.163280010223389 -2.40201735496521
24.37390899658203 5.648189067840576 -2.4020166397094727
24.126123428344727 6.626860618591309 -2.4020166397094727
23.839115142822266 7.594797611236572 -2.4020161628723145
23.681026458740234 8.074234008789062 -2.4020159244537354
23.51333236694336 8.55038070678711 -2.4020156860351562
23.336008071899414 9.023036003112793 -2.4020156860351562
23.149240493774414 9.492034912109375 -2.4020156860351562
22.95299530029297 9.957144737243652 -2.4020156860351562
22.74742317199707 10.41822338104248 -2.4020156860351562
22.07550811767578 11.775256156921387 -2.4020156860351562
21.582469940185547 12.65628719329834 -2.4020156860351562
21.05429458618164 13.516706466674805 -2.4020156860351562
8.18117904663086 -17.083480834960938 -2.2499725818634033
8.52285385131836 -16.912288665771484 -2.249619960784912
10.175976753234863 -17.474376678466797 -2.4020156860351562
11.551671981811523 -16.597087860107422 -2.4020156860351562
12.21185302734375 -16.11754035949707 -2.4020156860351562
12.534558296203613 -15.867873191833496 -2.4020156860351562
12.852155685424805 -15.61174488067627 -2.4020156860351562
13.16452407836914 -15.349261283874512 -2.4020156860351562
14.068964958190918 -14.524760246276855 -2.4020156860351562
14.359142303466797 -14.237940788269043 -2.4020156860351562
14.921828269958496 -13.647053718566895 -2.4020156860351562
15.194193840026855 -13.343210220336914 -2.4020156860351562
15.460309982299805 -13.03393268585205 -2.4020159244537354
16.460853576660156 -11.745076179504395 -2.4020180702209473
16.694387435913086 -11.4105806350708 -2.4020192623138428
16.921266555786133 -11.071434020996094 -2.40201997756958
17.35415267944336 -10.379753112792969 -2.40201997756958
17.7587890625 -9.671161651611328 -2.402019739151001
17.950298309326172 -9.310887336730957 -2.402019500732422
18.134498596191406 -8.946826934814453 -2.402019500732422
18.796777725219727 -7.455663681030273 -2.402019500732422
18.943370819091797 -7.07490873336792 -2.4020192623138428
19.082258224487305 -6.69126558303833 -2.4020192623138428
19.336673736572266 -5.9159698486328125 -2.4020190238952637
19.452098846435547 -5.524630069732666 -2.4020190238952637
19.559600830078125 -5.131044387817383 -2.4020190238952637
19.65914535522461 -4.7353620529174805 -2.4020190238952637
19.90960121154785 -3.537400484085083 -2.4020190238952637
20.036108016967773 -2.7312893867492676 -2.4020190238952637
20.20931625366211 -0.6994468569755554 -2.4020190238952637
20.22108268737793 0.11644027382135391 -2.4020190238952637
20.21461296081543 0.5244038105010986 -2.4020190238952637
20.199920654296875 0.932142436504364 -2.402019500732422
20.10652732849121 2.152432441711426 -2.4020187854766846
20.05901336669922 2.557673454284668 -2.4020187854766846
19.939489364624023 3.3648455142974854 -2.4020187854766846
19.867544174194336 3.766463041305542 -2.4020187854766846
19.69941520690918 4.564932346343994 -2.4020190238952637
19.267257690429688 6.13826847076416 -2.4020190238952637
19.13949203491211 6.525759696960449 -2.4020190238952637
18.86062240600586 7.292596340179443 -2.4020180702209473
18.709646224975586 7.671642780303955 -2.402017831802368
18.384912490844727 8.420214653015137 -2.402017593383789
18.21129035949707 8.789430618286133 -2.40201735496521
18.03023910522461 9.155075073242188 -2.40201735496521
17.44336700439453 10.229056358337402 -2.4020156860351562
17.233434677124023 10.578909873962402 -2.4020156860351562
17.016483306884766 10.92445182800293 -2.4020156860351562
16.79261016845703 11.265559196472168 -2.4020156860351562
6.86228609085083 -14.329437255859375 -2.251138687133789
8.265002250671387 -13.55625057220459 -2.2496156692504883
8.536833763122559 -13.386734008789062 -2.2496156692504883
10.50838851928711 -13.30290412902832 -2.4020156860351562
10.774599075317383 -13.088178634643555 -2.4020156860351562
11.036540031433105 -12.868124961853027 -2.4020159244537354
11.293928146362305 -12.642827987670898 -2.4020161628723145
11.547480583190918 -12.412397384643555 -2.4020166397094727
11.794795036315918 -12.17690658569336 -2.40201735496521
12.276569366455078 -11.691154479980469 -2.4020190238952637
12.509845733642578 -11.441094398498535 -2.4020204544067383
12.961247444152832 -10.927081108093262 -2.402021646499634
13.179079055786133 -10.663345336914062 -2.4020214080810547
13.391535758972168 -10.39527702331543 -2.4020214080810547
13.800016403198242 -9.846550941467285 -2.4020211696624756
14.186027526855469 -9.281791687011719 -2.4020211696624756
14.548942565917969 -8.701915740966797 -2.4020209312438965
14.721545219421387 -8.406600952148438 -2.4020209312438965
14.888163566589355 -8.107864379882812 -2.4020209312438965
15.048717498779297 -7.805826187133789 -2.4020209312438965
15.351381301879883 -7.192349910736084 -2.4020206928253174
15.881269454956055 -5.931282997131348 -2.4020204544067383
16.10762596130371 -5.2857465744018555 -2.4020204544067383
16.210996627807617 -4.959682941436768 -2.4020204544067383
16.307764053344727 -4.631599426269531 -2.4020204544067383
16.558082580566406 -3.6365771293640137 -2.4020204544067383
16.628082275390625 -3.3017594814300537 -2.4020204544067383
16.691314697265625 -2.96559739112854 -2.4020204544067383
16.747753143310547 -2.628232002258301 -2.4020204544067383
16.7977294921875 -2.2894458770751953 -2.4020209312438965
16.876079559326172 -1.6102547645568848 -2.4020204544067383
16.92730140686035 -0.9280996322631836 -2.4020204544067383
16.94257926940918 -0.5863842368125916 -2.4020204544067383
16.950963973999023 -0.24443084001541138 -2.4020204544067383
16.95244598388672 0.09761794656515121 -2.4020204544067383
16.816572189331055 2.1442372798919678 -2.4020204544067383
16.716373443603516 2.8209362030029297 -2.4020204544067383
16.656057357788086 3.1576335430145264 -2.4020204544067383
16.588958740234375 3.4930408000946045 -2.4020204544067383
16.515104293823242 3.8270347118377686 -2.4020204544067383
16.34726333618164 4.490197658538818 -2.4020206928253174
16.045690536499023 5.470901966094971 -2.4020209312438965
15.932045936584473 5.79352331161499 -2.4020209312438965
15.685341835021973 6.431562900543213 -2.4020209312438965
15.413097381591797 7.059135437011719 -2.4020209312438965
15.115744590759277 7.675206184387207 -2.4020192623138428
14.623737335205078 8.57558536529541 -2.4020190238952637
14.078161239624023 9.444536209106445 -2.4020166397094727
13.884743690490723 9.726646423339844 -2.4020159244537354
5.898169994354248 -12.316225051879883 -2.249627113342285
6.145479679107666 -12.194693565368652 -2.249626636505127
6.390246391296387 -12.068239212036133 -2.2496261596679688
6.632437705993652 -11.936847686767578 -2.2496256828308105
7.342409610748291 -11.51374626159668 -2.249624252319336
7.612558364868164 -11.422286033630371 -2.261310338973999
8.569159507751465 -11.796929359436035 -2.4020187854766846
8.80538558959961 -11.621638298034668 -2.402019739151001
9.26727294921875 -11.256949424743652 -2.402022123336792
9.713735580444336 -10.873906135559082 -2.4020228385925293
9.931144714355469 -10.675708770751953 -2.40202260017395
10.144515991210938 -10.47317123413086 -2.40202260017395
10.759509086608887 -9.840295791625977 -2.402022361755371
10.955859184265137 -9.621203422546387 -2.402022361755371
11.147750854492188 -9.39819622039795 -2.402022123336792
11.335104942321777 -9.171359062194824 -2.402022123336792
11.517834663391113 -8.940800666809082 -2.402022123336792
11.869162559509277 -8.468850135803223 -2.402022123336792
12.037610054016113 -8.227654457092285 -2.402021884918213
12.35973834991455 -7.735317230224609 -2.402021884918213
12.513290405273438 -7.484369277954102 -2.402021646499634
12.661752700805664 -7.230376243591309 -2.402021646499634
12.805055618286133 -6.973437786102295 -2.402021646499634
12.943146705627441 -6.71366024017334 -2.402021646499634
13.075963973999023 -6.451154708862305 -2.402021646499634
13.20346450805664 -6.186018466949463 -2.402021646499634
13.9428071975708 -4.265736103057861 -2.402022123336792
14.103551864624023 -3.6997625827789307 -2.402022123336792
14.175321578979492 -3.414459228515625 -2.402021884918213
14.2413330078125 -3.127756357192993 -2.402021884918213
14.447138786315918 -1.969412088394165 -2.402021646499634
14.483930587768555 -1.677523136138916 -2.402021646499634
14.5148286819458 -1.3849526643753052 -2.402021646499634
14.539813995361328 -1.0918208360671997 -2.402021646499634
14.579237937927246 -0.21023009717464447 -2.402021646499634
14.580510139465332 0.08395980298519135 -2.402021646499634
14.575846672058105 0.37812238931655884 -2.402021646499634
14.565251350402832 0.6721253991127014 -2.402021646499634
14.548725128173828 0.9658604264259338 -2.402021646499634
14.526278495788574 1.2591980695724487 -2.402021646499634
14.204364776611328 3.2915666103363037 -2.402021646499634
13.979226112365723 4.144832611083984 -2.402021884918213
13.892753601074219 4.426028728485107 -2.402021884918213
13.80062484741211 4.705431938171387 -2.402021884918213
13.702880859375 4.982912540435791 -2.402021884918213
13.49069595336914 5.531679630279541 -2.402022123336792
13.256545066833496 6.071442127227783 -2.402022123336792
12.864973068237305 6.862282752990723 -2.402022361755371
12.72390365600586 7.120449066162109 -2.402022361755371
12.426261901855469 7.627979755401611 -2.4020204544067383
5.38623046875 -10.688136100769043 -2.249630928039551
5.600777626037598 -10.577287673950195 -2.249630928039551
5.813041687011719 -10.462141036987305 -2.249630928039551
6.265364646911621 -10.276440620422363 -2.262255907058716
7.510500431060791 -10.339523315429688 -2.402027130126953
7.921513557434082 -10.02808666229248 -2.4020252227783203
8.513659477233887 -9.530496597290039 -2.402024984359741
8.891218185424805 -9.179265975952148 -2.402024745941162
9.770509719848633 -8.237095832824707 -2.402024269104004
10.402790069580078 -7.422569274902344 -2.402024030685425
10.9673433303833 -6.5597147941589355 -2.4020237922668457
11.097457885742188 -6.337101936340332 -2.4020235538482666
11.344091415405273 -5.884222984313965 -2.4020233154296875
11.572250366210938 -5.42176628112793 -2.4020233154296875
11.679282188415527 -5.1871819496154785 -2.4020233154296875
11.781559944152832 -4.950483798980713 -2.4020233154296875
11.879042625427246 -4.711772441864014 -2.4020230770111084
11.971689224243164 -4.47114372253418 -2.4020230770111084
12.059462547302246 -4.228693008422852 -2.4020230770111084
12.14232349395752 -3.9845211505889893 -2.4020228385925293
12.220246315002441 -3.738724946975708 -2.4020228385925293
12.293188095092773 -3.4914121627807617 -2.4020228385925293
12.534655570983887 -2.4889469146728516 -2.4020228385925293
12.582319259643555 -2.235538959503174 -2.40202260017395
12.624862670898438 -1.9812257289886475 -2.40202260017395
12.66226577758789 -1.7261011600494385 -2.40202260017395
12.6945161819458 -1.47027587890625 -2.40202260017395
12.721596717834473 -1.2138482332229614 -2.40202260017395
12.74349594116211 -0.9569324851036072 -2.40202260017395
12.771728515625 -0.44202911853790283 -2.40202260017395
12.73162841796875 1.1036301851272583 -2.40202260017395
12.601210594177246 2.126490354537964 -2.40202260017395
12.505158424377441 2.6331377029418945 -2.40202260017395
12.449491500854492 2.884910821914673 -2.40202260017395
12.388747215270996 3.1355040073394775 -2.40202260017395
11.919401168823242 4.608723163604736 -2.4020228385925293
11.723764419555664 5.085840225219727 -2.4020228385925293
11.618766784667969 5.321347713470459 -2.4020228385925293
11.509037971496582 5.55468225479126 -2.4020230770111084
11.275575637817383 6.014484882354736 -2.4020230770111084
11.023737907409668 6.464489459991455 -2.4020233154296875
10.753962516784668 6.903968334197998 -2.4020233154296875
10.612483024597168 7.119534015655518 -2.4020233154296875
10.46664810180664 7.332197189331055 -2.40202260017395
4.924973011016846 -9.772845268249512 -2.3132717609405518
5.504374980926514 -9.906599044799805 -2.3955867290496826
5.7184739112854 -9.819869041442871 -2.4020309448242188
5.915439128875732 -9.702492713928223 -2.4020309448242188
6.109991550445557 -9.581167221069336 -2.4020309448242188
6.30205774307251 -9.455941200256348 -2.4020309448242188
7.570426940917969 -8.474605560302734 -2.402026653289795
7.739865779876709 -8.320137977600098 -2.4020254611968994
7.906152248382568 -8.162294387817383 -2.4020252227783203
8.069231033325195 -8.001105308532715 -2.402024984359741
8.538471221923828 -7.4983086585998535 -2.402024984359741
8.688024520874023 -7.32450008392334 -2.402024745941162
8.976447105407715 -6.968029499053955 -2.402024745941162
9.115204811096191 -6.7855048179626465 -2.402024745941162
9.250253677368164 -6.600215435028076 -2.402024507522583
9.381537437438965 -6.412238597869873 -2.402024507522583
9.63259220123291 -6.0285325050354 -2.402024269104004
9.752264976501465 -5.832956790924072 -2.402024269104004
9.867965698242188 -5.63500452041626 -2.402024269104004
10.087270736694336 -5.232302665710449 -2.402024030685425
10.385324478149414 -4.612487316131592 -2.4020237922668457
10.476269721984863 -4.402015686035156 -2.4020237922668457
10.56295394897461 -4.189750671386719 -2.4020237922668457
10.723383903503418 -3.76019287109375 -2.4020237922668457
10.797064781188965 -3.5430729389190674 -2.4020237922668457
10.931215286254883 -3.10459566116333 -2.4020235538482666
11.047565460205078 -2.6610629558563232 -2.4020235538482666
11.145930290222168 -2.213193655014038 -2.4020233154296875
11.188312530517578 -1.9878618717193604 -2.4020233154296875
11.259404182434082 -1.5348632335662842 -2.4020233154296875
11.31215763092041 -1.0793654918670654 -2.4020233154296875
11.331635475158691 -0.8509092330932617 -2.4020233154296875
11.3464937210083 -0.6221140623092651 -2.4020233154296875
11.35971450805664 0.2946900725364685 -2.4020233154296875
11.351454734802246 0.5238218307495117 -2.4020233154296875
11.338576316833496 0.7527452111244202 -2.4020233154296875
11.321084022521973 0.9813587665557861 -2.4020233154296875
11.298978805541992 1.2095715999603271 -2.4020233154296875
11.240981101989746 1.6644331216812134 -2.4020233154296875
11.164679527282715 2.116586208343506 -2.4020233154296875
11.070197105407715 2.565289258956909 -2.4020233154296875
10.957687377929688 3.009812593460083 -2.4020233154296875
10.755541801452637 3.6671879291534424 -2.4020233154296875
10.679365158081055 3.883441686630249 -2.4020235538482666
10.598837852478027 4.098116874694824 -2.4020235538482666
10.513996124267578 4.311124324798584 -2.4020235538482666
10.424880027770996 4.522375583648682 -2.4020235538482666
10.331510543823242 4.731790065765381 -2.4020237922668457
10.1322021484375 5.144750118255615 -2.4020237922668457
9.916394233703613 5.549332618713379 -2.4020237922668457
9.802409172058105 5.748281955718994 -2.4020237922668457
9.562521934509277 6.139070510864258 -2.402024030685425
9.436713218688965 6.330756187438965 -2.402024030685425
6.006569862365723 -8.269092559814453 -2.4020309448242188
6.172187328338623 -8.146220207214355 -2.4020309448242188
6.335286617279053 -8.02003002166748 -2.4020309448242188
6.495808124542236 -7.8905768394470215 -2.4020309448242188
6.653685092926025 -7.757909774780273 -2.4020304679870605
6.808858394622803 -7.6220831871032715 -2.4020302295684814
6.961252212524414 -7.483152389526367 -2.4020297527313232
7.945339202880859 -6.42867374420166 -2.4020252227783203
8.073427200317383 -6.2670578956604 -2.402024984359741
8.198226928710938 -6.102896213531494 -2.402024984359741
8.319689750671387 -5.936243057250977 -2.402024984359741
8.437763214111328 -5.767179489135742 -2.402024984359741
8.552404403686523 -5.595767021179199 -2.402024745941162
8.771198272705078 -5.246169090270996 -2.402024745941162
9.25497055053711 -4.336091995239258 -2.402024507522583
9.34057331085205 -4.1484808921813965 -2.402024507522583
9.50033187866211 -3.7682693004608154 -2.402024269104004
9.57442855834961 -3.57582950592041 -2.402024269104004
9.644623756408691 -3.3819193840026855 -2.402024269104004
9.710893630981445 -3.1866424083709717 -2.402024269104004
9.885881423950195 -2.593353271484375 -2.402024030685425
9.936193466186523 -2.393364667892456 -2.402024030685425
9.982460975646973 -2.192403554916382 -2.402024030685425
10.096803665161133 -1.584497094154358 -2.402024030685425
10.174169540405273 -0.970783531665802 -2.4020237922668457
10.19168472290039 -0.7653106451034546 -2.4020237922668457
10.214262008666992 -0.3535171449184418 -2.4020237922668457
10.209511756896973 0.47112715244293213 -2.4020237922668457
10.197929382324219 0.6770182847976685 -2.4020237922668457
10.162311553955078 1.0878901481628418 -2.4020237922668457
10.110151290893555 1.4969931840896606 -2.4020237922668457
10.041522979736328 1.903659462928772 -2.4020237922668457
10.001073837280273 2.1058664321899414 -2.4020237922668457
9.956547737121582 2.3072240352630615 -2.4020237922668457
9.907971382141113 2.5076353549957275 -2.4020237922668457
9.855359077453613 2.7070300579071045 -2.402024030685425
9.798734664916992 2.905320405960083 -2.402024030685425
9.67354679107666 3.2982733249664307 -2.402024030685425
9.605031967163086 3.4927709102630615 -2.402024030685425
9.532607078552246 3.6858508586883545 -2.402024269104004
9.456300735473633 3.8774309158325195 -2.402024269104004
9.376150131225586 4.067429542541504 -2.402024269104004
9.2921724319458 4.255777359008789 -2.402024269104004
9.204416275024414 4.44238805770874 -2.402024269104004
9.017702102661133 4.810117721557617 -2.402024269104004
8.918815612792969 4.991077899932861 -2.402024269104004
8.48739242553711 5.693887710571289 -2.402024745941162
4.175010681152344 -8.28466510772705 -2.4020309448242188
4.505849361419678 -8.109481811523438 -2.4020309448242188
4.668548583984375 -8.016918182373047 -2.4020309448242188
4.829349040985107 -7.921091079711914 -2.4020309448242188
4.988184928894043 -7.822052955627441 -2.4020309448242188
5.1449875831604 -7.719810485839844 -2.4020309448242188
5.299693584442139 -7.614436626434326 -2.4020309448242188
5.452242374420166 -7.505937099456787 -2.4020309448242188
5.750621318817139 -7.279881477355957 -2.4020309448242188
6.039634704589844 -7.0419535636901855 -2.4020309448242188
6.180487155914307 -6.918630599975586 -2.4020309448242188
6.318824291229248 -6.792559623718262 -2.4020309448242188
6.587713241577148 -6.532153606414795 -2.4020307064056396
6.718164920806885 -6.397860050201416 -2.4020304679870605
6.845877647399902 -6.26098108291626 -2.4020302295684814
6.97080659866333 -6.121614456176758 -2.4020297527313232
7.092894077301025 -5.9797186851501465 -2.402029275894165
7.441646575927734 -5.539690017700195 -2.4020276069641113
7.551891803741455 -5.388391494750977 -2.402026891708374
7.659071922302246 -5.2349090576171875 -2.4020261764526367
7.763127326965332 -5.079339504241943 -2.4020252227783203
7.864027976989746 -4.921684265136719 -2.4020252227783203
7.96172571182251 -4.762017726898193 -2.402024984359741
8.056183815002441 -4.600411891937256 -2.402024984359741
8.14736270904541 -4.43693208694458 -2.402024984359741
8.319731712341309 -4.104621887207031 -2.402024984359741
8.400854110717773 -3.935925006866455 -2.402024984359741
8.552809715270996 -3.593797445297241 -2.402024745941162
8.623576164245605 -3.4205098152160645 -2.402024745941162
8.754546165466309 -3.069812297821045 -2.402024745941162
8.814702033996582 -2.892559766769409 -2.402024745941162
8.871269226074219 -2.7141311168670654 -2.402024745941162
8.92422103881836 -2.5345940589904785 -2.402024745941162
8.973540306091309 -2.3540117740631104 -2.402024507522583
9.019208908081055 -2.172483205795288 -2.402024507522583
9.061203002929688 -1.9900649785995483 -2.402024507522583
9.134113311767578 -1.622880220413208 -2.402024507522583
9.164997100830078 -1.43826162815094 -2.402024507522583
9.215566635131836 -1.067345142364502 -2.402024269104004
9.235219955444336 -0.8811861872673035 -2.402024269104004
9.251128196716309 -0.6946834921836853 -2.402024269104004
9.271613121032715 -0.32088592648506165 -2.402024269104004
9.276203155517578 -0.13375656306743622 -2.402024269104004
9.267304420471191 0.4276466369628906 -2.402024269104004
9.147831916809082 1.5437220335006714 -2.402024269104004
9.078100204467773 1.9115222692489624 -2.402024269104004
9.037690162658691 2.09429669380188 -2.402024269104004
8.94583511352539 2.4572041034698486 -2.402024507522583
8.89443588256836 2.6371965408325195 -2.402024507522583
8.780800819396973 2.993884801864624 -2.402024507522583
8.652868270874023 3.345698833465576 -2.402024507522583
8.583610534667969 3.5195939540863037 -2.402024745941162
8.434626579284668 3.8630261421203613 -2.402024745941162
8.354968070983887 4.032413005828857 -2.402024745941162
8.18548583984375 4.366205215454102 -2.402024745941162
8.09572696685791 4.530464172363281 -2.402024745941162
8.002665519714355 4.6928911209106445 -2.402024745941162
7.806826114654541 5.011929035186768 -2.402024984359741
7.704118251800537 5.168418884277344 -2.4020256996154785
7.598273754119873 5.322800636291504 -2.402026414871216
4.269870281219482 -7.332299709320068 -2.4020309448242188
4.416939735412598 -7.244657516479492 -2.4020309448242188
4.562210559844971 -7.154067039489746 -2.4020309448242188
4.847121238708496 -6.964190483093262 -2.4020309448242188
5.523871898651123 -6.440561294555664 -2.4020309448242188
5.652701377868652 -6.327837944030762 -2.4020309448242188
5.779221057891846 -6.212501049041748 -2.4020309448242188
6.025151252746582 -5.9742608070373535 -2.4020309448242188
6.261267185211182 -5.726294040679932 -2.4020309448242188
6.487196922302246 -5.46907377243042 -2.4020309448242188
6.806164264678955 -5.066611289978027 -2.4020302295684814
6.906993389129639 -4.928242206573486 -2.4020299911499023
7.100192546844482 -4.645554542541504 -2.402029275894165
7.368229866027832 -4.20755672454834 -2.4020280838012695
7.45161247253418 -4.0580644607543945 -2.4020276069641113
7.531980037689209 -3.9068715572357178 -2.402027130126953
7.609267234802246 -3.7540998458862305 -2.402026414871216
7.683452129364014 -3.5999975204467773 -2.4020259380340576
7.754523754119873 -3.4440717697143555 -2.4020254611968994
7.822431564331055 -3.2869067192077637 -2.402024984359741
7.887150764465332 -3.1284050941467285 -2.402024984359741
8.061955451965332 -2.645548105239868 -2.402024984359741
8.162128448486328 -2.3181424140930176 -2.402024984359741
8.3224458694458 -1.6525440216064453 -2.402024745941162
8.44656753540039 -0.8059385418891907 -2.402024745941162
8.484794616699219 0.048860929906368256 -2.402024745941162
8.453227043151855 0.7327579855918884 -2.402024745941162
8.366642951965332 1.4118974208831787 -2.402024745941162
8.336444854736328 1.580413579940796 -2.402024745941162
8.225581169128418 2.0818369388580322 -2.402024745941162
8.181901931762695 2.2473700046539307 -2.402024745941162
8.13488483428955 2.4119913578033447 -2.402024745941162
8.030949592590332 2.7382164001464844 -2.402024984359741
7.850600242614746 3.2190349102020264 -2.402024984359741
7.784049987792969 3.376768112182617 -2.402024984359741
7.486484050750732 3.993353843688965 -2.402027130126953
7.231190204620361 4.438935279846191 -2.402028799057007
7.140158653259277 4.583931922912598 -2.402029037475586
7.046221733093262 4.727057933807373 -2.402029514312744
6.949416160583496 4.868259906768799 -2.4020297527313232
3.514498233795166 -6.9739813804626465 -2.4020309448242188
3.6544909477233887 -6.901651859283447 -2.4020309448242188
3.792996644973755 -6.826514720916748 -2.4020309448242188
4.331019401550293 -6.498490333557129 -2.4020309448242188
4.589663982391357 -6.318481922149658 -2.4020309448242188
4.840838432312012 -6.128165245056152 -2.4020309448242188
4.963496208190918 -6.029225826263428 -2.4020309448242188
5.084130764007568 -5.927875995635986 -2.4020309448242188
5.202701091766357 -5.82408332824707 -2.4020309448242188
5.545501708984375 -5.49868631362915 -2.4020309448242188
5.655313491821289 -5.385722637176514 -2.4020309448242188
5.762820720672607 -5.270539283752441 -2.4020309448242188
5.970762729644775 -5.033687591552734 -2.4020309448242188
6.168979167938232 -4.788725852966309 -2.4020309448242188
6.264340877532959 -4.663208961486816 -2.4020309448242188
6.357150554656982 -4.535938739776611 -2.4020309448242188
6.44737434387207 -4.406748294830322 -2.4020309448242188
6.534970760345459 -4.2757792472839355 -2.4020307064056396
6.619909286499023 -4.143130779266357 -2.4020307064056396
6.781664848327637 -3.8726108074188232 -2.4020302295684814
6.858417987823486 -3.73496150970459 -2.4020302295684814
6.932378768920898 -3.5958476066589355 -2.4020299911499023
7.003515243530273 -3.455315113067627 -2.4020297527313232
7.071804046630859 -3.3132264614105225 -2.402029275894165
7.137214183807373 -3.1698739528656006 -2.402029275894165
7.315903186798096 -2.7321786880493164 -2.4020283222198486
7.369537353515625 -2.584184169769287 -2.4020280838012695
7.553879261016846 -1.9805949926376343 -2.402026891708374
7.627677917480469 -1.6752325296401978 -2.402026414871216
7.689052581787109 -1.3663302659988403 -2.4020259380340576
7.737905025482178 -1.054819941520691 -2.4020254611968994
7.757612228393555 -0.8984843492507935 -2.4020254611968994
7.774162292480469 -0.7417829632759094 -2.4020252227783203
7.809340476989746 0.04497116059064865 -2.402024984359741
7.806845664978027 0.20252364873886108 -2.402024984359741
7.801167011260986 0.3597828447818756 -2.402024984359741
7.780292987823486 0.6744288206100464 -2.402024984359741
7.7651047706604 0.831265389919281 -2.4020252227783203
7.746750354766846 0.9877680540084839 -2.4020254611968994
7.725246429443359 1.1438639163970947 -2.4020254611968994
7.700592994689941 1.2994972467422485 -2.4020256996154785
7.672807216644287 1.454516053199768 -2.4020259380340576
7.64190149307251 1.6091104745864868 -2.4020261764526367
7.607880592346191 1.7629691362380981 -2.402026414871216
7.570764064788818 1.9161067008972168 -2.402026653289795
7.530563831329346 2.0684638023376465 -2.402027130126953
7.440982341766357 2.3705902099609375 -2.4020276069641113
7.391641616821289 2.520238161087036 -2.4020278453826904
7.28394889831543 2.816392183303833 -2.4020285606384277
7.100235462188721 3.251878023147583 -2.402029275894165
6.890508651733398 3.6754539012908936 -2.4020299911499023
6.814950942993164 3.813727855682373 -2.4020302295684814
6.73661470413208 3.950453996658325 -2.4020304679870605
6.655540466308594 4.085567474365234 -2.4020304679870605
6.396194934844971 4.480712413787842 -2.4020309448242188
3.5097033977508545 -6.316646575927734 -2.4020309448242188
3.761683225631714 -6.169907569885254 -2.4020309448242188
3.885401487350464 -6.0927557945251465 -2.4020309448242188
4.007540225982666 -6.013124465942383 -2.4020309448242188
4.128044128417969 -5.931042194366455 -2.4020309448242188
4.246866226196289 -5.8465495109558105 -2.4020309448242188
4.592776775360107 -5.5789337158203125 -2.4020309448242188
4.704402923583984 -5.485136985778809 -2.4020309448242188
5.232919692993164 -4.98335599899292 -2.4020309448242188
5.429710388183594 -4.768251895904541 -2.4020309448242188
5.617660999298096 -4.545316219329834 -2.4020309448242188
5.708223819732666 -4.4310688972473145 -2.4020309448242188
5.882342338562012 -4.197183609008789 -2.4020309448242188
6.125473499298096 -3.833599090576172 -2.4020309448242188
6.201573371887207 -3.709232807159424 -2.4020309448242188
6.275151252746582 -3.5833091735839844 -2.4020309448242188
6.34617280960083 -3.455975294113159 -2.4020309448242188
6.414609432220459 -3.3272271156311035 -2.4020309448242188
6.480434417724609 -3.1971547603607178 -2.4020309448242188
6.604145526885986 -2.933115243911743 -2.4020307064056396
6.661979675292969 -2.7992424964904785 -2.4020304679870605
6.865976333618164 -2.2530810832977295 -2.4020302295684814
6.910036563873291 -2.1140944957733154 -2.4020299911499023
6.951281547546387 -1.9743425846099854 -2.4020297527313232
7.025269508361816 -1.6922003030776978 -2.4020297527313232
7.057981014251709 -1.5501128435134888 -2.402029514312744
7.087819576263428 -1.407394528388977 -2.402029275894165
7.114772796630859 -1.2641034126281738 -2.402029275894165
7.138827800750732 -1.1202996969223022 -2.402029275894165
7.159977912902832 -0.976037859916687 -2.402029037475586
7.178212642669678 -0.8313776850700378 -2.402029037475586
7.193527698516846 -0.6865025162696838 -2.402028799057007
7.21536111831665 -0.395730584859848 -2.402028799057007
7.225447654724121 -0.10429839789867401 -2.402028799057007
7.22376823425293 0.187305748462677 -2.402028799057007
7.210325717926025 0.4784788489341736 -2.402028799057007
7.19920015335083 0.6240568161010742 -2.402028799057007
7.185144901275635 0.7690043449401855 -2.402028799057007
7.168161392211914 0.9139942526817322 -2.402029037475586
7.148262977600098 1.0584321022033691 -2.402029037475586
7.125451564788818 1.202440619468689 -2.402029275894165
7.099740028381348 1.345960259437561 -2.402029275894165
7.071141242980957 1.4889289140701294 -2.402029275894165
7.039660453796387 1.6312949657440186 -2.402029514312744
6.968118667602539 1.9139692783355713 -2.4020297527313232
6.928084373474121 2.054173707962036 -2.4020299911499023
6.885230541229248 2.1935343742370605 -2.4020299911499023
6.739921569824219 2.605991840362549 -2.4020304679870605
6.685971736907959 2.7414934635162354 -2.4020304679870605
6.56992769241333 3.0089988708496094 -2.4020307064056396
6.443184852600098 3.2716057300567627 -2.4020309448242188
6.375865459442139 3.4009387493133545 -2.4020309448242188
6.305949687957764 3.5288853645324707 -2.4020309448242188
6.233465671539307 3.6553990840911865 -2.4020309448242188
6.158445835113525 3.7804198265075684 -2.4020309448242188
6.080916404724121 3.9039056301116943 -2.4020309448242188
6.00091552734375 4.025798797607422 -2.4020309448242188
3.0228271484375 -5.998330593109131 -2.4020309448242188
3.1432323455810547 -5.936120986938477 -2.4020309448242188
3.2623631954193115 -5.871493816375732 -2.4020309448242188
3.3801610469818115 -5.804476737976074 -2.4020309448242188
3.611586809158325 -5.663379192352295 -2.4020309448242188
3.7251157760620117 -5.589359760284424 -2.4020309448242188
3.837127685546875 -5.513064384460449 -2.4020309448242188
4.372869968414307 -5.098574638366699 -2.4020309448242188
4.474848747253418 -5.009308815002441 -2.4020309448242188
4.575004577636719 -4.918003559112549 -2.4020309448242188
4.673298358917236 -4.824699401855469 -2.4020309448242188
4.956608772277832 -4.533171653747559 -2.4020309448242188
5.047062873840332 -4.43222713470459 -2.4020309448242188
5.221767425537109 -4.224977493286133 -2.4020309448242188
5.305948257446289 -4.118765354156494 -2.4020309448242188
5.545395374298096 -3.790184259414673 -2.4020309448242188
5.620739459991455 -3.6776206493377686 -2.4020309448242188
5.764531135559082 -3.4479265213012695 -2.4020309448242188
5.832921028137207 -3.3308355808258057 -2.4020309448242188
5.898940086364746 -3.2124974727630615 -2.4020309448242188
5.96255350112915 -3.092791795730591 -2.4020309448242188
6.192490100860596 -2.601977825164795 -2.4020309448242188
6.243727684020996 -2.476498603820801 -2.4020309448242188
6.423066139221191 -1.9651086330413818 -2.4020309448242188
6.560588359832764 -1.4408724308013916 -2.4020307064056396
6.588323593139648 -1.3081780672073364 -2.4020307064056396
6.613376140594482 -1.1749627590179443 -2.4020307064056396
6.635738372802734 -1.0413389205932617 -2.4020304679870605
6.672348499298096 -0.7727898955345154 -2.4020304679870605
6.686580657958984 -0.6380100846290588 -2.4020304679870605
6.698096752166748 -0.5029142498970032 -2.4020304679870605
6.716838359832764 0.03867599368095398 -2.4020304679870605
6.714691162109375 0.17424637079238892 -2.4020304679870605
6.691854000091553 0.5800776481628418 -2.4020304679870605
6.678789138793945 0.7149735689163208 -2.4020304679870605
6.663003921508789 0.8495820164680481 -2.4020304679870605
6.644507884979248 0.9838407635688782 -2.4020304679870605
6.572820663452148 1.3840010166168213 -2.4020307064056396
6.400008201599121 2.038949966430664 -2.4020309448242188
6.357569217681885 2.167653799057007 -2.4020309448242188
6.26494026184082 2.42238450050354 -2.4020309448242188
6.214792251586914 2.548292636871338 -2.4020309448242188
6.049251556396484 2.919588565826416 -2.4020309448242188
5.989114761352539 3.0410449504852295 -2.4020309448242188
5.794174671173096 3.397792339324951 -2.4020309448242188
5.578011512756348 3.7420878410339355 -2.4020309448242188
5.501379489898682 3.8538756370544434 -2.4020309448242188
2.7072997093200684 -5.653229713439941 -2.4020309448242188
2.8208093643188477 -5.597456932067871 -2.4020309448242188
3.0443358421325684 -5.479095935821533 -2.4020309448242188
3.262906312942505 -5.351814270019531 -2.4020309448242188
3.580690860748291 -5.144623279571533 -2.4020309448242188
3.7853245735168457 -4.99597692489624 -2.4020309448242188
3.9838011264801025 -4.83919620513916 -2.4020309448242188
4.175790786743164 -4.674533367156982 -2.4020309448242188
4.269252777099609 -4.589329242706299 -2.4020309448242188
4.360977649688721 -4.502261638641357 -2.4020309448242188
4.450928688049316 -4.41335391998291 -2.4020309448242188
4.709761619567871 -4.136007785797119 -2.4020309448242188
4.792253494262695 -4.040150165557861 -2.4020309448242188
4.951347351074219 -3.8435018062591553 -2.4020309448242188
5.102375507354736 -3.640608549118042 -2.4020309448242188
5.379281997680664 -3.217388153076172 -2.4020309448242188
5.443102836608887 -3.108241558074951 -2.4020309448242188
5.504708290100098 -2.99776029586792 -2.4020309448242188
5.778639793395996 -2.428170680999756 -2.4020309448242188
5.826457500457764 -2.311039447784424 -2.4020309448242188
5.91494607925415 -2.0740983486175537 -2.4020309448242188
6.029587268829346 -1.7124766111373901 -2.4020309448242188
6.062910079956055 -1.5904744863510132 -2.4020309448242188
6.093764305114746 -1.467824935913086 -2.4020309448242188
6.171401023864746 -1.0964916944503784 -2.4020309448242188
6.192266941070557 -0.9717274308204651 -2.4020309448242188
6.239713191986084 -0.595386803150177 -2.4020309448242188
6.250457763671875 -0.4693785011768341 -2.4020309448242188
6.267399787902832 -0.09037552028894424 -2.4020309448242188
6.267949104309082 0.036092374473810196 -2.4020309448242188
6.26594352722168 0.16254958510398865 -2.4020309448242188
6.232441425323486 0.6671311855316162 -2.4020309448242188
6.217710971832275 0.7927766442298889 -2.4020309448242188
6.200450420379639 0.9180091619491577 -2.4020309448242188
6.158364295959473 1.1674946546554565 -2.4020309448242188
6.133553504943848 1.2915071249008179 -2.4020309448242188
6.10624885559082 1.4149971008300781 -2.4020309448242188
6.076456069946289 1.5379072427749634 -2.4020309448242188
6.009462833404541 1.781802773475647 -2.4020309448242188
5.932686805725098 2.022796392440796 -2.4020309448242188
5.846250057220459 2.2604939937591553 -2.4020309448242188
5.799452781677246 2.377988576889038 -2.4020309448242188
5.750295162200928 2.4944310188293457 -2.4020309448242188
5.588856220245361 2.8378100395202637 -2.4020309448242188
5.274622917175293 3.3862860202789307 -2.4020309448242188
2.953444719314575 -5.0717082023620605 -2.4020309448242188
3.0551695823669434 -5.011086463928223 -2.4020309448242188
3.3527209758758545 -4.817086219787598 -2.4020309448242188
3.544328451156616 -4.677905082702637 -2.4020309448242188
3.6379880905151367 -4.605442523956299 -2.4020309448242188
3.7301671504974365 -4.53110408782959 -2.4020309448242188
3.909935235977173 -4.376924514770508 -2.4020309448242188
3.9974474906921387 -4.297147274017334 -2.4020309448242188
4.4871506690979 -3.7829222679138184 -2.4020309448242188
4.636115550994873 -3.598818302154541 -2.4020309448242188
4.777529239654541 -3.408860921859741 -2.4020309448242188
4.845334529876709 -3.3117663860321045 -2.4020309448242188
4.974998474121094 -3.113633394241333 -2.4020309448242188
5.036805152893066 -3.012559175491333 -2.4020309448242188
5.096560955047607 -2.910320997238159 -2.4020309448242188
5.154244422912598 -2.806910276412964 -2.4020309448242188
5.209828853607178 -2.702401876449585 -2.4020309448242188
5.314611911773682 -2.4900174140930176 -2.4020309448242188
5.363765716552734 -2.3822386264801025 -2.4020309448242188
5.410739421844482 -2.2735345363616943 -2.4020309448242188
5.538366794586182 -1.9420530796051025 -2.4020309448242188
5.576422214508057 -1.8299028873443604 -2.4020309448242188
5.645706653594971 -1.6034483909606934 -2.4020309448242188
5.67690896987915 -1.48921537399292 -2.4020309448242188
5.705799579620361 -1.374374508857727 -2.4020309448242188
5.732365608215332 -1.2589141130447388 -2.4020309448242188
5.756602764129639 -1.1430530548095703 -2.4020309448242188
5.778493404388428 -1.0266590118408203 -2.4020309448242188
5.815208435058594 -0.792721688747406 -2.4020309448242188
5.830020427703857 -0.6752316355705261 -2.4020309448242188
5.842455863952637 -0.5574670433998108 -2.4020309448242188
5.860188961029053 -0.3213062882423401 -2.4020309448242188
5.868382453918457 -0.08462142944335938 -2.4020309448242188
5.867015361785889 0.1522010713815689 -2.4020309448242188
5.821855545043945 0.7423292398452759 -2.4020309448242188
5.787166595458984 0.9766004681587219 -2.4020309448242188
5.743057727813721 1.209270715713501 -2.4020309448242188
5.626866340637207 1.6683628559112549 -2.4020309448242188
5.592058181762695 1.7815486192703247 -2.4020309448242188
5.474042892456055 2.1165785789489746 -2.4020309448242188
5.430224418640137 2.2265913486480713 -2.4020309448242188
5.384196758270264 2.3356964588165283 -2.4020309448242188
5.285582065582275 2.55096173286438 -2.4020309448242188
5.233036994934082 2.6571381092071533 -2.4020309448242188
5.121575832366943 2.866095542907715 -2.4020309448242188
5.062705039978027 2.9689409732818604 -2.4020309448242188
5.001777172088623 3.070392370223999 -2.4020309448242188
4.938809871673584 3.1706879138946533 -2.4020309448242188
2.38055419921875 -4.970942497253418 -2.4020309448242188
2.480363607406616 -4.921899318695068 -2.4020309448242188
2.6769163608551025 -4.817824363708496 -2.4020309448242188
2.773574113845825 -4.762834548950195 -2.4020309448242188
3.0566234588623047 -4.58632230758667 -2.4020309448242188
3.2391650676727295 -4.459272861480713 -2.4020309448242188
3.5881335735321045 -4.183610916137695 -2.4020309448242188
3.67181396484375 -4.110362529754639 -2.4020309448242188
3.753997802734375 -4.03544282913208 -2.4020309448242188
3.9912450313568115 -3.800954580307007 -2.4020309448242188
4.06712007522583 -3.7196552753448486 -2.4020309448242188
4.550246715545654 -3.110074996948242 -2.4020309448242188
4.672014236450195 -2.923969030380249 -2.4020309448242188
4.730055809020996 -2.8291075229644775 -2.4020309448242188
4.892542839050293 -2.5377845764160156 -2.4020309448242188
5.081218242645264 -2.134977102279663 -2.4020309448242188
5.123261451721191 -2.0321197509765625 -2.4020309448242188
5.301875114440918 -1.5058120489120483 -2.4020309448242188
5.383257865905762 -1.1823006868362427 -2.4020309448242188
5.444920539855957 -0.8544741868972778 -2.4020309448242188
5.496086120605469 -0.41264358162879944 -2.4020309448242188
5.511469841003418 0.03173583745956421 -2.4020309448242188
5.505699157714844 0.25406143069267273 -2.4020309448242188
5.490967750549316 0.4760008156299591 -2.4020309448242188
5.480247497558594 0.5866682529449463 -2.4020309448242188
5.4521164894104 0.8072859048843384 -2.4020309448242188
5.415109634399414 1.0265891551971436 -2.4020309448242188
5.369283199310303 1.2442203760147095 -2.4020309448242188
5.343088150024414 1.3522965908050537 -2.4020309448242188
5.284180641174316 1.566743016242981 -2.4020309448242188
5.25149393081665 1.673090934753418 -2.4020309448242188
5.216670989990234 1.7786647081375122 -2.4020309448242188
4.914337158203125 2.495316505432129 -2.4020309448242188
4.862990379333496 2.5939598083496094 -2.4020309448242188
4.809665203094482 2.6915533542633057 -2.4020309448242188
4.754379749298096 2.788041830062866 -2.4020309448242188
4.697161674499512 2.8833978176116943 -2.4020309448242188
4.577009201049805 3.070552349090576 -2.4020309448242188
4.514127254486084 3.162271738052368 -2.4020309448242188
2.241345167160034 -4.680257320404053 -2.4020309448242188
2.335319757461548 -4.634082317352295 -2.4020309448242188
2.7013280391693115 -4.430717468261719 -2.4020309448242188
2.790173292160034 -4.3753132820129395 -2.4020309448242188
3.049746036529541 -4.198509693145752 -2.4020309448242188
3.1338353157043457 -4.136123180389404 -2.4020309448242188
3.298151731491089 -4.006326198577881 -2.4020309448242188
3.378310441970825 -3.938965320587158 -2.4020309448242188
3.534475088119507 -3.7994635105133057 -2.4020309448242188
3.684882640838623 -3.6537725925445557 -2.4020309448242188
3.757850170135498 -3.5786845684051514 -2.4020309448242188
3.829289436340332 -3.502142906188965 -2.4020309448242188
3.9674620628356934 -3.344799757003784 -2.4020309448242188
4.099174499511719 -3.182020902633667 -2.4020309448242188
4.398809909820557 -2.7529821395874023 -2.4020309448242188
4.506293773651123 -2.573279619216919 -2.4020309448242188
4.557294845581055 -2.4818320274353027 -2.4020309448242188
4.606440544128418 -2.389378547668457 -2.4020309448242188
4.653712272644043 -2.2959537506103516 -2.4020309448242188
4.699089050292969 -2.201592206954956 -2.4020309448242188
4.784084320068359 -2.010221004486084 -2.4020309448242188
4.896928787231445 -1.717123031616211 -2.4020309448242188
5.019426345825195 -1.3167388439178467 -2.4020309448242188
5.04496955871582 -1.2151986360549927 -2.4020309448242188
5.109244346618652 -0.9077754020690918 -2.4020309448242188
5.141708850860596 -0.7009100317955017 -2.4020309448242188
5.154804706573486 -0.5970277190208435 -2.4020309448242188
5.16580057144165 -0.49290236830711365 -2.4020309448242188
5.174694538116455 -0.38857635855674744 -2.4020309448242188
5.181480407714844 -0.2840934693813324 -2.4020309448242188
5.188723087310791 -0.07482101023197174 -2.4020309448242188
5.187515735626221 0.13457351922988892 -2.4020309448242188
5.183743953704834 0.23920851945877075 -2.4020309448242188
5.177862644195557 0.34374740719795227 -2.4020309448242188
5.159781455993652 0.5523619055747986 -2.4020309448242188
5.147583961486816 0.6563544869422913 -2.4020309448242188
5.133293151855469 0.7600785493850708 -2.4020309448242188
5.09844970703125 0.9665577411651611 -2.4020309448242188
5.030642032623291 1.273219108581543 -2.4020309448242188
4.975179195404053 1.4751396179199219 -2.4020309448242188
4.944407939910889 1.5753861665725708 -2.4020309448242188
4.876829624176025 1.7734088897705078 -2.4020309448242188
4.717979431152344 2.1608152389526367 -2.4020309448242188
4.673421382904053 2.255563735961914 -2.4020309448242188
