ply
format ascii 1.0
element vertex 455
property float x
property float y
property float z
end_header
32.58433151245117 15.430781364440918 6.357184886932373
31.095312118530273 15.494132041931152 6.125899314880371
31.306346893310547 16.38858413696289 6.230788230895996
31.095321655273438 18.734403610229492 6.401171684265137
32.7227783203125 20.617639541625977 6.819698810577393
32.93381881713867 21.682315826416016 6.952646255493164
32.93382263183594 23.622114181518555 7.146442890167236
32.9338264465332 25.676536560058594 7.363466739654541
32.9338264465332 26.752126693725586 7.481567859649658
32.933837890625 29.01263427734375 7.739064693450928
32.878746032714844 31.385658264160156 8.014769554138184
32.93385314941406 34.05656051635742 8.353668212890625
31.095312118530273 15.494129180908203 5.3222336769104
31.306346893310547 16.38858413696289 5.413365364074707
31.095312118530273 17.078664779663086 5.434838771820068
31.306352615356445 18.018476486206055 5.533592224121094
31.301069259643555 18.85835838317871 5.598190784454346
31.095321655273438 19.592226028442383 5.630335330963135
31.30635643005371 20.61086082458496 5.74202299118042
31.30636215209961 21.520172119140625 5.819786071777344
31.188100814819336 22.36998176574707 5.8797807693481445
31.306371688842773 24.407699584960938 6.081305980682373
31.306371688842773 25.430133819580078 6.178847312927246
31.039091110229492 26.260236740112305 6.228487968444824
31.039091110229492 27.34348487854004 6.336939334869385
32.87873840332031 31.385658264160156 6.963306903839111
32.93385314941406 34.05656433105469 7.257742881774902
32.58433151245117 15.430781364440918 4.694903373718262
31.306346893310547 16.388586044311523 4.601557731628418
31.095312118530273 17.07866668701172 4.619819164276123
31.306352615356445 18.018478393554688 4.703754901885986
31.1513671875 18.768173217773438 4.735908031463623
31.306365966796875 23.416635513305664 5.090996742248535
31.306371688842773 24.40770149230957 5.1693315505981445
31.30637550354004 27.578947067260742 5.433015823364258
31.27092742919922 28.67819595336914 5.525279521942139
31.096370697021484 29.68422508239746 5.598190784454346
31.306396484375 33.69633483886719 5.989497661590576
31.039140701293945 37.71013641357422 6.360167503356934
30.48918342590332 15.192109107971191 3.6579062938690186
30.569501876831055 16.002853393554688 3.705192804336548
30.56950569152832 18.417606353759766 3.8323447704315186
30.56951141357422 19.26093292236328 3.8798539638519287
30.56951141357422 21.013662338256836 3.9833695888519287
31.306365966796875 23.416635513305664 4.198101043701172
31.306371688842773 24.407705307006836 4.262696266174316
31.202070236206055 26.398117065429688 4.388787269592285
31.27092742919922 28.67819595336914 4.55621337890625
31.306386947631836 29.88471031188965 4.647516250610352
31.306396484375 32.37362289428711 4.835925579071045
31.306396484375 33.69635009765625 4.939018249511719
31.306400299072266 35.07729721069336 5.048664569854736
31.306406021118164 36.52157211303711 5.165403842926025
31.9412784576416 15.126251220703125 2.9917895793914795
30.48918342590332 15.192108154296875 2.8836588859558105
30.569501876831055 16.002851486206055 2.920933246612549
30.48918342590332 16.745758056640625 2.9446654319763184
30.569515228271484 21.013656616210938 3.140228748321533
30.569520950317383 22.865488052368164 3.231614351272583
30.56954002380371 29.18131446838379 3.5775632858276367
31.095359802246094 33.469200134277344 3.8673527240753174
31.30640983581543 38.03483200073242 4.170161247253418
31.941274642944336 15.126252174377441 2.191561460494995
30.569501876831055 16.002851486206055 2.139657735824585
30.56950569152832 17.594379425048828 2.187177896499634
30.56951141357422 18.417604446411133 2.213085174560547
30.56951141357422 19.26092529296875 2.2405195236206055
30.56951141357422 20.125749588012695 2.269561529159546
30.569515228271484 21.01365852355957 2.300297975540161
30.569515228271484 21.926294326782227 2.3328230381011963
30.569520950317383 22.86548614501953 2.3672397136688232
30.489208221435547 23.77060890197754 2.3973493576049805
30.489213943481445 24.766357421875 2.4357926845550537
30.569530487060547 25.86297607421875 2.4830386638641357
30.56954002380371 28.034957885742188 2.572087287902832
30.56954002380371 29.18132781982422 2.6206579208374023
30.569608688354492 38.69089889526367 3.057734966278076
30.48918342590332 15.960807800292969 1.3569867610931396
30.48918914794922 16.745758056640625 1.371616005897522
30.489192962646484 18.369218826293945 1.403555154800415
30.489192962646484 19.2103214263916 1.4209541082382202
30.489198684692383 20.958452224731445 1.4588663578033447
30.48920249938965 21.86868667602539 1.479493498802185
30.489208221435547 22.8054141998291 1.501321792602539
30.489213943481445 25.795019149780273 1.5747617483139038
30.48922348022461 29.104650497436523 1.6620408296585083
30.56954002380371 30.372333526611328 1.699185848236084
31.35405731201172 38.09273910522461 1.9454047679901123
31.941268920898438 15.126251220703125 0.5969871282577515
30.48918342590332 15.192110061645508 0.5754097104072571
30.48918914794922 16.745758056640625 0.5875840783119202
30.48918914794922 17.548154830932617 0.5942277312278748
30.48918914794922 18.369220733642578 0.6012663245201111
30.489198684692383 20.95844841003418 0.6249607801437378
30.48920249938965 21.868696212768555 0.6337977647781372
30.489208221435547 22.805416107177734 0.6431483030319214
30.489208221435547 23.770606994628906 0.6530442833900452
30.489213943481445 25.795019149780273 0.6746088862419128
30.48922348022461 27.961307525634766 0.6988041400909424
30.48922348022461 29.104660034179688 0.7119984030723572
30.489227294921875 30.29254150390625 0.7259986996650696
30.489233016967773 31.528608322143555 0.7408631443977356
31.941268920898438 15.126252174377441 -0.19898177683353424
30.48918342590332 15.192110061645508 -0.19178985059261322
31.157480239868164 17.112810134887695 -0.20014037191867828
31.15748405456543 17.93279457092285 -0.2024032473564148
31.157489776611328 19.63139533996582 -0.20733962953090668
31.157499313354492 22.348031997680664 -0.21588149666786194
31.157499313354492 23.30528450012207 -0.2190663069486618
31.157499313354492 24.29163932800293 -0.2224372774362564
30.7900333404541 27.12407684326172 -0.23102614283561707
30.50557518005371 30.308780670166016 -0.24211211502552032
30.489233016967773 31.528608322143555 -0.24693922698497772
31.35291862487793 38.09135818481445 -0.2777681052684784
30.489286422729492 38.589237213134766 -0.2768959105014801
31.941274642944336 15.126251220703125 -0.9951475262641907
30.48918342590332 15.96080493927002 -0.9690291881561279
31.15748405456543 18.77185821533203 -1.0242505073547363
31.157489776611328 20.512853622436523 -1.0503888130187988
31.157499313354492 22.348026275634766 -1.0796661376953125
31.157499313354492 23.30529022216797 -1.0955959558486938
31.157508850097656 26.36042022705078 -1.1491897106170654
31.4769287109375 30.04749870300293 -1.2253190279006958
31.35698699951172 31.154691696166992 -1.2446484565734863
30.489233016967773 31.52860450744629 -1.234987735748291
31.352924346923828 38.09136199951172 -1.3891674280166626
30.48918342590332 15.192108154296875 -1.7275564670562744
30.48918342590332 15.96080493927002 -1.7452943325042725
31.157480239868164 17.112810134887695 -1.8027743101119995
31.15748405456543 18.77185821533203 -1.8447530269622803
31.157489776611328 19.631391525268555 -1.8676214218139648
31.157493591308594 22.348026275634766 -1.9445632696151733
31.157499313354492 24.291637420654297 -2.0036141872406006
31.15750503540039 25.30921745300293 -2.0357506275177
31.157508850097656 26.36042022705078 -2.069776773452759
30.48922348022461 27.961299896240234 -2.0980286598205566
30.50557518005371 29.120262145996094 -2.1387856006622314
30.50557518005371 30.30876922607422 -2.1808385848999023
29.543691635131836 33.102291107177734 -2.250131845474243
28.873104095458984 33.68292236328125 -2.249906063079834
27.499961853027344 34.80573272705078 -2.2496156692504883
27.72909927368164 13.131518363952637 -2.2496156692504883
27.46102523803711 13.683246612548828 -2.2496156692504883
27.18198585510254 14.22951889038086 -2.2496156692504883
26.892074584960938 14.770097732543945 -2.2496156692504883
26.591413497924805 15.304780006408691 -2.2496156692504883
26.280128479003906 15.833334922790527 -2.2496156692504883
25.95833396911621 16.355571746826172 -2.2496156692504883
24.81957244873047 18.56462287902832 -2.272580146789551
24.79839515686035 20.98037338256836 -2.3817131519317627
24.581771850585938 21.654945373535156 -2.4020156860351562
24.143932342529297 22.14211082458496 -2.4020156860351562
23.239486694335938 23.08956527709961 -2.4020156860351562
22.773229598999023 23.549562454223633 -2.4020156860351562
22.29789161682129 24.000118255615234 -2.4020156860351562
21.81362533569336 24.441102981567383 -2.4020156860351562
21.32063102722168 24.872323989868164 -2.4020156860351562
20.819143295288086 25.29351043701172 -2.4020156860351562
19.791339874267578 26.105642318725586 -2.4020156860351562
18.731931686401367 26.87594985961914 -2.4020156860351562
22.1661319732666 11.603766441345215 -2.4020156860351562
21.68456268310547 12.48061466217041 -2.4020156860351562
21.430688858032227 12.911625862121582 -2.4020156860351562
21.168275833129883 13.337494850158691 -2.4020156860351562
20.897403717041016 13.758023262023926 -2.4020156860351562
20.61817741394043 14.173052787780762 -2.4020156860351562
20.330718994140625 14.58241081237793 -2.4020156860351562
20.03512954711914 14.985936164855957 -2.4020156860351562
19.420040130615234 15.77487850189209 -2.4020156860351562
18.773883819580078 16.53860855102539 -2.4020156860351562
17.748746871948242 17.63424301147461 -2.4020156860351562
17.392650604248047 17.985559463500977 -2.4020156860351562
17.029621124267578 18.329669952392578 -2.4020156860351562
16.283254623413086 18.995792388916016 -2.4020156860351562
15.510856628417969 19.63155746459961 -2.4020156860351562
15.115283012390137 19.937719345092773 -2.4020156860351562
14.71367359161377 20.235912322998047 -2.4020156860351562
14.306183815002441 20.52602767944336 -2.4020156860351562
18.27569580078125 8.654717445373535 -2.402017593383789
18.099018096923828 9.018351554870605 -2.40201735496521
17.724027633666992 9.734673500061035 -2.402017116546631
17.32069206237793 10.4354248046875 -2.4020156860351562
16.43167495727539 11.785784721374512 -2.4020156860351562
16.192773818969727 12.111926078796387 -2.4020156860351562
15.695649147033691 12.749560356140137 -2.4020156860351562
15.173418045043945 13.366826057434082 -2.4020156860351562
14.903148651123047 13.667500495910645 -2.4020156860351562
14.057060241699219 14.536273002624512 -2.4020156860351562
13.763654708862305 14.814388275146484 -2.4020156860351562
12.536171913146973 15.86660099029541 -2.4020156860351562
11.891874313354492 16.355058670043945 -2.4020156860351562
15.17340087890625 7.56058406829834 -2.4020192623138428
14.692893028259277 8.456546783447266 -2.4020190238952637
14.159650802612305 9.322108268737793 -2.40201735496521
13.97036361694336 9.603297233581543 -2.4020161628723145
13.575275421142578 10.154085159301758 -2.4020156860351562
13.369569778442383 10.423450469970703 -2.4020156860351562
12.494128227233887 11.458213806152344 -2.4020156860351562
12.026093482971191 11.948512077331543 -2.4020156860351562
11.784811973571777 12.18655014038086 -2.4020156860351562
11.288229942321777 12.647911071777344 -2.4020156860351562
10.773581504821777 13.089065551757812 -2.4020156860351562
10.241727828979492 13.509285926818848 -2.4020156860351562
9.693498611450195 13.907907485961914 -2.4020156860351562
13.177790641784668 6.240533351898193 -2.402022123336792
12.780012130737305 7.019241809844971 -2.402022361755371
12.637099266052246 7.273338317871094 -2.402021646499634
12.489171981811523 7.524519920349121 -2.4020204544067383
12.336252212524414 7.772701263427734 -2.402020215988159
11.498908042907715 8.965028762817383 -2.4020168781280518
11.317414283752441 9.193124771118164 -2.4020161628723145
11.13133716583252 9.417542457580566 -2.4020156860351562
10.343435287475586 10.276704788208008 -2.4020156860351562
10.135910034179688 10.48144245147705 -2.4020156860351562
9.924347877502441 10.681977272033691 -2.4020156860351562
8.678274154663086 10.543415069580078 -2.2496156692504883
11.5497407913208 5.469546794891357 -2.4020228385925293
11.438088417053223 5.6993560791015625 -2.4020230770111084
11.321857452392578 5.926888465881348 -2.4020230770111084
4.604446887969971 2.650103807449341 -0.9985648989677429
4.333062648773193 2.730130672454834 -0.9626281261444092
4.027230262756348 2.88857102394104 -0.9315429329872131
3.739173412322998 3.2939774990081787 -0.9366357326507568
3.6946935653686523 3.5269126892089844 -0.9600710868835449
7.606110572814941 9.240833282470703 -2.249616861343384
7.038492202758789 9.680155754089355 -2.2496161460876465
6.843584060668945 9.81892204284668 -2.2496161460876465
4.404501914978027 2.305715322494507 -1.0508782863616943
4.229793548583984 2.3231546878814697 -1.0200737714767456
4.063130855560303 2.338547706604004 -0.9909600615501404
3.928013801574707 2.3665611743927 -0.9693536162376404
3.783815860748291 2.4911131858825684 -0.9575974941253662
3.712015390396118 2.5516602993011475 -0.9521490335464478
3.6399426460266113 2.610785484313965 -0.9468632340431213
3.578420400619507 2.676597833633423 -0.9445927143096924
3.5314855575561523 2.7532873153686523 -0.9465472102165222
3.4515013694763184 2.9200994968414307 -0.9556576609611511
3.4091734886169434 3.0032665729522705 -0.9603736400604248
3.372182607650757 3.092588424682617 -0.967180609703064
3.2934887409210205 3.2722418308258057 -0.9813726544380188
6.926376819610596 8.080193519592285 -2.2496252059936523
6.597830772399902 8.35062026977539 -2.2496254444122314
6.429557800292969 8.480866432189941 -2.2496254444122314
6.25872802734375 8.607710838317871 -2.2496259212493896
4.715732097625732 2.233203172683716 -1.2263002395629883
4.504146575927734 2.2443199157714844 -1.182712197303772
4.323033332824707 2.2630677223205566 -1.14680814743042
3.8417539596557617 2.3145911693573 -1.0541088581085205
3.575650453567505 2.3540656566619873 -1.0061314105987549
3.477379083633423 2.3903696537017822 -0.991730809211731
3.2732458114624023 2.6588542461395264 -0.9911072850227356
3.1860692501068115 2.8067266941070557 -0.9979139566421509
3.1506102085113525 2.889387845993042 -1.0047035217285156
3.079841136932373 3.05997371673584 -1.020358681678772
2.9975976943969727 3.3586626052856445 -1.0580261945724487
2.994588613510132 3.493441581726074 -1.081404209136963
6.08306360244751 7.390447616577148 -2.2496304512023926
5.934100151062012 7.510585784912109 -2.2496306896209717
5.78276252746582 7.627720355987549 -2.249630928039551
5.6291184425354 7.741797924041748 -2.249630928039551
4.418978214263916 2.2018818855285645 -1.2783215045928955
4.243703365325928 2.22153902053833 -1.2402207851409912
3.90697979927063 2.2486753463745117 -1.1671717166900635
3.637697696685791 2.2920029163360596 -1.1132299900054932
3.401409864425659 2.3381476402282715 -1.0686919689178467
3.29675030708313 2.3646271228790283 -1.0504536628723145
3.16961407661438 2.471158027648926 -1.0406138896942139
3.1251256465911865 2.5385360717773438 -1.0424636602401733
3.07842755317688 2.604465961456299 -1.0440505743026733
2.8740270137786865 2.972001791000366 -1.070455551147461
2.840461254119873 3.0573034286499023 -1.080506443977356
2.8080554008483887 3.1462903022766113 -1.0918935537338257
2.7758264541625977 3.238236665725708 -1.10431969165802
5.249089241027832 6.923778533935547 -2.249630928039551
4.9681077003479 7.128072738647461 -2.249630928039551
4.336026668548584 2.1605491638183594 -1.3714417219161987
4.163265228271484 2.1794302463531494 -1.3303170204162598
3.99273419380188 2.192952871322632 -1.2895801067352295
3.5651683807373047 2.246304988861084 -1.1929032802581787
3.445082902908325 2.268104314804077 -1.167664647102356
3.2318480014801025 2.318075656890869 -1.1259236335754395
3.136253595352173 2.345864772796631 -1.1087409257888794
3.0506651401519775 2.37842059135437 -1.0950766801834106
2.9965550899505615 2.4340994358062744 -1.0929059982299805
2.9505577087402344 2.496281862258911 -1.094117522239685
2.8574254512786865 2.6205108165740967 -1.0975818634033203
2.81097412109375 2.6833226680755615 -1.100128412246704
2.771273136138916 2.7533960342407227 -1.1059173345565796
2.7350096702575684 2.8282463550567627 -1.1137924194335938
2.6987500190734863 2.9047746658325195 -1.1224547624588013
2.630406379699707 3.0685925483703613 -1.1441755294799805
2.599375009536743 3.1580376625061035 -1.1579142808914185
4.543853759765625 6.5193681716918945 -2.249630928039551
4.460164546966553 2.112175464630127 -1.5179036855697632
4.264968395233154 2.1251416206359863 -1.465641736984253
4.079370021820068 2.135511875152588 -1.4162533283233643
3.627708673477173 2.1856322288513184 -1.3026686906814575
3.2749571800231934 2.251223564147949 -1.2223432064056396
2.90777587890625 2.3619840145111084 -1.1522552967071533
2.8336377143859863 2.3973634243011475 -1.1416443586349487
2.788865804672241 2.456815004348755 -1.143170714378357
2.705491781234741 2.5826306343078613 -1.1504285335540771
2.663231134414673 2.646050453186035 -1.1547260284423828
2.616358518600464 2.7055504322052 -1.1576292514801025
2.581169366836548 2.7782182693481445 -1.166405200958252
2.435908079147339 3.08304500579834 -1.2085450887680054
2.4029541015625 3.1696019172668457 -1.223395586013794
2.3681907653808594 3.2570066452026367 -1.2386070489883423
4.406235218048096 2.0866355895996094 -1.6205906867980957
4.206851482391357 2.0961835384368896 -1.5623621940612793
3.424180746078491 2.15747332572937 -1.3453069925308228
3.0971057415008545 2.2214298248291016 -1.2669323682785034
2.848015069961548 2.3134403228759766 -1.2196704149246216
2.775184154510498 2.347909927368164 -1.2083449363708496
2.4808385372161865 2.67022705078125 -1.2115566730499268
2.4365673065185547 2.730055570602417 -1.216352939605713
2.400003671646118 2.7998082637786865 -1.2258037328720093
2.3614158630371094 2.868936061859131 -1.2351484298706055
2.3216795921325684 2.938469886779785 -1.2448488473892212
4.343909740447998 2.0571208000183105 -1.7187966108322144
4.14945650100708 2.0675852298736572 -1.657882809638977
3.805368661880493 2.0900449752807617 -1.5525720119476318
3.650362491607666 2.1009771823883057 -1.5061699151992798
3.4991674423217773 2.108187675476074 -1.4608873128890991
3.356945753097534 2.11510968208313 -1.418884038925171
3.243242025375366 2.135221242904663 -1.3885935544967651
3.1340551376342773 2.154366970062256 -1.3600175380706787
3.0361547470092773 2.177712917327881 -1.33616304397583
2.8608837127685547 2.230458974838257 -1.29726243019104
2.5786426067352295 2.364841938018799 -1.251210331916809
2.525830030441284 2.411128282546997 -1.2487282752990723
2.351969003677368 2.6352672576904297 -1.2631380558013916
2.3057055473327637 2.689800977706909 -1.266924500465393
2.222658634185791 2.813140869140625 -1.282109022140503
2.18121337890625 2.877117156982422 -1.2911301851272583
2.1377062797546387 2.9400177001953125 -1.2999154329299927
2.114133358001709 3.03328800201416 -1.322198748588562
4.109975337982178 2.047912359237671 -1.7597112655639648
3.77343487739563 2.0725061893463135 -1.649801254272461
3.3191258907318115 2.091280937194824 -1.5033706426620483
3.0729284286499023 2.11234712600708 -1.4289921522140503
2.8818724155426025 2.1555917263031006 -1.3791460990905762
2.8020715713500977 2.1846067905426025 -1.3615903854370117
2.5831456184387207 2.275588274002075 -1.319236159324646
2.404042959213257 2.3885343074798584 -1.2986809015274048
2.3619580268859863 2.442477226257324 -1.3020700216293335
2.1467418670654297 2.717057466506958 -1.3270028829574585
2.1338255405426025 2.814610481262207 -1.3535380363464355
4.307911396026611 2.0400733947753906 -1.9508291482925415
4.100193977355957 2.043039083480835 -1.8748897314071655
3.9127659797668457 2.0482962131500244 -1.8075528144836426
3.7414915561676025 2.0549614429473877 -1.7470635175704956
3.14849853515625 2.072844982147217 -1.542793869972229
3.034435987472534 2.0858876705169678 -1.5070394277572632
2.9310874938964844 2.102351427078247 -1.4762945175170898
2.8322131633758545 2.11844801902771 -1.4475411176681519
2.7467761039733887 2.141495704650879 -1.425474762916565
2.6701440811157227 2.168955087661743 -1.4079318046569824
2.527557373046875 2.2266180515289307 -1.378617525100708
2.461695432662964 2.2575912475585938 -1.367043375968933
2.403317928314209 2.294178009033203 -1.359826922416687
2.3429088592529297 2.3277931213378906 -1.3517131805419922
2.287076473236084 2.3650429248809814 -1.346517562866211
2.2588024139404297 2.4312405586242676 -1.3582203388214111
2.230699300765991 2.4993906021118164 -1.3710999488830566
2.1727659702301025 2.6397416591644287 -1.399286150932312
2.1455724239349365 2.7155773639678955 -1.4164602756500244
2.1327855587005615 2.8132379055023193 -1.4448672533035278
2.1097874641418457 3.0270519256591797 -1.510122299194336
4.384186744689941 2.0761942863464355 -2.114123582839966
4.099930286407471 2.0429065227508545 -1.9963496923446655
3.729783773422241 2.0485305786132812 -1.8545407056808472
3.5612194538116455 2.049670934677124 -1.7907476425170898
3.397564649581909 2.0469741821289062 -1.7286911010742188
2.494077205657959 2.1971242427825928 -1.44857656955719
2.4231348037719727 2.2222278118133545 -1.4328951835632324
2.303631544113159 2.288770914077759 -1.4152436256408691
2.2236876487731934 2.4915335178375244 -1.4554275274276733
2.196774959564209 2.5627245903015137 -1.4710595607757568
2.1436290740966797 2.713118314743042 -1.506953239440918
2.1279051303863525 2.80679988861084 -1.5350472927093506
2.11151123046875 2.9039909839630127 -1.5647975206375122
4.689948558807373 2.2209935188293457 -2.4020309448242188
3.559196710586548 2.0485074520111084 -1.9008890390396118
3.390751838684082 2.042870044708252 -1.832376480102539
3.1063318252563477 2.0450851917266846 -1.721513271331787
2.979811906814575 2.0483391284942627 -1.6737607717514038
2.871098518371582 2.0593245029449463 -1.635499119758606
2.779348134994507 2.0789053440093994 -1.6065915822982788
2.6968908309936523 2.1026041507720947 -1.5829154253005981
2.5384581089019775 2.1476306915283203 -1.5391243696212769
2.466484308242798 2.1728174686431885 -1.5215250253677368
2.3965795040130615 2.1978745460510254 -1.5052120685577393
2.287001848220825 2.2722480297088623 -1.4922916889190674
2.2384276390075684 2.409310817718506 -1.5222747325897217
2.155461311340332 2.618717670440674 -1.5699710845947266
2.128178596496582 2.693563222885132 -1.5890121459960938
4.425693035125732 2.0958521366119385 -2.4020309448242188
3.426271915435791 2.064270496368408 -1.962127685546875
3.106333017349243 2.0450851917266846 -1.8243039846420288
2.851247549057007 2.045086145401001 -1.7211707830429077
2.7544920444488525 2.0603132247924805 -1.687294840812683
2.672905206680298 2.0839030742645264 -1.6625109910964966
2.5935754776000977 2.1067588329315186 -1.6390432119369507
2.4410948753356934 2.150451183319092 -1.5957766771316528
2.196965217590332 2.461594343185425 -1.6184377670288086
2.169344425201416 2.5307250022888184 -1.6350419521331787
2.112004280090332 2.673090696334839 -1.6710927486419678
2.088020086288452 2.871682643890381 -1.7416268587112427
2.0741941928863525 2.9759843349456787 -1.7793740034103394
4.184643268585205 1.981698751449585 -2.4020309448242188
3.615389347076416 2.0808486938476562 -2.1640608310699463
3.4500463008880615 2.078594207763672 -2.089552879333496
2.9750781059265137 2.045085906982422 -1.872892141342163
2.6617650985717773 2.0752182006835938 -1.7509490251541138
2.582918643951416 2.0981016159057617 -1.7263349294662476
2.5067479610443115 2.120802640914917 -1.7034292221069336
2.4363012313842773 2.1462278366088867 -1.684384822845459
2.309791326522827 2.204899787902832 -1.6565816402435303
2.240856885910034 2.3172481060028076 -1.6722958087921143
2.2058703899383545 2.374268054962158 -1.6812783479690552
2.153881788253784 2.5126864910125732 -1.716901183128357
2.090433359146118 2.999284029006958 -1.896606206893921
3.925335645675659 1.95591139793396 -2.4020309448242188
3.8854479789733887 2.0339958667755127 -2.4020309448242188
3.8010289669036865 2.1876957416534424 -2.4020309448242188
3.2458066940307617 2.0450851917266846 -2.101186513900757
2.734135627746582 2.0450868606567383 -1.8700588941574097
2.650456428527832 2.0664021968841553 -1.84071946144104
2.503458261489868 2.1180191040039062 -1.7960424423217773
2.366983652114868 2.170732259750366 -1.7590322494506836
2.265458822250366 2.250845432281494 -1.7491060495376587
2.226994514465332 2.3029134273529053 -1.7546119689941406
2.1629490852355957 2.4234800338745117 -1.779118299484253
2.109636068344116 2.5630438327789307 -1.8181579113006592
2.093526601791382 2.6497039794921875 -1.849567174911499
2.118577718734741 2.9137096405029297 -1.9731074571609497
2.1435132026672363 3.0754425525665283 -2.0531938076019287
3.6859312057495117 1.9295508861541748 -2.4020309448242188
3.646618604660034 2.002854347229004 -2.4020309448242188
3.6058483123779297 2.0753586292266846 -2.4020309448242188
3.2458081245422363 2.0450851917266846 -2.2149221897125244
3.106333017349243 2.045085906982422 -2.1472208499908447
2.975079298019409 2.045086145401001 -2.0843448638916016
2.8512487411499023 2.04508638381958 -2.0258331298828125
2.7341344356536865 2.0450870990753174 -1.9712837934494019
2.6750547885894775 2.0855798721313477 -1.9583638906478882
2.5101611614227295 2.123690605163574 -1.8983298540115356
2.3061535358428955 2.2014267444610596 -1.840708613395691
2.255239248275757 2.240689516067505 -1.8354648351669312
2.163637638092041 2.424250364303589 -1.8760168552398682
2.1399316787719727 2.599851131439209 -1.9440968036651611
2.138354539871216 2.706441640853882 -1.991430640220642
2.1639060974121094 2.9760496616363525 -2.12441086769104
2.3789281845092773 3.41320538520813 -2.4020309448242188
