ply
format ascii 1.0
element vertex 299
property float x
property float y
property float z
end_header
-28.98238754272461 14.676448822021484 5.728256702423096
-29.74220085144043 13.571080207824707 5.764496803283691
-34.33139419555664 13.199905395507812 6.485576629638672
-36.5325927734375 13.199882507324219 6.849271774291992
-29.74220085144043 13.571081161499023 5.0082502365112305
-34.491458892822266 13.26144790649414 5.660998344421387
-41.77521514892578 13.199870109558105 6.711602687835693
-27.516334533691406 13.237998008728027 3.9763097763061523
-32.35150146484375 13.199912071228027 4.550016403198242
-36.70367431640625 13.261693954467773 5.082001686096191
-29.74220085144043 13.571088790893555 3.51053524017334
-32.351505279541016 13.199912071228027 3.752002477645874
-34.331424713134766 13.199905395507812 3.9496703147888184
-36.5325927734375 13.199882507324219 4.171151638031006
-38.996368408203125 13.19987678527832 4.4208855628967285
-41.77521514892578 13.199870109558105 4.704503059387207
-28.982383728027344 14.676448822021484 2.750077962875366
-29.742206573486328 14.30887222290039 2.7939813137054443
-30.70650291442871 13.26340389251709 2.8315155506134033
-32.50482940673828 13.262474060058594 2.9718523025512695
-34.491451263427734 13.26144790649414 3.1281769275665283
-38.99637222290039 13.19987678527832 3.485138416290283
-35.20337677001953 8.802895545959473 3.071821928024292
-26.89023208618164 13.616996765136719 1.869079351425171
-28.928775787353516 13.199926376342773 1.9718036651611328
-30.55953598022461 13.199918746948242 2.06423020362854
-32.35150146484375 13.199912071228027 2.166688919067383
-34.33140182495117 13.199904441833496 2.280836582183838
-36.703670501708984 13.261693954467773 2.4200167655944824
-39.18274688720703 13.262961387634277 2.5651543140411377
-35.20109558105469 8.802324295043945 2.250041961669922
-26.89023208618164 13.616999626159668 1.18850839138031
-28.92877960205078 13.199925422668457 1.2538273334503174
-30.55953598022461 13.199918746948242 1.312598705291748
-36.532588958740234 13.199881553649902 1.531664252281189
-41.77521514892578 13.199870109558105 1.7275114059448242
-35.19881820678711 8.80175495147705 1.4306608438491821
-30.102062225341797 15.243444442749023 0.5699561834335327
-31.599016189575195 15.202157974243164 0.5923225283622742
-32.37185287475586 14.770968437194824 0.6010521054267883
-42.23806381225586 15.261374473571777 0.7586231827735901
-43.91460037231445 14.86464786529541 0.7831388711929321
-30.10206413269043 15.243444442749023 -0.18996977806091309
-31.599016189575195 15.202155113220215 -0.19742675125598907
-37.06585693359375 16.010265350341797 -0.22732390463352203
-37.84516906738281 15.441408157348633 -0.2301293909549713
-42.238075256347656 15.261374473571777 -0.2528516948223114
-43.91460037231445 14.864646911621094 -0.2610284388065338
-35.190185546875 8.79959774017334 -0.2042282074689865
-32.37186050415039 14.770968437194824 -1.001924991607666
-37.065853118896484 16.010265350341797 -1.1368926763534546
-38.41747283935547 14.77093505859375 -1.1589508056640625
-43.91460037231445 14.86464786529541 -1.3054548501968384
-35.18555450439453 8.798437118530273 -1.021251916885376
-30.10206413269043 15.243444442749023 -1.7111810445785522
-31.599016189575195 15.20217227935791 -1.7783318758010864
-32.37185287475586 14.770970344543457 -1.8045450448989868
-37.065853118896484 16.010265350341797 -2.0476303100585938
-25.340909957885742 8.577646255493164 -1.3567733764648438
-26.822784423828125 8.475301742553711 -1.426589012145996
-41.690696716308594 12.246477127075195 -2.2036447525024414
-34.34269714355469 8.587677955627441 -1.7952831983566284
-37.317039489746094 8.528996467590332 -1.941311001777649
-43.615936279296875 8.118082046508789 -2.24993896484375
-43.768699645996094 7.228843688964844 -2.2497687339782715
-44.00906753540039 6.352031230926514 -2.2550158500671387
-47.20357894897461 3.8951518535614014 -2.4020309448242188
-27.251333236694336 13.110518455505371 -2.2173383235931396
-25.34090805053711 8.577645301818848 -1.9616072177886963
-29.620988845825195 8.050430297851562 -2.2506582736968994
-29.91111183166504 6.836330413818359 -2.2497000694274902
-32.20684814453125 5.994548320770264 -2.4020309448242188
-32.32209396362305 5.338320255279541 -2.4020309448242188
-32.423973083496094 4.6798996925354 -2.4020309448242188
-32.512447357177734 4.019553184509277 -2.4020309448242188
-32.64896774291992 2.6941235065460205 -2.4020309448242188
-20.98444938659668 10.09550666809082 -2.235625743865967
-21.317028045654297 9.726957321166992 -2.2495627403259277
-20.808574676513672 8.49022102355957 -2.1576216220855713
-22.344743728637695 7.060353755950928 -2.249746322631836
-22.482858657836914 6.604241847991943 -2.2496590614318848
-23.12425422668457 6.284733772277832 -2.3005735874176025
-24.390869140625 5.574657917022705 -2.4020309448242188
-24.5974063873291 4.5782294273376465 -2.4020309448242188
-24.76323127746582 3.574191093444824 -2.4020309448242188
-24.83082389831543 3.0698649883270264 -2.4020309448242188
-24.888202667236328 2.5642755031585693 -2.4020309448242188
-24.935165405273438 2.057603359222412 -2.4020309448242188
-24.971811294555664 1.5500788688659668 -2.4020309448242188
-16.917644500732422 8.566960334777832 -2.252549886703491
-17.08608055114746 8.22004222869873 -2.2522482872009277
-17.392240524291992 7.512423992156982 -2.250441312789917
-17.677509307861328 6.796731948852539 -2.2496981620788574
-18.521753311157227 6.2694268226623535 -2.3227460384368896
-19.2818660736084 6.092566013336182 -2.4020309448242188
-19.514095306396484 5.30344820022583 -2.4020309448242188
-19.61748504638672 4.905513286590576 -2.4020309448242188
-19.880094528198242 3.700212240219116 -2.4020309448242188
-19.951234817504883 3.295146942138672 -2.4020309448242188
-20.11508560180664 2.0724923610687256 -2.4020309448242188
-14.166234016418457 7.173665523529053 -2.249889373779297
-14.308114051818848 6.8835625648498535 -2.2497165203094482
-14.57658576965332 6.295807838439941 -2.249630928039551
-15.33573055267334 6.257213592529297 -2.3468196392059326
-16.05782699584961 5.435412406921387 -2.4020309448242188
-16.165040969848633 5.107730388641357 -2.4020309448242188
-16.4464054107666 4.112559795379639 -2.4020309448242188
-16.526639938354492 3.777244806289673 -2.4020309448242188
-16.920242309570312 1.0502864122390747 -2.4020309448242188
-13.385290145874023 5.781747341156006 -2.4020309448242188
-13.71313190460205 4.954799652099609 -2.4020309448242188
-13.98973274230957 4.109428405761719 -2.4020309448242188
-14.145269393920898 3.5371415615081787 -2.4020309448242188
-14.214275360107422 3.24874210357666 -2.4020309448242188
-14.27740478515625 2.9590141773223877 -2.4020309448242188
-14.334626197814941 2.66805362701416 -2.4020309448242188
-14.385921478271484 2.3759803771972656 -2.4020309448242188
-14.43126392364502 2.082930326461792 -2.4020309448242188
-14.4706392288208 1.7890229225158691 -2.4020309448242188
-14.504033088684082 1.4943745136260986 -2.4020309448242188
-14.531428337097168 1.1990998983383179 -2.4020309448242188
-11.400948524475098 5.773356914520264 -2.4020309448242188
-11.626707077026367 5.304971694946289 -2.4020309448242188
-11.731781959533691 5.067438125610352 -2.4020309448242188
-11.832406044006348 4.8278045654296875 -2.4020309448242188
-11.928139686584473 4.586188793182373 -2.4020309448242188
-12.185596466064453 3.850328207015991 -2.4020309448242188
-12.261374473571777 3.60172963142395 -2.4020309448242188
-12.397696495056152 3.1001458168029785 -2.4020309448242188
-12.458165168762207 2.8473761081695557 -2.4020309448242188
-12.563634872436523 2.338428258895874 -2.4020309448242188
-12.60861587524414 2.0824403762817383 -2.4020309448242188
-12.648345947265625 1.8255945444107056 -2.4020309448242188
-12.682862281799316 1.5679972171783447 -2.4020309448242188
-12.73613452911377 1.0509593486785889 -2.4020309448242188
-12.754878997802734 0.791735053062439 -2.4020309448242188
-10.137835502624512 5.133719444274902 -2.4020309448242188
-10.24013900756836 4.926490306854248 -2.4020309448242188
-10.338210105895996 4.717226505279541 -2.4020309448242188
-10.521480560302734 4.292927265167236 -2.4020309448242188
-10.687344551086426 3.8615312576293945 -2.4020309448242188
-10.835532188415527 3.4237451553344727 -2.4020309448242188
-11.024043083190918 2.7566704750061035 -2.4020309448242188
-11.12711238861084 2.3061108589172363 -2.4020309448242188
-11.303733825683594 1.16464364528656 -2.4020309448242188
-11.32508373260498 0.9345213174819946 -2.4020309448242188
-11.341731071472168 0.704021155834198 -2.4020309448242188
-9.209996223449707 4.4308905601501465 -2.4020309448242188
-9.382552146911621 4.05271053314209 -2.4020309448242188
-9.463034629821777 3.861062526702881 -2.4020309448242188
-9.745488166809082 3.079319477081299 -2.4020309448242188
-9.806093215942383 2.8805010318756104 -2.4020309448242188
-9.91513729095459 2.479358196258545 -2.4020309448242188
-9.963475227355957 2.27720308303833 -2.4020309448242188
-10.083802223205566 1.6654417514801025 -2.4020309448242188
-10.14318561553955 1.2540143728256226 -2.4020309448242188
-10.166590690612793 1.0474815368652344 -2.4020309448242188
-10.185791015625 0.840510368347168 -2.4020309448242188
-10.200777053833008 0.633194088935852 -2.4020309448242188
-8.276512145996094 4.191157341003418 -2.4020309448242188
-8.360025405883789 4.021974563598633 -2.4020309448242188
-8.65920639038086 3.329334020614624 -2.4020309448242188
-8.725123405456543 3.152543783187866 -2.4020309448242188
-8.787435531616211 2.9744579792022705 -2.4020309448242188
-8.84610652923584 2.7951385974884033 -2.4020309448242188
-9.000080108642578 2.250544548034668 -2.4020309448242188
-9.043980598449707 2.0670464038848877 -2.4020309448242188
-9.084152221679688 1.8827036619186401 -2.4020309448242188
-9.1531982421875 1.5117427110671997 -2.4020309448242188
-9.182043075561523 1.3252863883972168 -2.4020309448242188
-9.207101821899414 1.1382856369018555 -2.4020309448242188
-9.228354454040527 0.950810968875885 -2.4020309448242188
-9.245773315429688 0.7629423141479492 -2.4020309448242188
-7.6461076736450195 3.6785154342651367 -2.4020309448242188
-7.789374828338623 3.3645505905151367 -2.4020309448242188
-7.980029582977295 2.8833281993865967 -2.4020309448242188
-8.090702056884766 2.556445360183716 -2.4020309448242188
-8.141018867492676 2.3913872241973877 -2.4020309448242188
-8.271666526794434 1.8905298709869385 -2.4020309448242188
-8.308393478393555 1.721927285194397 -2.4020309448242188
-8.341697692871094 1.5526114702224731 -2.4020309448242188
-8.371548652648926 1.3826459646224976 -2.4020309448242188
-6.967117786407471 3.5280919075012207 -2.4020309448242188
-7.037423133850098 3.3856749534606934 -2.4020309448242188
-7.104822158813477 3.241861581802368 -2.4020309448242188
-7.169277191162109 3.0967040061950684 -2.4020309448242188
-7.289272308349609 2.8026154041290283 -2.4020309448242188
-7.397167682647705 2.503877878189087 -2.4020309448242188
-7.536120414733887 2.0481767654418945 -2.4020309448242188
-7.646986484527588 1.5848472118377686 -2.4020309448242188
-7.67763614654541 1.429011344909668 -2.4020309448242188
-7.705108642578125 1.2725764513015747 -2.4020309448242188
-7.75048303604126 0.9582017064094543 -2.4020309448242188
-7.783033847808838 0.6422407627105713 -2.4020309448242188
-7.794523239135742 0.48382309079170227 -2.4020309448242188
-6.511805057525635 3.132803201675415 -2.4020309448242188
-6.574166297912598 2.999729633331299 -2.4020309448242188
-6.69071102142334 2.729912757873535 -2.4020309448242188
-6.796188831329346 2.455584764480591 -2.4020309448242188
-6.890421390533447 2.177192211151123 -2.4020309448242188
-6.933281898498535 2.0366218090057373 -2.4020309448242188
-7.010356426239014 1.7529969215393066 -2.4020309448242188
-7.075838565826416 1.4664781093597412 -2.4020309448242188
-7.129617214202881 1.1775285005569458 -2.4020309448242188
-5.992424964904785 3.0345165729522705 -2.4020309448242188
-6.052896499633789 2.912024974822998 -2.4020309448242188
-6.21919584274292 2.5375282764434814 -2.4020309448242188
-6.404831409454346 2.023759365081787 -2.4020309448242188
-6.481827259063721 1.7616392374038696 -2.4020309448242188
-6.577179908752441 1.3631312847137451 -2.4020309448242188
-6.6035380363464355 1.229095220565796 -2.4020309448242188
-6.6480607986450195 0.9595451354980469 -2.4020309448242188
-6.694199085235596 0.5523918271064758 -2.4020309448242188
-6.70405387878418 0.4161415100097656 -2.4020309448242188
-5.591946125030518 2.831716775894165 -2.4020309448242188
-5.75420618057251 2.485477924346924 -2.4020309448242188
-5.85052490234375 2.249436378479004 -2.4020309448242188
-5.895051002502441 2.129988431930542 -2.4020309448242188
-6.013960361480713 1.7665766477584839 -2.4020309448242188
-6.048641681671143 1.6439075469970703 -2.4020309448242188
-6.137622356414795 1.2720304727554321 -2.4020309448242188
-6.203743934631348 0.89542156457901 -2.4020309448242188
-6.24682092666626 0.5154749751091003 -2.4020309448242188
-6.256014347076416 0.3883299231529236 -2.4020309448242188
-5.235931396484375 2.651432991027832 -2.4020309448242188
-5.387819766998291 2.327235460281372 -2.4020309448242188
-5.434054851531982 2.21718430519104 -2.4020309448242188
-5.519736289978027 1.9943827390670776 -2.4020309448242188
-5.596272945404053 1.768275260925293 -2.4020309448242188
-5.693680286407471 1.4237515926361084 -2.4020309448242188
-5.769899368286133 1.0739314556121826 -2.4020309448242188
-5.790545463562012 0.9563673138618469 -2.4020309448242188
-5.808798313140869 0.838410496711731 -2.4020309448242188
-5.824647903442383 0.720108151435852 -2.4020309448242188
-5.838075637817383 0.6015098690986633 -2.4020309448242188
-5.857717037200928 0.3636070191860199 -2.4020309448242188
-4.966675281524658 2.389446496963501 -2.4020309448242188
-5.014180660247803 2.28794527053833 -2.4020309448242188
-5.059731483459473 2.1855061054229736 -2.4020309448242188
-5.144415378570557 1.9779508113861084 -2.4020309448242188
-5.220595359802246 1.7671183347702026 -2.4020309448242188
-5.346928119659424 1.3370429277420044 -2.4020309448242188
-5.37300968170166 1.228030800819397 -2.4020309448242188
-5.3968729972839355 1.1185106039047241 -2.4020309448242188
-5.418485641479492 1.0085301399230957 -2.4020309448242188
-5.437893390655518 0.898123025894165 -2.4020309448242188
-5.482538223266602 0.564875602722168 -2.4020309448242188
-5.492894172668457 0.4532618522644043 -2.4020309448242188
-4.6762566566467285 2.249720573425293 -2.4020309448242188
-4.763854026794434 2.057703971862793 -2.4020309448242188
-4.804716110229492 1.9603983163833618 -2.4020309448242188
-5.058816432952881 1.1562172174453735 -2.4020309448242188
-5.10164737701416 0.949551522731781 -2.4020309448242188
-5.119904518127441 0.8456037640571594 -2.4020309448242188
-5.1716837882995605 0.4267570376396179 -2.4020309448242188
-4.455018043518066 2.0327813625335693 -2.4020309448242188
-4.533995151519775 1.8499393463134766 -2.4020309448242188
-4.669327259063721 1.475385308265686 -2.4020309448242188
-4.725459575653076 1.28429114818573 -2.4020309448242188
-4.81419563293457 0.8960490226745605 -2.4020309448242188
-4.859872817993164 0.6008320450782776 -2.4020309448242188
-4.871084690093994 0.501876950263977 -2.4020309448242188
-4.887465000152588 0.3033805787563324 -2.4020309448242188
-4.130726337432861 2.091766357421875 -2.4020309448242188
-4.172412395477295 2.007329225540161 -2.4020309448242188
-4.321731090545654 1.6616382598876953 -2.4020309448242188
-4.35462760925293 1.5734049081802368 -2.4020309448242188
-4.385725021362305 1.4845234155654907 -2.4020309448242188
-4.415029048919678 1.3950227499008179 -2.4020309448242188
-4.44246244430542 1.3049564361572266 -2.4020309448242188
-4.468082904815674 1.2143399715423584 -2.4020309448242188
-4.491854190826416 1.123225212097168 -2.4020309448242188
-4.513767719268799 1.0316437482833862 -2.4020309448242188
-4.533812046051025 0.9396397471427917 -2.4020309448242188
-4.582522392272949 0.6614576578140259 -2.4020309448242188
-4.605775833129883 0.4745420813560486 -2.4020309448242188
-3.952064037322998 1.9013224840164185 -2.4020309448242188
-3.989915132522583 1.8205591440200806 -2.4020309448242188
-4.0261125564575195 1.7390433549880981 -2.4020309448242188
-4.093499660491943 1.5738874673843384 -2.4020309448242188
-4.124660015106201 1.4903138875961304 -2.4020309448242188
-4.181849956512451 1.3213551044464111 -2.4020309448242188
-4.232123374938965 1.1502115726470947 -2.4020309448242188
-4.275393962860107 0.9771623015403748 -2.4020309448242188
-4.311595439910889 0.8025019764900208 -2.4020309448242188
-4.340662002563477 0.6265071034431458 -2.4020309448242188
-4.352505207061768 0.5381056070327759 -2.4020309448242188
-4.362548828125 0.44948074221611023 -2.4020309448242188
-4.370788097381592 0.3606681823730469 -2.4020309448242188
-4.3772172927856445 0.27170759439468384 -2.4020309448242188
-3.785034656524658 1.7270747423171997 -2.4020309448242188
-3.8193724155426025 1.6497437953948975 -2.4020309448242188
-4.014808177947998 1.0911494493484497 -2.4020309448242188
-4.0901970863342285 0.7612940669059753 -2.4020309448242188
-4.104832172393799 0.6779545545578003 -2.4020309448242188
-2.243715763092041 0.3238450586795807 -1.3088334798812866
-2.2261962890625 0.27522751688957214 -1.2950801849365234
-2.230304002761841 0.18404006958007812 -1.2920429706573486
-2.2280614376068115 0.13830246031284332 -1.288847804069519
