ply
format ascii 1.0
element vertex 274
property float x
property float y
property float z
end_header
-18.688451766967773 -42.6302490234375 -1.3106510639190674
-18.115724563598633 -43.65650177001953 -1.3309016227722168
-4.052769660949707 -20.50076675415039 -0.5884274244308472
-3.6339898109436035 -20.510698318481445 -0.5865299701690674
-3.21481990814209 -20.501937866210938 -0.5843427777290344
-2.7999682426452637 -20.503231048583984 -0.5826835632324219
-4.1381988525390625 -42.93344497680664 -1.2145121097564697
-2.419840097427368 -42.81632614135742 -1.2075358629226685
-19.185468673706055 -39.43608093261719 -2.2240893840789795
-11.324616432189941 -25.832597732543945 -1.430440068244934
-10.705167770385742 -25.79804229736328 -1.4164994955062866
-8.379179000854492 -25.796213150024414 -1.3755215406417847
-7.821816444396973 -25.810129165649414 -1.3677291870117188
-7.281136989593506 -25.861629486083984 -1.3625425100326538
-6.753591060638428 -25.94831657409668 -1.3597909212112427
-2.358670711517334 -20.258628845214844 -1.034341812133789
-1.5499523878097534 -20.28162956237793 -1.0315672159194946
-1.158847689628601 -20.504467010498047 -1.041528582572937
-12.786558151245117 -27.663393020629883 -2.2345335483551025
-10.099262237548828 -25.768810272216797 -2.029350757598877
-8.372391700744629 -25.775238037109375 -1.9870973825454712
-7.818851947784424 -25.80037498474121 -1.9767000675201416
-7.694438457489014 -29.56319236755371 -2.2398526668548584
-4.8159613609313965 -20.13213348388672 -1.5177793502807617
-4.023492813110352 -20.3526611328125 -1.5211817026138306
-3.567357063293457 -20.134599685668945 -1.4993047714233398
-1.9438220262527466 -20.166982650756836 -1.4855395555496216
-1.5553563833236694 -20.35235023498535 -1.4966295957565308
-0.5156005620956421 -30.644636154174805 -2.247248411178589
-9.359253883361816 -21.349401473999023 -2.237950325012207
-8.935778617858887 -21.5340518951416 -2.238304376602173
-8.50870418548584 -21.710407257080078 -2.2386648654937744
-7.207365989685059 -22.18865394592285 -2.2397844791412354
-6.324727535247803 -22.464590072631836 -2.240560531616211
-5.878970146179199 -22.58789825439453 -2.240798234939575
-5.4309492111206055 -22.70323944091797 -2.2411227226257324
-3.974076509475708 -20.10270118713379 -1.9673116207122803
-3.5542798042297363 -20.06083869934082 -1.955937147140503
-2.7404210567474365 -20.067228317260742 -1.9444365501403809
-1.1365575790405273 -20.110082626342773 -1.9337501525878906
-8.251761436462402 -16.961633682250977 -2.24058198928833
-7.915018081665039 -17.123920440673828 -2.2408580780029297
-7.232141971588135 -17.42850685119629 -2.241426706314087
-6.886270046234131 -17.5706844329834 -2.2417190074920654
-5.832526206970215 -17.95604705810547 -2.2426259517669678
-5.4763407707214355 -18.070608139038086 -2.242938280105591
-5.117912292480469 -18.178142547607422 -2.2432548999786377
-3.2970457077026367 -18.60892677307129 -2.2449047565460205
-1.9424779415130615 -12.38780689239502 -1.489477515220642
-2.5579028129577637 -18.73069190979004 -2.2455930709838867
-2.18658447265625 -18.780622482299805 -2.2459428310394287
-1.814300537109375 -18.82322883605957 -2.246295928955078
-1.441192626953125 -18.85847282409668 -2.246652603149414
-0.6999255418777466 -12.384334564208984 -1.473433017730713
-0.6930627226829529 -18.906845092773438 -2.24737548828125
-6.9248046875 -14.234063148498535 -2.2428200244903564
-6.356795310974121 -14.500484466552734 -2.2433176040649414
-4.576682090759277 -12.395169258117676 -1.8721566200256348
-5.190942764282227 -14.964905738830566 -2.24430775642395
-4.594984531402588 -15.16234302520752 -2.24482798576355
-3.381596565246582 -15.486071586608887 -2.2459144592285156
-2.4564526081085205 -15.665568351745605 -2.2467665672302246
-2.1458325386047363 -15.7131986618042 -2.2470571994781494
-1.8342821598052979 -15.754692077636719 -2.2473506927490234
-1.208925724029541 -15.81919002532959 -2.2479465007781982
-0.5813366770744324 -15.8589448928833 -2.2485532760620117
-5.959238052368164 -12.249317169189453 -2.2440736293792725
-5.716470718383789 -12.367444038391113 -2.244518756866455
-5.470823287963867 -12.479511260986328 -2.244738817214966
-4.973054885864258 -12.68902587890625 -2.2451889514923096
-4.72113561630249 -12.786383628845215 -2.2454187870025635
-4.211686134338379 -12.96611499786377 -2.2458882331848145
-3.7558109760284424 -12.393306732177734 -2.1333584785461426
-3.1731419563293457 -13.264649391174316 -2.2468626499176025
-2.909991502761841 -13.32640552520752 -2.2471132278442383
-1.0402086973190308 -13.61150074005127 -2.2488863468170166
-0.22972899675369263 -13.654035568237305 -2.2496728897094727
-5.025569915771484 -10.872702598571777 -2.2513926029205322
-4.809718608856201 -10.971450805664062 -2.2516582012176514
-3.7027482986450195 -11.399306297302246 -2.2528231143951416
-3.476452589035034 -11.47145938873291 -2.2530226707458496
-3.2487292289733887 -11.539051055908203 -2.25321102142334
-2.7893927097320557 -11.66048526763916 -2.2535531520843506
-1.6222655773162842 -11.88056468963623 -2.253807783126831
-1.1498022079467773 -11.924531936645508 -2.2517318725585938
-0.43854978680610657 -11.963488578796387 -2.250178098678589
-4.712088584899902 -9.68601131439209 -2.2768630981445312
-4.272904396057129 -9.747122764587402 -2.249630928039551
-3.883467435836792 -9.908817291259766 -2.249640703201294
-3.686331033706665 -9.98388671875 -2.24965500831604
-3.487842321395874 -10.055031776428223 -2.249668598175049
-3.086904764175415 -10.186030387878418 -2.2498226165771484
-2.6812596321105957 -10.301823616027832 -2.2501463890075684
-2.476768732070923 -10.353605270385742 -2.250293254852295
-2.064821720123291 -10.444829940795898 -2.2505557537078857
-1.6495214700698853 -10.519475936889648 -2.250776767730713
-1.440804362297058 -10.550540924072266 -2.2508716583251953
-0.6009325981140137 -10.632796287536621 -2.251146078109741
-0.3901306092739105 -10.642814636230469 -2.251188278198242
-4.288146495819092 -9.277308464050293 -2.4020309448242188
-3.9171996116638184 -9.439931869506836 -2.4020309448242188
-3.540090799331665 -9.587726593017578 -2.4020309448242188
-3.140728712081909 -9.669012069702148 -2.3893163204193115
-2.723930597305298 -9.67503833770752 -2.362257242202759
-2.114335775375366 -9.68263053894043 -2.32926344871521
-1.128387451171875 -9.691715240478516 -2.293161630630493
-0.9342772960662842 -9.693025588989258 -2.2886412143707275
-0.7408434748649597 -9.694171905517578 -2.284996271133423
-0.5479394197463989 -9.695155143737793 -2.2822201251983643
-0.35542234778404236 -9.695977210998535 -2.2803080081939697
-0.1631481945514679 -9.696640014648438 -2.2792556285858154
-4.058515548706055 -8.342352867126465 -2.4020309448242188
-3.385202646255493 -8.63752269744873 -2.4020309448242188
-2.8660223484039307 -8.823387145996094 -2.4020309448242188
-2.690633535385132 -8.87845230102539 -2.4020309448242188
-1.7991784811019897 -9.10106372833252 -2.4020309448242188
-1.6184850931167603 -9.13492202758789 -2.4020309448242188
-1.4371569156646729 -9.165204048156738 -2.4020309448242188
-0.7067614793777466 -9.25022029876709 -2.4020309448242188
-0.523547351360321 -9.262415885925293 -2.4020309448242188
-0.1560083031654358 -9.275884628295898 -2.4020309448242188
-3.711934804916382 -7.629947185516357 -2.4020309448242188
-3.560014486312866 -7.702001094818115 -2.4020309448242188
-3.252047061920166 -7.837003231048584 -2.4020309448242188
-2.9389703273773193 -7.959702968597412 -2.4020309448242188
-2.780672550201416 -8.016376495361328 -2.4020309448242188
-2.6212828159332275 -8.069900512695312 -2.4020309448242188
-2.460864305496216 -8.120265007019043 -2.4020309448242188
-2.2994749546051025 -8.167424201965332 -2.4020309448242188
-1.9740526676177979 -8.252121925354004 -2.4020309448242188
-1.810150146484375 -8.289617538452148 -2.4020309448242188
-1.148067593574524 -8.4069242477417 -2.4020309448242188
-0.9812573194503784 -8.428030014038086 -2.4020309448242188
-0.8140624761581421 -8.445810317993164 -2.4020309448242188
-0.3108203113079071 -8.479265213012695 -2.4020309448242188
-0.14274047315120697 -8.483759880065918 -2.4020309448242188
-3.416433572769165 -7.0225419998168945 -2.4020309448242188
-3.135502815246582 -7.152395248413086 -2.4020309448242188
-2.7050085067749023 -7.326053142547607 -2.4020309448242188
-2.4126110076904297 -7.427477836608887 -2.4020309448242188
-2.116419553756714 -7.517239093780518 -2.4020309448242188
-1.9670519828796387 -7.557699203491211 -2.4020309448242188
-1.8169054985046387 -7.595194339752197 -2.4020309448242188
-1.6660497188568115 -7.629704475402832 -2.4020309448242188
-1.362432837486267 -7.689726829528809 -2.4020309448242188
-1.0566760301589966 -7.737669944763184 -2.4020309448242188
-0.9031420946121216 -7.7570929527282715 -2.4020309448242188
-0.7492565512657166 -7.773462295532227 -2.4020309448242188
-0.5950793027877808 -7.786783218383789 -2.4020309448242188
-0.2860766649246216 -7.8042473793029785 -2.4020309448242188
-0.131378173828125 -7.808385372161865 -2.4020309448242188
-3.031877279281616 -6.559395790100098 -2.4020309448242188
-2.636805295944214 -6.7279486656188965 -2.4020309448242188
-2.5029711723327637 -6.778876781463623 -2.4020309448242188
-2.2324132919311523 -6.8727264404296875 -2.4020309448242188
-2.095789670944214 -6.915613174438477 -2.4020309448242188
-1.6812024116516113 -7.027915000915527 -2.4020309448242188
-1.5416125059127808 -7.059849262237549 -2.4020309448242188
-1.4014172554016113 -7.089011192321777 -2.4020309448242188
-1.2606713771820068 -7.115387439727783 -2.4020309448242188
-1.1194323301315308 -7.138971328735352 -2.4020309448242188
-0.8356847763061523 -7.177719593048096 -2.4020309448242188
-0.5506311058998108 -7.205194473266602 -2.4020309448242188
-0.4077502489089966 -7.214692115783691 -2.4020309448242188
-0.26470947265625 -7.22135591506958 -2.4020309448242188
-0.12156493961811066 -7.225183486938477 -2.4020309448242188
-2.6968469619750977 -6.151783466339111 -2.4020309448242188
-2.0750865936279297 -6.3883843421936035 -2.4020309448242188
-1.9480931758880615 -6.428247928619385 -2.4020309448242188
-1.6918615102767944 -6.5003886222839355 -2.4020309448242188
-1.5627233982086182 -6.5326361656188965 -2.4020309448242188
-1.4329724311828613 -6.562320232391357 -2.4020309448242188
-0.7767931818962097 -6.671885013580322 -2.4020309448242188
-0.5118274092674255 -6.697422981262207 -2.4020309448242188
-0.37901610136032104 -6.7062506675720215 -2.4020309448242188
-2.516613721847534 -5.74065637588501 -2.4020309448242188
-2.402371883392334 -5.789395809173584 -2.4020309448242188
-2.2871813774108887 -5.8358635902404785 -2.4020309448242188
-1.936409831047058 -5.961442947387695 -2.4020309448242188
-1.8178991079330444 -5.998642921447754 -2.4020309448242188
-1.6986827850341797 -6.033487319946289 -2.4020309448242188
-1.5787914991378784 -6.065961837768555 -2.4020309448242188
-1.3372033834457397 -6.123753547668457 -2.4020309448242188
-0.8481078743934631 -6.210410118103027 -2.4020309448242188
-0.35368528962135315 -6.258065700531006 -2.4020309448242188
-2.3563902378082275 -5.375172138214111 -2.4020309448242188
-2.1415722370147705 -5.4643168449401855 -2.4020309448242188
-1.923378825187683 -5.5448784828186035 -2.4020309448242188
-1.8131213188171387 -5.581902503967285 -2.4020309448242188
-1.365441918373108 -5.707944869995117 -2.4020309448242188
-1.0238964557647705 -5.778987407684326 -2.4020309448242188
-0.9091772437095642 -5.798140525817871 -2.4020309448242188
-0.794110119342804 -5.8150177001953125 -2.4020309448242188
-0.5630834698677063 -5.841917514801025 -2.4020309448242188
-0.3311694264411926 -5.859641075134277 -2.4020309448242188
-0.21499145030975342 -5.865052223205566 -2.4020309448242188
-2.411155939102173 -4.956171989440918 -2.4020309448242188
-2.312476873397827 -5.002974510192871 -2.4020309448242188
-2.2128868103027344 -5.047815799713135 -2.4020309448242188
-1.909063696861267 -5.170376300811768 -2.4020309448242188
-1.8062390089035034 -5.207187175750732 -2.4020309448242188
-1.702703833580017 -5.24195671081543 -2.4020309448242188
-1.5984997749328613 -5.274666786193848 -2.4020309448242188
-1.4936633110046387 -5.305305004119873 -2.4020309448242188
-1.3882604837417603 -5.333860874176025 -2.4020309448242188
-1.2822887897491455 -5.360322952270508 -2.4020309448242188
-1.0688928365707397 -5.406919956207275 -2.4020309448242188
-0.9615490436553955 -5.42703914642334 -2.4020309448242188
-0.7457592487335205 -5.46087646484375 -2.4020309448242188
-0.41997435688972473 -5.4955363273620605 -2.4020309448242188
-0.3110021948814392 -5.502779960632324 -2.4020309448242188
-0.201904296875 -5.507862567901611 -2.4020309448242188
-2.1772496700286865 -4.710416793823242 -2.4020309448242188
-1.9889013767242432 -4.7929863929748535 -2.4020309448242188
-1.8935388326644897 -4.83145809173584 -2.4020309448242188
-1.7006176710128784 -4.9026875495910645 -2.4020309448242188
-1.6031371355056763 -4.935423374176025 -2.4020309448242188
-1.5050256252288818 -4.966220378875732 -2.4020309448242188
-1.4063220024108887 -4.995067119598389 -2.4020309448242188
-1.3070690631866455 -5.021953105926514 -2.4020309448242188
-0.9053112864494324 -5.109683513641357 -2.4020309448242188
-0.8038830161094666 -5.126617908477783 -2.4020309448242188
-0.7021398544311523 -5.141539573669434 -2.4020309448242188
-0.6001208424568176 -5.154446125030518 -2.4020309448242188
-0.4978649914264679 -5.1653242111206055 -2.4020309448242188
-0.2928137183189392 -5.180994033813477 -2.4020309448242188
-0.08729614317417145 -5.188530921936035 -2.4020309448242188
-1.966091275215149 -4.484848499298096 -2.4020309448242188
-1.7868456840515137 -4.559228420257568 -2.4020309448242188
-1.6961547136306763 -4.5937395095825195 -2.4020309448242188
-1.42022705078125 -4.686399936676025 -2.4020309448242188
-1.3270825147628784 -4.713621616363525 -2.4020309448242188
-1.0446850061416626 -4.784141540527344 -2.4020309448242188
-0.4698156714439392 -4.874283790588379 -2.4020309448242188
-0.08237792551517487 -4.896180629730225 -2.4020309448242188
-1.942665934562683 -4.202906608581543 -2.4020309448242188
-0.9877843856811523 -4.523568153381348 -2.4020309448242188
-0.8979528546333313 -4.5422515869140625 -2.4020309448242188
-0.7172716856002808 -4.5742645263671875 -2.4020309448242188
-0.6264916658401489 -4.587581157684326 -2.4020309448242188
-0.44422850012779236 -4.608800411224365 -2.4020309448242188
-0.26127195358276367 -4.622786998748779 -2.4020309448242188
-0.1696130335330963 -4.627052307128906 -2.4020309448242188
-0.07789184153079987 -4.629505634307861 -2.4020309448242188
-1.8400756120681763 -3.9809510707855225 -2.4020309448242188
-1.7608312368392944 -4.016631603240967 -2.4020309448242188
-1.6003015041351318 -4.083245754241943 -2.4020309448242188
-1.3548717498779297 -4.171112060546875 -2.4020309448242188
-1.2719542980194092 -4.197140216827393 -2.4020309448242188
-1.0203368663787842 -4.2652974128723145 -2.4020309448242188
-0.8505370616912842 -4.302379131317139 -2.4020309448242188
-0.7651122808456421 -4.318384170532227 -2.4020309448242188
-0.5934069752693176 -4.345309734344482 -2.4020309448242188
-0.507183849811554 -4.3562140464782715 -2.4020309448242188
-0.42076781392097473 -4.365409851074219 -2.4020309448242188
-0.33418333530426025 -4.372889518737793 -2.4020309448242188
-0.2474694699048996 -4.378653526306152 -2.4020309448242188
-0.16065551340579987 -4.382696628570557 -2.4020309448242188
-1.8200781345367432 -3.7412002086639404 -2.4020309448242188
-1.7455883026123047 -3.7765307426452637 -2.4020309448242188
-1.6704150438308716 -3.8103795051574707 -2.4020309448242188
-1.594582438468933 -3.842729330062866 -2.4020309448242188
-1.5181249380111694 -3.8735737800598145 -2.4020309448242188
-1.44106924533844 -3.90289306640625 -2.4020309448242188
-1.3634508848190308 -3.9306817054748535 -2.4020309448242188
-1.2852978706359863 -3.9569268226623535 -2.4020309448242188
-1.0479296445846558 -4.026301860809326 -2.4020309448242188
-0.9679418802261353 -4.046275615692139 -2.4020309448242188
-0.8068578839302063 -4.081450939178467 -2.4020309448242188
-0.7258251905441284 -4.09663724899292 -2.4020309448242188
-0.6445068120956421 -4.110217094421387 -2.4020309448242188
-0.48114013671875 -4.132525444030762 -2.4020309448242188
-0.23476073145866394 -4.153810501098633 -2.4020309448242188
-0.1524060070514679 -4.157646179199219 -2.4020309448242188
