ply
format ascii 1.0
element vertex 189
property float x
property float y
property float z
end_header
1.233026146888733 19.267520904541016 3.4043333530426025
0.451141357421875 19.778488159179688 3.4883885383605957
-0.3767431676387787 20.58820343017578 3.6308629512786865
1.2495324611663818 19.525524139404297 2.9973204135894775
0.423492431640625 18.566381454467773 2.845005989074707
-0.3447265625 18.83858871459961 2.8864500522613525
-0.7274377346038818 18.7158203125 2.8693249225616455
1.203607201576233 18.807811737060547 2.454179525375366
0.830615222454071 19.145599365234375 2.4955015182495117
0.4407019019126892 19.320669174194336 2.516608715057373
0.8321422934532166 19.1807861328125 2.0616049766540527
0.4432995617389679 19.434579849243164 2.087462902069092
0.781661331653595 18.017133712768555 1.5266361236572266
0.4079846143722534 17.88625717163086 1.5145164728164673
0.044609375298023224 19.785200119018555 1.6748771667480469
1.234338402748108 19.288005828857422 1.1985026597976685
0.8476928472518921 19.53915786743164 1.212769627571106
0.0428478978574276 19.00345230102539 1.1784135103225708
-0.3445214629173279 18.827396392822266 1.1676883697509766
-0.7251647710800171 18.65733528137207 1.157821536064148
-1.0974829196929932 18.454687118530273 1.1464033126831055
-1.591982364654541 19.869720458984375 1.236077070236206
1.312536597251892 20.51001739501953 0.8103858828544617
0.050288084894418716 22.30295753479004 0.8794310092926025
-0.36256223917007446 19.813304901123047 0.7813898921012878
-0.7813208103179932 20.10212516784668 0.7932462692260742
-2.047734260559082 20.306564331054688 0.80476975440979
1.109075903892517 48.62312316894531 0.8215446472167969
-0.8643017411231995 22.23711585998535 0.37590834498405457
1.3115416765213013 20.49443244934082 -0.5782572627067566
1.3737951517105103 31.66581153869629 -0.8924769163131714
-0.5811986923217773 31.761484146118164 -0.8944819569587708
-1.8882702589035034 31.752138137817383 -0.8956489562988281
-3.893461227416992 32.00619125366211 -0.9078657031059265
-4.5333476066589355 31.80004119873047 -0.904470682144165
-5.8848724365234375 31.85026741027832 -0.912011981010437
1.311212182044983 20.489282608032227 -1.0412238836288452
1.374508023262024 31.6821346282959 -1.608246922492981
0.7309399247169495 32.04521942138672 -1.6255730390548706
0.05595947057008743 24.81855010986328 -1.2586579322814941
-3.207650661468506 31.80894660949707 -1.6213488578796387
-3.889150381088257 31.970754623413086 -1.6333261728286743
-4.527357578277588 31.75798797607422 -1.6268662214279175
-5.8899993896484375 31.877986907958984 -1.6440328359603882
1.310882568359375 20.484121322631836 -1.5050112009048462
0.5661071538925171 24.81855010986328 -1.8202216625213623
-0.45415282249450684 24.81855010986328 -1.8200552463531494
-0.9646350145339966 24.81855010986328 -1.821126103401184
-3.0132274627685547 29.880964279174805 -2.2020480632781982
-3.626633882522583 29.812734603881836 -2.2020480632781982
-4.238524913787842 29.731908798217773 -2.2020480632781982
-0.8067211508750916 20.755659103393555 -1.9941520690917969
-2.818166971206665 23.16683578491211 -2.2405261993408203
-3.2930004596710205 23.099348068237305 -2.240074872970581
-3.7662365436553955 23.022174835205078 -2.2396249771118164
-4.707169055938721 22.838851928710938 -2.2387306690216064
0.7263342142105103 16.742002487182617 -1.990584373474121
-1.3470776081085205 16.813030242919922 -2.0035505294799805
-2.2782249450683594 18.728132247924805 -2.241037607192993
-3.8058738708496094 18.46584701538086 -2.2395856380462646
-1.263735294342041 15.772809982299805 -2.2420005798339844
-1.5873388051986694 15.741348266601562 -2.2416932582855225
0.8699450492858887 13.593935012817383 -2.244034767150879
-0.24910521507263184 13.61301040649414 -2.242971897125244
-1.0870007276535034 13.566984176635742 -2.2421762943267822
-1.3654065132141113 13.54018497467041 -2.2419118881225586
-1.9201818704605103 13.469478607177734 -2.2413852214813232
-1.3676024675369263 8.359890937805176 -1.3955074548721313
-1.562862515449524 8.458589553833008 -1.4170469045639038
-2.745488166809082 13.320918083190918 -2.2406015396118164
0.762435257434845 11.91397762298584 -2.2439427375793457
-0.21833251416683197 11.931400299072266 -2.243011713027954
-0.9527661204338074 11.891581535339355 -2.2423150539398193
-1.1968114376068115 11.86827278137207 -2.2420835494995117
-1.3676012754440308 8.359890937805176 -1.5922181606292725
0.19224853813648224 8.428046226501465 -1.7819819450378418
0.018858641386032104 8.361498832702637 -1.7674565315246582
-0.41233763098716736 10.610736846923828 -2.2445900440216064
-1.065517544746399 10.569061279296875 -2.2454166412353516
-1.5000426769256592 10.522722244262695 -2.2467799186706543
-1.9328930377960205 10.461893081665039 -2.24886417388916
-2.147956609725952 10.423357963562012 -2.2495956420898438
0.6118835210800171 9.561454772949219 -2.251758337020874
0.41526609659194946 9.571843147277832 -2.2517189979553223
0.018858641386032104 8.361498832702637 -1.9651483297348022
-0.5687450766563416 9.56368637084961 -2.251657247543335
-0.7651586532592773 9.550041198730469 -2.25167179107666
-1.3676037788391113 8.35988998413086 -1.9908815622329712
-1.9341894388198853 9.384561538696289 -2.2519454956054688
0.555895984172821 8.686553001403809 -2.2537038326263428
0.37727048993110657 8.69600772857666 -2.2536683082580566
0.018858641386032104 8.361498832702637 -2.1649460792541504
-0.15924681723117828 8.70250129699707 -2.253610134124756
-0.6951464414596558 8.676212310791016 -2.2536253929138184
-0.8733044266700745 8.66018009185791 -2.2536466121673584
-1.228456974029541 8.617237091064453 -2.253713369369507
-1.3676012754440308 8.359890937805176 -2.1932950019836426
-1.7571923732757568 8.52578353881836 -2.2538740634918213
0.5083068609237671 7.942922115325928 -2.253185272216797
0.18149901926517487 7.957126140594482 -2.253190755844116
0.017945555970072746 7.959140300750732 -2.253180742263794
-0.309112548828125 7.95298433303833 -2.2531347274780273
-0.6356237530708313 7.933284759521484 -2.2530548572540283
-0.7984948754310608 7.918370246887207 -2.253002166748047
-0.9610229134559631 7.900071620941162 -2.252941131591797
-1.1231298446655273 7.878415584564209 -2.2528717517852783
-1.4458080530166626 7.825032711029053 -2.2527077198028564
0.01650390587747097 7.320304870605469 -2.251574754714966
-0.43455076217651367 7.307173728942871 -2.251499891281128
-0.5846093893051147 7.296567916870117 -2.2514593601226807
-0.7344115972518921 7.282858848571777 -2.251410961151123
-1.0329967737197876 7.246142864227295 -2.251291036605835
-1.3297851085662842 7.197092533111572 -2.2511401176452637
-1.4773461818695068 7.167972087860107 -2.2510533332824707
0.29341062903404236 6.763078689575195 -2.250200033187866
0.15437011420726776 6.76767635345459 -2.2501986026763916
-0.2629077136516571 6.764184951782227 -2.2501511573791504
-0.4018493592739105 6.757263660430908 -2.2501208782196045
-0.5406152009963989 6.747466087341309 -2.2500832080841064
-0.9552636742591858 6.700873374938965 -2.2499277591705322
0.4017565846443176 6.2779436111450195 -2.249630928039551
0.14345215260982513 6.289149761199951 -2.249630928039551
0.01418334897607565 6.290770053863525 -2.249630928039551
-0.11509643495082855 6.289732933044434 -2.249630928039551
-0.2443249523639679 6.286039352416992 -2.249630928039551
-1.285213589668274 6.235966205596924 -2.2768983840942383
0.2695239186286926 6.212533950805664 -2.382995128631592
0.1417199671268463 6.213106155395508 -2.381593704223633
-0.1137072741985321 6.213723659515381 -2.381610155105591
-0.2415148913860321 6.213771820068359 -2.383028030395508
-0.36952024698257446 6.21364688873291 -2.3853888511657715
-0.49781981110572815 6.213346481323242 -2.3886969089508057
-0.6265490651130676 6.212870121002197 -2.392958879470825
-0.7556982040405273 6.212217807769775 -2.3981833457946777
-1.0119274854660034 6.185824394226074 -2.4020309448242188
-1.2652562856674194 6.139020919799805 -2.4020309448242188
0.13383544981479645 5.867465496063232 -2.4020309448242188
0.01323242112994194 5.86897611618042 -2.4020309448242188
-0.10737792402505875 5.868008136749268 -2.4020309448242188
-0.5888500809669495 5.8393754959106445 -2.4020309448242188
-0.708721935749054 5.826041221618652 -2.4020309448242188
-0.82832270860672 5.810248851776123 -2.4020309448242188
-0.9475597739219666 5.791999816894531 -2.4020309448242188
-1.0663305521011353 5.771305561065674 -2.4020309448242188
-1.1846752166748047 5.748175621032715 -2.4020309448242188
0.3519921898841858 5.50031042098999 -2.4020309448242188
0.2388891577720642 5.506381034851074 -2.4020309448242188
0.12568359076976776 5.510127544403076 -2.4020309448242188
0.012426757253706455 5.511547088623047 -2.4020309448242188
-0.21406005322933197 5.5074028968811035 -2.4020309448242188
-0.32718992233276367 5.501840591430664 -2.4020309448242188
-0.6655614972114563 5.471228122711182 -2.4020309448242188
-0.7778527736663818 5.456395626068115 -2.4020309448242188
-0.8898168802261353 5.4392595291137695 -2.4020309448242188
-1.0014050006866455 5.419825553894043 -2.4020309448242188
0.33141234517097473 5.178668022155762 -2.4020309448242188
0.11833129823207855 5.187915325164795 -2.4020309448242188
-0.2015429586172104 5.185346603393555 -2.4020309448242188
-0.6266369223594666 5.151287078857422 -2.4020309448242188
-0.7323644757270813 5.137323379516602 -2.4020309448242188
-0.9428454637527466 5.102890491485596 -2.4020309448242188
0.2122509777545929 4.892271995544434 -2.4020309448242188
0.011043701320886612 4.896861553192139 -2.4020309448242188
-0.190185546875 4.893179416656494 -2.4020309448242188
-0.3910876512527466 4.881231784820557 -2.4020309448242188
-0.5913329720497131 4.861038684844971 -2.4020309448242188
-0.8897143602371216 4.815369129180908 -2.4020309448242188
0.2006872445344925 4.6258087158203125 -2.4020309448242188
0.10558471083641052 4.6289567947387695 -2.4020309448242188
-0.08471190929412842 4.6293840408325195 -2.4020309448242188
-0.27486327290534973 4.6219940185546875 -2.4020309448242188
-0.7475134134292603 4.56942081451416 -2.4020309448242188
-0.9346447587013245 4.534845352172852 -2.4020309448242188
0.1000085398554802 4.384500503540039 -2.4020309448242188
-0.08023925870656967 4.384907245635986 -2.4020309448242188
-0.2603503465652466 4.377906322479248 -2.4020309448242188
-0.3502599895000458 4.371631145477295 -2.4020309448242188
-0.6189513802528381 4.341744899749756 -2.4020309448242188
-0.7080419659614563 4.328108310699463 -2.4020309448242188
0.26570555567741394 4.151947021484375 -2.4020309448242188
0.09487426280975342 4.159359455108643 -2.4020309448242188
0.009381103329360485 4.16042947769165 -2.4020309448242188
-0.07611816376447678 4.1597442626953125 -2.4020309448242188
-0.16158324480056763 4.15730094909668 -2.4020309448242188
-0.2469811886548996 4.153104305267334 -2.4020309448242188
-0.417426735162735 4.139448165893555 -2.4020309448242188
-0.5024023056030273 4.129995822906494 -2.4020309448242188
-0.5871667265892029 4.118799209594727 -2.4020309448242188
-0.8398290872573853 4.074795246124268 -2.4020309448242188
