ply
format ascii 1.0
element vertex 313
property float x
property float y
property float z
end_header
-17.331092834472656 34.852359771728516 6.86329984664917
-17.308185577392578 26.401185989379883 5.566450595855713
-17.309772491455078 25.29648208618164 5.404757022857666
-17.30742835998535 23.26007843017578 5.1121978759765625
-17.136171340942383 34.46037673950195 5.8958282470703125
-17.308185577392578 26.40117835998535 4.836180686950684
-17.246746063232422 25.20436668395996 4.678606033325195
-17.246742248535156 24.163320541381836 4.547880172729492
-17.246740341186523 23.178491592407227 4.4259467124938965
-16.62908172607422 35.17097854614258 4.177585124969482
-18.18982696533203 33.21164321899414 4.066187858581543
-17.246747970581055 26.30746841430664 3.3778910636901855
-17.309772491455078 25.29647445678711 3.291457414627075
-17.308568954467773 24.249942779541016 3.199268102645874
-17.30634880065918 22.3216552734375 3.0329723358154297
-17.6776065826416 33.8506965637207 3.232769012451172
-19.35869598388672 33.74204635620117 3.293074369430542
-17.30856704711914 24.249940872192383 2.522094249725342
-17.30634880065918 22.321657180786133 2.3909974098205566
-15.802835464477539 35.211544036865234 2.3932948112487793
-16.03174591064453 33.9076042175293 2.325794219970703
-16.726913452148438 33.63737869262695 2.3295273780822754
-17.508953094482422 33.52775955200195 2.345492362976074
-17.246746063232422 25.204374313354492 1.8938148021697998
-17.246742248535156 24.163326263427734 1.840899109840393
-13.680686950683594 38.35294723510742 1.6056263446807861
-15.699296951293945 34.98081588745117 1.5118720531463623
-16.49202537536621 33.16502380371094 1.460495114326477
-16.983667373657227 32.52188491821289 1.4467039108276367
-18.04454803466797 32.94638442993164 1.4811946153640747
-19.199649810791016 33.46480941772461 1.5213007926940918
-17.246747970581055 26.307470321655273 1.2403757572174072
-17.246746063232422 25.204357147216797 1.204235315322876
-17.272764205932617 23.213464736938477 1.1409226655960083
-17.729055404663086 22.86687469482422 1.1409220695495605
-15.749850273132324 35.093475341796875 0.6497535705566406
-18.131441116333008 33.105037689208984 0.6375828385353088
-17.837162017822266 23.006296157836914 0.49173811078071594
-16.268888473510742 34.409141540527344 -0.21429184079170227
-16.738412857055664 33.66047286987305 -0.2116542011499405
-17.478818893432617 33.47003173828125 -0.2125912457704544
-18.388751983642578 33.57480239868164 -0.2155274897813797
-7.2358856201171875 31.789161682128906 -0.9180070161819458
-12.066020011901855 31.82048797607422 -0.9582456946372986
-12.87878131866455 32.03540802001953 -0.972209632396698
-15.117105484008789 31.97312355041504 -0.9958457946777344
-20.072317123413086 31.981300354003906 -1.0631941556930542
-10.473503112792969 42.138587951660156 -2.2020480632781982
-11.305930137634277 41.92291259765625 -2.2020480632781982
-11.438352584838867 32.06671905517578 -1.7266027927398682
-13.508437156677246 31.768882751464844 -1.7507370710372925
-15.79085922241211 31.75503158569336 -1.7985577583312988
-16.73651885986328 32.04867172241211 -1.8336048126220703
-17.471891403198242 31.90080451965332 -1.8445833921432495
-18.27954864501953 31.861093521118164 -1.8628594875335693
-20.906681060791016 31.89019203186035 -1.9338527917861938
-21.943368911743164 32.06801986694336 -1.970604658126831
-17.837162017822266 23.006311416625977 -1.476346731185913
-6.665536880493164 29.283475875854492 -2.2020480632781982
-7.244134902954102 29.145736694335938 -2.2020480632781982
-7.819910526275635 28.996557235717773 -2.2020480632781982
-8.392607688903809 28.83601951599121 -2.2020480632781982
-8.971057891845703 28.693178176879883 -2.2042768001556396
-10.234063148498535 28.69056510925293 -2.233480215072632
-11.911088943481445 28.01225471496582 -2.231886148452759
-13.543990135192871 27.23659896850586 -2.2303340435028076
-14.077509880065918 26.9569091796875 -2.2298266887664795
-14.605295181274414 26.666845321655273 -2.22932505607605
-16.15230369567871 25.735551834106445 -2.2278544902801514
-16.65522575378418 25.405181884765625 -2.2273764610290527
-17.151412963867188 25.06507110595703 -2.2269046306610107
-17.6407470703125 24.715335845947266 -2.2264394760131836
-18.12298583984375 24.35613250732422 -2.2259809970855713
-5.174458026885986 22.732789993286133 -2.2382864952087402
-5.62255859375 22.621583938598633 -2.237860679626465
-6.068291664123535 22.501516342163086 -2.2374370098114014
-6.511474609375 22.372716903686523 -2.237015724182129
-7.824080467224121 21.934356689453125 -2.2357680797576904
-8.25539779663086 21.771148681640625 -2.2353579998016357
-9.94522476196289 21.034425735473633 -2.2337517738342285
-10.358010292053223 20.829692840576172 -2.2333595752716064
-11.17084789276123 20.396137237548828 -2.2325868606567383
-11.965723991394043 19.931049346923828 -2.2318310737609863
-12.3560152053833 19.686880111694336 -2.2314600944519043
-12.741355895996094 19.43514060974121 -2.2310938835144043
-14.230355262756348 18.35426139831543 -2.2296783924102783
-4.546332836151123 18.29151725769043 -2.238881826400757
-4.90692663192749 18.195112228393555 -2.238538980484009
-5.265483379364014 18.091615676879883 -2.2381982803344727
-5.62187385559082 17.9810733795166 -2.2378594875335693
-6.327600479125977 17.73902702331543 -2.2371888160705566
-6.676646709442139 17.607635498046875 -2.2368569374084473
-7.366493225097656 17.324356079101562 -2.236201286315918
-8.709386825561523 16.67755126953125 -2.234924793243408
-10.30849838256836 15.72414779663086 -2.2334084510803223
-11.219640731811523 15.0784912109375 -2.232548713684082
-11.51462459564209 14.851510047912598 -2.2322707176208496
-3.5085551738739014 15.414041519165039 -2.2398693561553955
-3.8126330375671387 15.339567184448242 -2.239581346511841
-5.01201057434082 14.982142448425293 -2.238445281982422
-6.46462345123291 14.404385566711426 -2.237067699432373
-6.747792720794678 14.27182674407959 -2.2367990016937256
-7.0282745361328125 14.133716583251953 -2.2365329265594482
-4.368714332580566 8.36562442779541 -1.3372145891189575
-7.580657005310059 13.84107494354248 -2.236008644104004
-7.852395057678223 13.68665599822998 -2.235750913619995
-3.279930353164673 13.196317672729492 -2.2400941848754883
-3.7990777492523193 13.053215026855469 -2.2396016120910645
-4.056373596191406 12.97400951385498 -2.2393581867218018
-2.8160388469696045 8.41782283782959 -1.4622819423675537
-4.818050384521484 12.70617389678955 -2.2386391162872314
-5.562294960021973 12.39377498626709 -2.2379372119903564
-5.806024551391602 12.279932975769043 -2.2377066612243652
-4.197900295257568 8.441876411437988 -1.5531646013259888
-4.368709564208984 8.36562728881836 -1.5547513961791992
-4.856412887573242 8.46469497680664 -1.607670545578003
-6.988105297088623 11.639962196350098 -2.236588478088379
-5.31319522857666 8.46554183959961 -1.6465301513671875
-8.100870132446289 10.886966705322266 -2.235536575317383
-2.8752214908599854 11.568037033081055 -2.240492343902588
-2.2815001010894775 8.459921836853027 -1.6469435691833496
-2.9848828315734863 8.36795711517334 -1.669917106628418
-4.223901748657227 11.139257431030273 -2.2392148971557617
-5.731651306152344 10.465481758117676 -2.2428128719329834
-5.9486002922058105 10.36834716796875 -2.24680757522583
-6.160135269165039 10.2613525390625 -2.249619245529175
-6.3632707595825195 10.138608932495117 -2.2499046325683594
-2.5672900676727295 10.32907485961914 -2.249788522720337
-3.1765458583831787 10.159887313842773 -2.2501161098480225
-2.8160388469696045 8.417824745178223 -1.8762786388397217
-3.774905204772949 9.955145835876465 -2.2505240440368652
-3.971583843231201 9.879111289978027 -2.2506773471832275
-4.360311985015869 9.715533256530762 -2.2510106563568115
-4.742399215698242 9.5368013381958 -2.251377820968628
-4.368709564208984 8.36562728881836 -1.99492609500885
-5.117218017578125 9.343196868896484 -2.251779079437256
-5.301746845245361 9.240898132324219 -2.2519919872283936
-5.484246253967285 9.134991645812988 -2.2522132396698
-5.664653778076172 9.02550983428955 -2.2524425983428955
-5.9726691246032715 8.36794662475586 -2.173156976699829
-6.363938331604004 8.552718162536621 -2.2534396648406982
-2.311387777328491 9.299544334411621 -2.2521042823791504
-2.678051710128784 9.201491355895996 -2.252293109893799
-2.8160400390625 8.417821884155273 -2.0861494541168213
-2.9848856925964355 8.367959022521973 -2.088033437728882
-3.398529052734375 8.962592124938965 -2.2527670860290527
-3.7512474060058594 8.822099685668945 -2.253051519393921
-4.098221302032471 8.667851448059082 -2.2533671855926514
-4.438930511474609 8.500070571899414 -2.253713369369507
-4.606738567352295 8.411148071289062 -2.253887176513672
-4.77186393737793 8.317343711853027 -2.253636360168457
-5.412506580352783 7.909826278686523 -2.2525525093078613
-5.567337989807129 7.800088882446289 -2.2522621154785156
-5.870298385620117 7.571483612060547 -2.251659631729126
-1.9320788383483887 8.48813247680664 -2.253943920135498
-2.0998644828796387 8.448490142822266 -2.254018545150757
-2.432687997817993 8.35848331451416 -2.2539567947387695
-2.761387825012207 8.254522323608398 -2.253664970397949
-2.924126625061035 8.197644233703613 -2.253506898880005
-3.2459592819213867 8.074203491210938 -2.253166675567627
-3.562563419342041 7.938029766082764 -2.2527949810028076
-3.873405694961548 7.789333343505859 -2.252392530441284
-4.178020000457764 7.628378868103027 -2.2519595623016357
-4.4759039878845215 7.455417156219482 -2.251497268676758
-4.766579627990723 7.270741939544678 -2.2510061264038086
-5.0495829582214355 7.074657440185547 -2.2504870891571045
-5.188072204589844 6.9724345207214355 -2.2502171993255615
-5.324473857879639 6.867486000061035 -2.2499406337738037
-2.07159423828125 7.681565761566162 -2.252288818359375
-2.373887777328491 7.592668056488037 -2.252037525177002
-2.8199963569641113 7.436883449554443 -2.2516043186187744
-3.111825466156006 7.318326473236084 -2.251279354095459
-3.5400378704071045 7.118918418884277 -2.2507383823394775
-3.680001735687256 7.046810626983643 -2.250544309616089
-3.818490505218506 6.97193717956543 -2.250343084335327
-4.0908122062683105 6.8139777183532715 -2.2499208450317383
-4.356949806213379 6.645915985107422 -2.2496755123138428
-4.487665176391602 6.5582780838012695 -2.2496588230133057
-4.743752479553223 6.3753509521484375 -2.249630928039551
-4.869112491607666 6.2801666259765625 -2.249630928039551
-1.7651745080947876 7.101925373077393 -2.2508604526519775
-2.1834373474121094 6.9835357666015625 -2.2505240440368652
-2.321174383163452 6.938539505004883 -2.2503981590270996
-2.4579832553863525 6.890803813934326 -2.250265598297119
-2.8622522354125977 6.731385231018066 -2.2498273849487305
-3.25663685798645 6.5490546226501465 -2.24965763092041
-3.385685443878174 6.483239650726318 -2.2496449947357178
-3.5133726596832275 6.414886474609375 -2.249631643295288
-3.6397478580474854 6.344046115875244 -2.249630928039551
-3.9189293384552 6.244118690490723 -2.2674896717071533
-4.090458393096924 6.239482402801514 -2.2947773933410645
-4.6311540603637695 6.223879814147949 -2.386136770248413
-4.785125732421875 6.171792030334473 -2.4020309448242188
-1.5020666122436523 6.5990447998046875 -2.2496678829193115
-1.6324584484100342 6.567986965179443 -2.249661922454834
-1.762184977531433 6.534351825714111 -2.2496554851531982
-2.0195469856262207 6.4594035148620605 -2.249640941619873
-2.1470446586608887 6.418121337890625 -2.2496330738067627
-2.274014949798584 6.374338626861572 -2.249630928039551
-2.5243871212005615 6.279301643371582 -2.249630928039551
-2.6572046279907227 6.24915885925293 -2.2572450637817383
-2.800568103790283 6.240260601043701 -2.273622751235962
-3.0997416973114014 6.233493328094482 -2.3140976428985596
-3.253326416015625 6.229777812957764 -2.336182117462158
-3.4098503589630127 6.225828647613525 -2.359565258026123
-3.5695621967315674 6.221635818481445 -2.384305477142334
-3.841416597366333 6.1205735206604 -2.4020309448242188
-4.080787658691406 5.963654518127441 -2.4020309448242188
-4.198084831237793 5.88167667388916 -2.4020309448242188
-4.313710689544678 5.79738712310791 -2.4020309448242188
-1.68044912815094 6.231182098388672 -2.3079261779785156
-1.9469518661499023 6.227153778076172 -2.3331804275512695
-2.0824267864227295 6.2248663902282715 -2.3473167419433594
-2.3584582805633545 6.219716548919678 -2.3787522315979004
-2.8710851669311523 6.072421550750732 -2.4020309448242188
-3.2265923023223877 5.891226768493652 -2.4020309448242188
-3.4572715759277344 5.758839130401611 -2.4020309448242188
-3.570706605911255 5.68923807144165 -2.4020309448242188
-3.9022343158721924 5.46717643737793 -2.4020309448242188
-1.6320849657058716 6.0518412590026855 -2.4020309448242188
-1.7516088485717773 6.018334865570068 -2.4020309448242188
-2.2223777770996094 5.860846996307373 -2.4020309448242188
-2.337970018386841 5.815685749053955 -2.4020309448242188
-2.452779531478882 5.768248081207275 -2.4020309448242188
-2.9014978408813477 5.556059837341309 -2.4020309448242188
-3.3320841789245605 5.309020042419434 -2.4020309448242188
-3.641443967819214 5.101801872253418 -2.4020309448242188
-3.840609550476074 4.9536051750183105 -2.4020309448242188
-1.302559733390808 5.722615718841553 -2.4020309448242188
-1.4156566858291626 5.6956987380981445 -2.4020309448242188
-1.640053629875183 5.635171890258789 -2.4020309448242188
-1.7513659000396729 5.601587295532227 -2.4020309448242188
-1.8619506359100342 5.565805912017822 -2.4020309448242188
-2.4030699729919434 5.354467868804932 -2.4020309448242188
-2.7167723178863525 5.202329158782959 -2.4020309448242188
-2.920646905899048 5.0906662940979 -2.4020309448242188
-3.2177703380584717 4.908257961273193 -2.4020309448242188
-3.50353741645813 4.708532810211182 -2.4020309448242188
-1.5402075052261353 5.291981220245361 -2.4020309448242188
-1.6445848941802979 5.260441780090332 -2.4020309448242188
-1.7485558986663818 5.226840019226074 -2.4020309448242188
-1.9541552066802979 5.153501987457275 -2.4020309448242188
-2.0558276176452637 5.113790988922119 -2.4020309448242188
-2.2567150592803955 5.028372287750244 -2.4020309448242188
-2.551318407058716 4.885498046875 -2.4020309448242188
-2.8369085788726807 4.725383758544922 -2.4020309448242188
-2.9299347400665283 4.668274879455566 -2.4020309448242188
-3.021801710128784 4.609338760375977 -2.4020309448242188
-3.112485885620117 4.548593521118164 -2.4020309448242188
-3.201956033706665 4.48606538772583 -2.4020309448242188
-3.377082347869873 4.355754852294922 -2.4020309448242188
-1.151727318763733 5.059839248657227 -2.4020309448242188
-1.3511840105056763 5.010263442993164 -2.4020309448242188
-1.4501391649246216 4.982522964477539 -2.4020309448242188
-1.54852294921875 4.952828884124756 -2.4020309448242188
-1.6463048458099365 4.9211931228637695 -2.4020309448242188
-1.8398876190185547 4.852142333984375 -2.4020309448242188
-1.9356127977371216 4.814752578735352 -2.4020309448242188
-2.1247496604919434 4.734330177307129 -2.4020309448242188
-2.2180895805358887 4.691323757171631 -2.4020309448242188
-2.4021215438842773 4.599808692932129 -2.4020309448242188
-2.9304869174957275 4.282604694366455 -2.4020309448242188
-3.0977721214294434 4.163202285766602 -2.4020309448242188
-1.086830973625183 4.77474308013916 -2.4020309448242188
-1.2750585079193115 4.727960109710693 -2.4020309448242188
-1.4612683057785034 4.673762321472168 -2.4020309448242188
-1.6452038288116455 4.612229347229004 -2.4020309448242188
-1.7362158298492432 4.578746318817139 -2.4020309448242188
-2.0931053161621094 4.426991939544678 -2.4020309448242188
-2.352287530899048 4.294893741607666 -2.4020309448242188
-2.436882257461548 4.247466564178467 -2.4020309448242188
-2.520517587661743 4.198375225067139 -2.4020309448242188
-2.765367269515991 4.041301727294922 -2.4020309448242188
-2.923226833343506 3.9286277294158936 -2.4020309448242188
-3.000450372695923 3.86997127532959 -2.4020309448242188
-1.0276305675506592 4.514679908752441 -2.4020309448242188
-1.1168395280838013 4.49344539642334 -2.4020309448242188
-1.3816845417022705 4.419200420379639 -2.4020309448242188
-1.468927025794983 4.390972137451172 -2.4020309448242188
-1.7270654439926147 4.2960004806518555 -2.4020309448242188
-1.8118016719818115 4.260957717895508 -2.4020309448242188
-1.8958276510238647 4.224242687225342 -2.4020309448242188
-1.9791088104248047 4.18587064743042 -2.4020309448242188
-2.143312931060791 4.104217529296875 -2.4020309448242188
-2.224169969558716 4.060965538024902 -2.4020309448242188
-2.304156541824341 4.016124248504639 -2.4020309448242188
-2.4613842964172363 3.921731472015381 -2.4020309448242188
-2.538564443588257 3.8722198009490967 -2.4020309448242188
-2.7640106678009033 3.714651346206665 -2.4020309448242188
-2.8370275497436523 3.6591880321502686 -2.4020309448242188
-0.9733666777610779 4.2762603759765625 -2.4020309448242188
-1.3087170124053955 4.185822486877441 -2.4020309448242188
-1.473446011543274 4.130714416503906 -2.4020309448242188
-1.5549572706222534 4.100726127624512 -2.4020309448242188
-1.7161206007003784 4.035935401916504 -2.4020309448242188
-1.8745909929275513 3.9648144245147705 -2.4020309448242188
-2.2573766708374023 3.760066509246826 -2.4020309448242188
-2.3313963413238525 3.7146239280700684 -2.4020309448242188
-2.4045019149780273 3.667726993560791 -2.4020309448242188
-2.5478527545928955 3.5696349143981934 -2.4020309448242188
-2.6180431842803955 3.5184788703918457 -2.4020309448242188
-0.9233837723731995 4.056677341461182 -2.4020309448242188
-1.0035388469696045 4.037594318389893 -2.4020309448242188
-1.3199083805084229 3.9455180168151855 -2.4020309448242188
-1.7783312797546387 3.761223554611206 -2.4020309448242188
-1.9985326528549194 3.648991584777832 -2.4020309448242188
-2.070406436920166 3.608696222305298 -2.4020309448242188
-2.1414623260498047 3.566988945007324 -2.4020309448242188
-2.2116808891296387 3.5238800048828125 -2.4020309448242188
-2.2810325622558594 3.479390859603882 -2.4020309448242188
-2.3494861125946045 3.4335362911224365 -2.4020309448242188
-2.4836058616638184 3.337808132171631 -2.4020309448242188
-2.549217462539673 3.287970542907715 -2.4020309448242188
