ply
format ascii 1.0
element vertex 333
property float x
property float y
property float z
end_header
-17.71442413330078 34.761009216308594 6.879300594329834
-17.30767250061035 23.47022819519043 5.142000198364258
-17.306541442871094 22.488006591796875 5.003544807434082
-17.305471420288086 21.556913375854492 4.87435245513916
-17.837158203125 20.441736221313477 4.783724784851074
-17.246736526489258 18.965341567993164 4.520074367523193
-16.94130516052246 35.000545501708984 5.956969261169434
-17.246746063232422 25.515897750854492 4.718067646026611
-17.24673843383789 22.410303115844727 4.332103252410889
-17.246736526489258 21.483747482299805 4.220503330230713
-17.837158203125 20.44174575805664 4.156143665313721
-17.246736526489258 18.965349197387695 3.927081823348999
-17.246734619140625 18.20090103149414 3.8412487506866455
-16.450056076049805 33.98564910888672 4.916812419891357
-17.246747970581055 26.679555892944336 4.1369476318359375
-17.246742248535156 23.38760757446289 3.7840991020202637
-17.837158203125 20.44174575805664 3.5328729152679443
-17.306432723999023 18.263914108276367 3.276503801345825
-16.64794921875 34.394474029541016 4.103239059448242
-17.844867706298828 33.309818267822266 4.0578131675720215
-17.306543350219727 22.488014221191406 3.0471227169036865
-17.305471420288086 21.556913375854492 2.9684410095214844
-17.837158203125 20.44173812866211 2.913250684738159
-17.30643081665039 18.263916015625 2.7018487453460693
-17.095346450805664 35.31878662109375 3.321655750274658
-17.237899780273438 33.8259162902832 3.213839054107666
-17.63553237915039 32.91907501220703 3.161391496658325
-18.75783920288086 33.351959228515625 3.2392382621765137
-17.308866500854492 24.508832931518555 2.539978504180908
-17.30767059326172 23.470239639282227 2.468623161315918
-17.306541442871094 22.488019943237305 2.4021522998809814
-17.062702178955078 33.48213577270508 2.330291748046875
-17.246746063232422 25.515907287597656 1.909788966178894
-17.246742248535156 24.420873641967773 1.8539212942123413
-17.246742248535156 23.387603759765625 1.801962971687317
-17.246736526489258 21.483749389648438 1.708383560180664
-17.473236083984375 20.87393569946289 1.6880451440811157
-15.286993980407715 33.30817794799805 1.4450953006744385
-16.257055282592773 33.586910247802734 1.4713490009307861
-17.837158203125 21.308683395385742 1.095745325088501
-17.837160110473633 19.614606857299805 1.0454026460647583
-17.837158203125 18.823993682861328 1.02255380153656
-15.916535377502441 34.67985916137695 0.6445552110671997
-16.79363441467285 32.95413589477539 0.6247676014900208
-17.837162017822266 23.177507400512695 0.49402663111686707
-17.837160110473633 22.219228744506836 0.48129987716674805
-17.837158203125 18.823991775512695 0.43804946541786194
-16.099233627319336 35.07792663574219 -0.2173028588294983
-16.274763107299805 33.623477935791016 -0.210316464304924
-18.855106353759766 33.52490234375 -0.21655654907226562
-17.837162017822266 23.177499771118164 -0.16466324031352997
-17.837158203125 20.441736221313477 -0.1527458131313324
-17.837158203125 18.824003219604492 -0.14600661396980286
-12.297825813293457 31.825693130493164 -0.9607157707214355
-13.084528923034668 31.899555206298828 -0.9708453416824341
-13.783985137939453 31.7347412109375 -0.9742304682731628
-15.407466888427734 31.831693649291992 -0.9957841038703918
-17.077877044677734 31.878141403198242 -1.0183101892471313
-19.70994758605957 31.906938552856445 -1.0560227632522583
-20.63990020751953 31.92848777770996 -1.0705252885818481
-21.62828826904297 31.99823570251465 -1.0875135660171509
-22.521501541137695 31.889774322509766 -1.0992960929870605
-17.837162017822266 23.177499771118164 -0.8235166668891907
-17.837162017822266 22.21922492980957 -0.8023019433021545
-17.837158203125 21.308685302734375 -0.7824734449386597
-17.837158203125 20.44174575805664 -0.7639157176017761
-11.609112739562988 31.979461669921875 -1.725372076034546
-13.900474548339844 32.0029296875 -1.7694921493530273
-14.634353637695312 31.886180877685547 -1.7792623043060303
-15.412065505981445 31.84121322631836 -1.7940200567245483
-17.065996170043945 31.8559627532959 -1.8327785730361938
-17.998807907104492 32.00236892700195 -1.8620556592941284
-19.662221908569336 31.829662322998047 -1.8973708152770996
-21.707109451293945 32.11484909057617 -1.9658364057540894
-22.514415740966797 31.879745483398438 -1.9792959690093994
-17.837162017822266 23.177499771118164 -1.4832175970077515
-17.837160110473633 19.614604949951172 -1.3445473909378052
-17.837158203125 18.823993682861328 -1.3151601552963257
-10.393556594848633 28.630971908569336 -2.2333285808563232
-11.553383827209473 28.166688919067383 -2.2322261333465576
-12.125741958618164 27.91697120666504 -2.231682062149048
-12.692754745483398 27.655696868896484 -2.2311432361602783
-13.254194259643555 27.382972717285156 -2.23060941696167
-14.35937213897705 26.803686141967773 -2.2295587062835693
-14.902692794799805 26.497377395629883 -2.2290422916412354
-15.969667434692383 25.85207176208496 -2.2280280590057373
-17.51775550842285 24.80461311340332 -2.2265563011169434
-17.837162017822266 23.17749786376953 -2.1444194316864014
-17.837160110473633 22.21922492980957 -2.089177370071411
-17.837158203125 20.44173240661621 -1.9892181158065796
-7.946150302886963 21.889144897460938 -2.235652208328247
-8.391871452331543 21.717435836791992 -2.2352283000946045
-8.833892822265625 21.536691665649414 -2.2348082065582275
-9.706193923950195 21.148395538330078 -2.2339792251586914
-12.616965293884277 19.517595291137695 -2.2312121391296387
-13.012476921081543 19.25146484375 -2.2308361530303955
-13.402362823486328 18.97734260559082 -2.2304654121398926
-14.16482925415039 18.40570068359375 -2.229740619659424
-14.903124809265137 17.803638458251953 -2.229038715362549
-6.426376819610596 17.702646255493164 -2.2370948791503906
-6.787100791931152 17.564409255981445 -2.2367520332336426
-7.144846439361572 17.418855667114258 -2.2364120483398438
-7.499505996704102 17.266035079956055 -2.236074686050415
-7.85091495513916 17.106016159057617 -2.2357406616210938
-8.198923110961914 16.93887710571289 -2.23540997505188
-8.884187698364258 16.583511352539062 -2.2347586154937744
-9.221121788024902 16.395448684692383 -2.2344391345977783
-9.883069038391113 15.99894905090332 -2.233811378479004
-10.207795143127441 15.790694236755371 -2.233503580093384
-10.528063774108887 15.575881004333496 -2.233201265335083
-10.84389591217041 15.35461139678955 -2.232903242111206
-7.329592704772949 8.39986515045166 -1.3242396116256714
-12.637293815612793 13.89660358428955 -2.2312064170837402
-5.692638397216797 14.73210334777832 -2.237800359725952
-5.992854595184326 14.610382080078125 -2.2375152111053467
-6.290472984313965 14.48255443572998 -2.2372329235076904
-6.585408687591553 14.34868335723877 -2.236953020095825
-4.305117130279541 8.447940826416016 -1.3434487581253052
-7.735511302947998 13.753952026367188 -2.2358617782592773
-8.015052795410156 13.590777397155762 -2.2355966567993164
-8.832666397094727 13.06758975982666 -2.2348227500915527
-5.90106725692749 8.355738639831543 -1.4493986368179321
-9.359134674072266 12.691524505615234 -2.2343287467956543
-9.616440773010254 12.495540618896484 -2.2340872287750244
-9.869672775268555 12.294351577758789 -2.2338500022888184
-10.118717193603516 12.088045120239258 -2.233614921569824
-7.329591274261475 8.399868965148926 -1.5795650482177734
-7.702426433563232 8.469970703125 -1.6221280097961426
-8.026498794555664 8.470571517944336 -1.65343177318573
-4.897799491882324 12.675150871276855 -2.2385637760162354
-5.412399768829346 12.460905075073242 -2.2380785942077637
-5.666257381439209 12.345942497253418 -2.2378389835357666
-4.48405122756958 8.37009048461914 -1.5642858743667603
-6.896934509277344 11.694828987121582 -2.2366747856140137
-7.1346330642700195 11.549736976623535 -2.2364501953125
-5.472664833068848 8.465837478637695 -1.6606850624084473
-7.600855350494385 11.245176315307617 -2.236009359359741
-5.901064872741699 8.35573959350586 -1.6851766109466553
-8.054129600524902 10.921878814697266 -2.235581159591675
-7.329593181610107 8.39986515045166 -1.836535096168518
-9.394935607910156 9.914695739746094 -2.250157117843628
-3.470982074737549 8.462126731872559 -1.7191506624221802
-3.675684690475464 8.462506294250488 -1.7341833114624023
-4.305117607116699 8.447938919067383 -1.7821829319000244
-5.855006694793701 10.41049575805664 -2.245013952255249
-6.078052043914795 10.306361198425293 -2.2489748001098633
-6.704587459564209 9.91917610168457 -2.250365972518921
-5.901064872741699 8.35573959350586 -1.9227322340011597
-7.107640743255615 9.638384819030762 -2.2509591579437256
-7.499067306518555 9.341368675231934 -2.251589298248291
-8.244467735290527 8.70059585571289 -2.2529571056365967
-3.6328399181365967 10.007332801818848 -2.2504191398620605
-3.837609052658081 9.931384086608887 -2.2505719661712646
-4.242341995239258 9.767078399658203 -2.2509050369262695
-4.442143440246582 9.678781509399414 -2.2510857582092285
-4.305117607116699 8.447940826416016 -2.004227876663208
-5.222357273101807 9.285491943359375 -2.251899003982544
-5.785342216491699 8.949528694152832 -2.2526021003723145
-6.50242805480957 8.449217796325684 -2.253659248352051
-6.673741340637207 8.313288688659668 -2.2534494400024414
-3.4549784660339355 8.941181182861328 -2.25281023979187
-3.637880802154541 8.869009971618652 -2.2529561519622803
-3.819295644760132 8.79312801361084 -2.253110647201538
-3.9991443157196045 8.713566780090332 -2.2532732486724854
-4.3538408279418945 8.543537139892578 -2.2536234855651855
-4.870731830596924 8.259077072143555 -2.2534806728363037
-5.038492202758789 8.156439781188965 -2.253206968307495
-5.367425441741943 7.940907955169678 -2.2526347637176514
-5.687076091766357 7.71201229095459 -2.2520298957824707
-5.843246936798096 7.592678546905518 -2.2517154216766357
-5.996897220611572 7.470157146453857 -2.2513930797576904
-6.147964954376221 7.3445000648498535 -2.251063346862793
-6.296374320983887 7.2157721519470215 -2.2507259845733643
-6.442071914672852 7.084017276763916 -2.2503812313079834
-6.58499002456665 6.949304580688477 -2.2500293254852295
-2.969846725463867 8.181004524230957 -2.2534608840942383
-3.1367931365966797 8.11773681640625 -2.253286361694336
-3.302358865737915 8.05103588104248 -2.253103256225586
-3.466517925262451 7.980927467346191 -2.2529120445251465
-3.6291637420654297 7.907443523406982 -2.2527120113372803
-3.7902538776397705 7.830619812011719 -2.2525041103363037
-3.9496917724609375 7.750478267669678 -2.2522878646850586
-4.107430934906006 7.667067527770996 -2.252063512802124
-4.417512893676758 7.490583896636963 -2.251591205596924
-4.868170738220215 7.202270984649658 -2.2508246898651123
-5.29993200302124 6.886695861816406 -2.2499914169311523
-5.439363956451416 6.77565336227417 -2.249699354171753
-5.57712984085083 6.662591934204102 -2.249678134918213
-5.712578773498535 6.546733856201172 -2.2496559619903564
-5.845632076263428 6.4281182289123535 -2.2496330738067627
-2.7141308784484863 7.476580619812012 -2.2517142295837402
-2.8667118549346924 7.41880464553833 -2.2515547275543213
-3.0180554389953613 7.3578972816467285 -2.251387596130371
-3.3167736530303955 7.2267746925354 -2.251030206680298
-3.464019775390625 7.156624794006348 -2.250840187072754
-3.753959894180298 7.007265567779541 -2.2504379749298096
-3.8965344429016113 6.92814302444458 -2.250225782394409
-4.037429332733154 6.846096515655518 -2.2500064373016357
-4.176583766937256 6.761152744293213 -2.2497801780700684
-4.450140953063965 6.583826065063477 -2.2496635913848877
-4.5842180252075195 6.491113662719727 -2.249645709991455
-4.716529846191406 6.395673751831055 -2.249630928039551
-4.846556186676025 6.29758358001709 -2.249630928039551
-2.4964184761047363 6.876838684082031 -2.2502267360687256
-2.775994300842285 6.767761707305908 -2.249926805496216
-2.9140191078186035 6.70891809463501 -2.2497661113739014
-3.453866481781006 6.4471435546875 -2.249638080596924
-3.7153990268707275 6.300040245056152 -2.249630928039551
-4.215060234069824 6.236018657684326 -2.3151214122772217
-4.400317668914795 6.230719089508057 -2.3461737632751465
-4.888890266418457 6.089916229248047 -2.4020309448242188
-5.012754917144775 5.9883551597595215 -2.4020309448242188
-2.439347982406616 6.312823295593262 -2.249630928039551
-2.568565607070923 6.26146125793457 -2.249630928039551
-3.018054723739624 6.2354021072387695 -2.3027162551879883
-3.1756999492645264 6.23167610168457 -2.3249118328094482
-3.336329936981201 6.22770357131958 -2.348472833633423
-3.5002129077911377 6.223475933074951 -2.3734583854675293
-3.7976677417755127 6.147806167602539 -2.4020309448242188
-4.1685991287231445 5.9026103019714355 -2.4020309448242188
-4.288649082183838 5.815861225128174 -2.4020309448242188
-4.407189846038818 5.726670265197754 -2.4020309448242188
-4.638358116149902 5.54109001159668 -2.4020309448242188
-4.751039505004883 5.444784641265869 -2.4020309448242188
-4.970355033874512 5.245341777801514 -2.4020309448242188
-2.2585716247558594 6.221653938293457 -2.366974353790283
-2.4030284881591797 6.21882438659668 -2.384152889251709
-2.801823139190674 6.104703903198242 -2.4020309448242188
-3.1719329357147217 5.920835018157959 -2.4020309448242188
-3.2927093505859375 5.854528903961182 -2.4020309448242188
-3.5300474166870117 5.71455192565918 -2.4020309448242188
-3.646538019180298 5.640941143035889 -2.4020309448242188
-3.761475086212158 5.564961910247803 -2.4020309448242188
-3.9865520000457764 5.406002044677734 -2.4020309448242188
-4.4162187576293945 5.061076641082764 -2.4020309448242188
-4.620078086853027 4.875687122344971 -2.4020309448242188
-2.138847589492798 5.891843318939209 -2.4020309448242188
-2.259249210357666 5.846732139587402 -2.4020309448242188
-2.3787682056427 5.799163818359375 -2.4020309448242188
-2.845994234085083 5.584693431854248 -2.4020309448242188
-2.959951162338257 5.525140285491943 -2.4020309448242188
-3.07265567779541 5.463267803192139 -2.4020309448242188
-3.402583599090576 5.263951778411865 -2.4020309448242188
-3.615870952606201 5.119958877563477 -2.4020309448242188
-3.7201316356658936 5.044714450836182 -2.4020309448242188
-3.822821617126465 4.967348575592041 -2.4020309448242188
-3.9239048957824707 4.887890338897705 -2.4020309448242188
-4.023339748382568 4.806374549865723 -2.4020309448242188
-4.21708869934082 4.637314319610596 -2.4020309448242188
-2.002675771713257 5.516734600067139 -2.4020309448242188
-2.1154112815856934 5.474495887756348 -2.4020309448242188
-2.2272534370422363 5.429954528808594 -2.4020309448242188
-2.3381640911102295 5.383127212524414 -2.4020309448242188
-2.448211669921875 5.334031105041504 -2.4020309448242188
-2.556960344314575 5.282698631286621 -2.4020309448242188
-2.6648035049438477 5.22913932800293 -2.4020309448242188
-2.981351852416992 5.055354118347168 -2.4020309448242188
-3.084420680999756 4.993136405944824 -2.4020309448242188
-3.385660409927368 4.79399299621582 -2.4020309448242188
-3.674083709716797 4.576698303222656 -2.4020309448242188
-3.8587052822113037 4.422154903411865 -2.4020309448242188
-3.948594808578491 4.342075824737549 -2.4020309448242188
-4.0368332862854 4.260171413421631 -2.4020309448242188
-1.880703091621399 5.180758476257324 -2.4020309448242188
-1.9865795373916626 5.141089916229248 -2.4020309448242188
-2.0916075706481934 5.09926176071167 -2.4020309448242188
-2.2989916801452637 5.00918436050415 -2.4020309448242188
-2.401259660720825 4.960973262786865 -2.4020309448242188
-2.6027112007141113 4.858312129974365 -2.4020309448242188
-2.7018139362335205 4.803905010223389 -2.4020309448242188
-2.8965721130371094 4.689047813415527 -2.4020309448242188
-3.086456298828125 4.5662994384765625 -2.4020309448242188
-3.1794676780700684 4.502032279968262 -2.4020309448242188
-3.27114200592041 4.4358673095703125 -2.4020309448242188
-3.537760019302368 4.226292610168457 -2.4020309448242188
-3.6237058639526367 4.152839183807373 -2.4020309448242188
-3.7081260681152344 4.07763671875 -2.4020309448242188
-1.969295620918274 4.80107307434082 -2.4020309448242188
-2.067359685897827 4.759669780731201 -2.4020309448242188
-2.164553165435791 4.7162628173828125 -2.4020309448242188
-2.260838508605957 4.670872688293457 -2.4020309448242188
-2.3561718463897705 4.623514175415039 -2.4020309448242188
-2.450512647628784 4.574213027954102 -2.4020309448242188
-2.636061906814575 4.469857692718506 -2.4020309448242188
-3.248563766479492 4.046638488769531 -2.4020309448242188
-3.330886125564575 3.9791526794433594 -2.4020309448242188
-3.4118030071258545 3.9099926948547363 -2.4020309448242188
-3.4912846088409424 3.839188814163208 -2.4020309448242188
-1.6709532737731934 4.602963924407959 -2.4020309448242188
-1.765020728111267 4.567719459533691 -2.4020309448242188
-2.042592763900757 4.450524806976318 -2.4020309448242188
-2.4875328540802 4.218003273010254 -2.4020309448242188
-2.5735301971435547 4.1660919189453125 -2.4020309448242188
-2.824871778488159 3.999934673309326 -2.4020309448242188
-3.0655224323272705 3.818631410598755 -2.4020309448242188
-3.2945690155029297 3.6228697299957275 -2.4020309448242188
-3.36818528175354 3.554532289505005 -2.4020309448242188
-1.5799486637115479 4.35225772857666 -2.4020309448242188
-1.7571227550506592 4.283793926239014 -2.4020309448242188
-2.017252206802368 4.1676225662231445 -2.4020309448242188
-2.102313280105591 4.125366687774658 -2.4020309448242188
-2.1864917278289795 4.081375598907471 -2.4020309448242188
-2.3520469665527344 3.9882652759552 -2.4020309448242188
-2.513646125793457 3.8884379863739014 -2.4020309448242188
-2.5928783416748047 3.836061954498291 -2.4020309448242188
-2.823885440826416 3.6693408489227295 -2.4020309448242188
-3.0442090034484863 3.488722562789917 -2.4020309448242188
-3.1151280403137207 3.425546884536743 -2.4020309448242188
-1.4965100288391113 4.122413635253906 -2.4020309448242188
-1.5807530879974365 4.090851306915283 -2.4020309448242188
-1.6643297672271729 4.057567596435547 -2.4020309448242188
-1.7472070455551147 4.022575378417969 -2.4020309448242188
-1.8293492794036865 3.985891103744507 -2.4020309448242188
-1.9912914037704468 3.9075067043304443 -2.4020309448242188
-2.0710229873657227 3.865839719772339 -2.4020309448242188
-2.1498804092407227 3.82254695892334 -2.4020309448242188
-2.2278356552124023 3.777644634246826 -2.4020309448242188
-2.30485463142395 3.731152296066284 -2.4020309448242188
-2.380902051925659 3.6830906867980957 -2.4020309448242188
-2.4559483528137207 3.633478879928589 -2.4020309448242188
-2.7454822063446045 3.419966459274292 -2.4020309448242188
-2.8834424018859863 3.304482936859131 -2.4020309448242188
-1.4196642637252808 3.910731792449951 -2.4020309448242188
-1.578865885734558 3.849213123321533 -2.4020309448242188
-1.6574877500534058 3.8160197734832764 -2.4020309448242188
-1.8126085996627808 3.744826555252075 -2.4020309448242188
-1.9646753072738647 3.667330741882324 -2.4020309448242188
-2.0394835472106934 3.626260995864868 -2.4020309448242188
-2.186500310897827 3.5395593643188477 -2.4020309448242188
-2.3298351764678955 3.446904182434082 -2.4020309448242188
-2.4692468643188477 3.3484458923339844 -2.4020309448242188
-2.6705029010772705 3.1902458667755127 -2.4020309448242188
-2.8616490364074707 3.019970655441284 -2.4020309448242188
