ply
format ascii 1.0
element vertex 441
property float x
property float y
property float z
end_header
32.903709411621094 -35.05247116088867 8.477143287658691
33.11475372314453 -33.89854431152344 8.35591983795166
33.08686828613281 -28.86967658996582 7.742739200592041
32.90372085571289 -27.57530403137207 7.569852828979492
28.90357780456543 -22.325536727905273 6.4397873878479
18.353004455566406 -13.601346969604492 4.027944087982178
29.1146183013916 -20.691450119018555 6.298098087310791
28.90357780456543 -19.687137603759766 6.166403293609619
30.0881290435791 -19.628429412841797 6.334458351135254
29.69304656982422 -17.726600646972656 6.097723484039307
27.23126220703125 -13.442511558532715 5.3547821044921875
28.74698257446289 -30.624296188354492 6.434597492218018
29.114608764648438 -29.803730010986328 6.382754325866699
29.114608764648438 -26.44314193725586 6.0252366065979
29.114614486694336 -24.399799346923828 5.819393634796143
28.90357780456543 -23.259023666381836 5.68349027633667
29.1146183013916 -21.57673454284668 5.551507949829102
29.1146183013916 -20.691450119018555 5.471843719482422
30.088125228881836 -19.628429412841797 5.5034332275390625
21.76911735534668 -13.591235160827637 3.931513547897339
31.18661117553711 -17.785625457763672 5.499942302703857
28.98440933227539 -32.1363525390625 5.6354804039001465
29.114608764648438 -29.803730010986328 5.425572872161865
29.114614486694336 -26.443134307861328 5.121669292449951
29.114614486694336 -24.399791717529297 4.946694850921631
29.0086612701416 -22.406702041625977 4.773197650909424
29.1146183013916 -21.576740264892578 4.718985080718994
28.90357780456543 -19.687137603759766 4.554007053375244
30.89371109008789 -18.443391799926758 4.685380935668945
31.07625961303711 -17.722684860229492 4.658607006072998
31.143320083618164 -16.948143005371094 4.617143630981445
31.747753143310547 -16.466266632080078 4.657207012176514
29.11458969116211 -39.57265090942383 5.275552272796631
28.96058464050293 -37.764198303222656 5.110345363616943
28.903564453125 -36.1746826171875 4.972163200378418
29.114599227905273 -34.986778259277344 4.8876214027404785
28.935375213623047 -30.824989318847656 4.539893627166748
29.114608764648438 -28.639888763427734 4.385468482971191
28.29745101928711 -25.70094871520996 4.104855060577393
28.301923751831055 -24.69461441040039 4.033357620239258
28.37777328491211 -23.782278060913086 3.9758732318878174
28.37777328491211 -22.835906982421875 3.911375045776367
29.621313095092773 -19.323898315429688 3.7977867126464844
30.027616500854492 -18.747312545776367 3.8012523651123047
26.035579681396484 -13.503592491149902 3.1494176387786865
27.23126220703125 -13.442511558532715 3.261021137237549
32.38992691040039 -15.194547653198242 3.841778516769409
29.11458969116211 -39.57264709472656 4.158903121948242
28.37775421142578 -35.516605377197266 3.848422050476074
28.377758026123047 -31.4637393951416 3.5867857933044434
28.29744529724121 -28.96722412109375 3.4280149936676025
28.37776756286621 -25.773900985717773 3.245185375213623
28.37777328491211 -24.760780334472656 3.1881566047668457
28.37777328491211 -20.167781829833984 2.9471306800842285
28.37029266357422 -19.323896408081055 2.905806303024292
30.042264938354492 -18.75645637512207 2.998120069503784
29.535917282104492 -17.632787704467773 2.9119653701782227
30.841468811035156 -16.783872604370117 2.9723784923553467
31.734378814697266 -16.459331512451172 3.0262389183044434
27.231264114379883 -13.442511558532715 2.570777416229248
32.38992691040039 -15.194551467895508 3.0286076068878174
28.37775421142578 -35.5166015625 2.8190672397613525
28.37775421142578 -34.10132598876953 2.7510485649108887
28.377763748168945 -31.46373176574707 2.627411365509033
28.377763748168945 -30.230958938598633 2.5711541175842285
28.29745101928711 -27.83605194091797 2.4614200592041016
28.37777328491211 -23.782270431518555 2.295968532562256
28.37777328491211 -22.835906982421875 2.2587225437164307
28.297454833984375 -20.971139907836914 2.184079170227051
28.37029266357422 -19.323896408081055 2.1285769939422607
29.62131690979004 -19.323898315429688 2.1931281089782715
30.951141357421875 -19.32390022277832 2.2626428604125977
32.38992691040039 -15.194546699523926 2.2185325622558594
28.37775421142578 -35.5166015625 1.7925831079483032
28.377758026123047 -34.101318359375 1.7493318319320679
28.297441482543945 -32.659507751464844 1.7039436101913452
28.29744529724121 -31.37468719482422 1.665984034538269
28.29745101928711 -27.83605194091797 1.5651637315750122
28.297454833984375 -22.771268844604492 1.432207703590393
28.297454833984375 -21.857357025146484 1.4098942279815674
30.951141357421875 -19.32390022277832 1.4387648105621338
32.38992691040039 -15.194550514221191 1.4107164144515991
28.29744529724121 -32.659507751464844 0.7299497723579407
28.29745101928711 -30.14540672302246 0.6984071135520935
28.29745101928711 -28.96722412109375 0.6840327382087708
28.297454833984375 -23.7149658203125 0.6236580014228821
28.297460556030273 -20.97114372253418 0.5949491858482361
28.370283126831055 -19.323896408081055 0.5798298716545105
29.621313095092773 -19.323896408081055 0.5974137783050537
32.36861801147461 -19.32390022277832 0.6367866396903992
31.153255462646484 -17.766599655151367 0.6057947874069214
31.476898193359375 -17.129671096801758 0.6053339838981628
32.38992691040039 -16.799331665039062 0.6163355708122253
32.38992691040039 -15.194549560546875 0.6043342351913452
29.265926361083984 -33.777305603027344 -0.2516264319419861
28.29745101928711 -31.37468910217285 -0.23787948489189148
28.650115966796875 -29.3282413482666 -0.2308361828327179
28.650121688842773 -23.055070877075195 -0.20704787969589233
28.650121688842773 -22.1297607421875 -0.20382201671600342
28.650121688842773 -21.232500076293945 -0.20077407360076904
28.297460556030273 -20.110708236694336 -0.19545669853687286
29.62131690979004 -19.323896408081055 -0.19912399351596832
30.95113182067871 -19.32390022277832 -0.20543548464775085
32.38992691040039 -18.47187042236328 -0.20993269979953766
32.38992691040039 -17.626544952392578 -0.2076164186000824
28.297441482543945 -35.416080474853516 -1.2764642238616943
28.367572784423828 -34.08909606933594 -1.2487528324127197
28.342060089111328 -32.711021423339844 -1.2187081575393677
28.29744529724121 -31.37468719482422 -1.1896833181381226
28.65011215209961 -30.52109718322754 -1.178719401359558
28.650115966796875 -29.32823371887207 -1.1544593572616577
28.650115966796875 -28.18297576904297 -1.1316159963607788
28.650115966796875 -27.081754684448242 -1.110090970993042
28.650115966796875 -26.021263122558594 -1.0897942781448364
28.650121688842773 -22.129762649536133 -1.0193557739257812
28.650121688842773 -21.232500076293945 -1.00411057472229
28.37029266357422 -19.323896408081055 -0.9665482640266418
29.621313095092773 -19.323896408081055 -0.9958595037460327
32.36863327026367 -19.32390022277832 -1.0614917278289795
32.38991928100586 -18.47186279296875 -1.049917459487915
32.38992691040039 -17.626541137695312 -1.038331151008606
32.38992691040039 -16.799333572387695 -1.0274015665054321
32.38992691040039 -15.194552421569824 -1.0073957443237305
25.570924758911133 -36.246604919433594 -2.2496156692504883
26.28762435913086 -35.730224609375 -2.2496156692504883
27.68947410583496 -34.655174255371094 -2.2496156692504883
28.294574737548828 -34.00137710571289 -2.243312120437622
27.988216400146484 -32.302635192871094 -2.1675829887390137
28.29744529724121 -31.37468910217285 -2.1427104473114014
28.65011215209961 -30.52109718322754 -2.1229641437530518
28.650115966796875 -29.32823944091797 -2.0792694091796875
28.650115966796875 -26.021263122558594 -1.9628030061721802
28.650121688842773 -24.01051902770996 -1.8957470655441284
28.650121688842773 -21.23249626159668 -1.8084797859191895
29.62131690979004 -19.323896408081055 -1.793619155883789
30.951147079467773 -19.323898315429688 -1.8504709005355835
30.553983688354492 -17.424835205078125 -1.7837955951690674
31.05855369567871 -16.902015686035156 -1.7932459115982056
32.38992691040039 -16.799335479736328 -1.8504292964935303
27.231258392333984 -13.442513465881348 -1.540113091468811
32.38992691040039 -15.194554328918457 -1.8143961429595947
18.884647369384766 -26.76885414123535 -2.4020156860351562
20.954837799072266 -25.181264877319336 -2.4020156860351562
22.420976638793945 -23.885177612304688 -2.4020156860351562
23.354251861572266 -22.97347068786621 -2.4020156860351562
23.807104110717773 -22.503841400146484 -2.4020156860351562
24.65049171447754 -19.04037857055664 -2.2838211059570312
24.65825080871582 -18.274141311645508 -2.250373125076294
25.010908126831055 -17.77498435974121 -2.2498016357421875
25.362918853759766 -17.275482177734375 -2.250070095062256
26.356407165527344 -15.734642028808594 -2.250690460205078
27.23126220703125 -13.442511558532715 -2.226679801940918
27.776784896850586 -13.03046989440918 -2.2496185302734375
14.42281723022461 -20.444238662719727 -2.4020156860351562
15.617768287658691 -19.546642303466797 -2.4020156860351562
16.757001876831055 -18.579261779785156 -2.4020156860351562
17.123647689819336 -18.241899490356445 -2.4020156860351562
17.48347282409668 -17.897289276123047 -2.4020156860351562
18.18227195739746 -17.186941146850586 -2.4020156860351562
18.520883560180664 -16.821456909179688 -2.4020156860351562
19.176006317138672 -16.07064437866211 -2.4020156860351562
19.492218017578125 -15.6856050491333 -2.4020156860351562
19.800703048706055 -15.294342994689941 -2.4020156860351562
20.39392852783203 -14.49378776550293 -2.4020156860351562
21.48265266418457 -12.825030326843262 -2.4020159244537354
21.733774185180664 -12.394692420959473 -2.4020161628723145
21.97630500793457 -11.959447860717773 -2.4020164012908936
22.21024513244629 -11.519462585449219 -2.40201735496521
22.65114974975586 -10.625958442687988 -2.402017831802368
11.98351001739502 -16.28803062438965 -2.4020156860351562
13.241605758666992 -15.282809257507324 -2.4020156860351562
14.130471229553223 -14.464927673339844 -2.4020156860351562
14.415721893310547 -14.180669784545898 -2.4020156860351562
14.695282936096191 -13.890800476074219 -2.4020156860351562
14.968915939331055 -13.59542465209961 -2.4020156860351562
15.23665714263916 -13.294649124145508 -2.4020156860351562
15.4984130859375 -12.988601684570312 -2.4020159244537354
15.753881454467773 -12.677399635314941 -2.4020161628723145
16.003305435180664 -12.361184120178223 -2.4020166397094727
16.936201095581055 -11.048579216003418 -2.40201997756958
17.362701416015625 -10.36544418334961 -2.40201997756958
17.761667251586914 -9.665868759155273 -2.402019739151001
9.772565841674805 -13.852489471435547 -2.4020156860351562
10.046432495117188 -13.655143737792969 -2.4020156860351562
11.101163864135742 -12.81241512298584 -2.4020161628723145
11.35405445098877 -12.588815689086914 -2.4020164012908936
11.602404594421387 -12.36022663116455 -2.4020166397094727
11.8463716506958 -12.126748085021973 -2.40201735496521
12.085494995117188 -11.888442993164062 -2.4020183086395264
12.549572944641113 -11.397811889648438 -2.4020204544067383
12.99319076538086 -10.889077186584473 -2.4020214080810547
13.416471481323242 -10.36307430267334 -2.4020214080810547
13.620173454284668 -10.093859672546387 -2.4020211696624756
14.011286735534668 -9.543524742126465 -2.4020211696624756
14.19854736328125 -9.262628555297852 -2.4020211696624756
14.38017749786377 -8.978055000305176 -2.4020209312438965
14.726263999938965 -8.398337364196777 -2.4020209312438965
14.890581130981445 -8.10342788696289 -2.4020209312438965
8.405192375183105 -11.914301872253418 -2.4020187854766846
8.640783309936523 -11.744569778442383 -2.4020190238952637
9.765487670898438 -10.8274507522583 -2.4020228385925293
9.979157447814941 -10.630844116210938 -2.40202260017395
10.188864707946777 -10.430027961730957 -2.40202260017395
10.59609603881836 -10.016048431396484 -2.40202260017395
10.793439865112305 -9.80306339263916 -2.402022361755371
10.9865083694458 -9.586190223693848 -2.402022361755371
11.359506607055664 -9.141118049621582 -2.402022123336792
11.539281845092773 -8.913104057312012 -2.402022123336792
11.71447467803955 -8.68155574798584 -2.402022123336792
12.519457817077637 -7.474053859710693 -2.402021646499634
12.807133674621582 -6.969621658325195 -2.402021646499634
13.07449722290039 -6.454131126403809 -2.402021646499634
7.36680269241333 -10.442387580871582 -2.4020280838012695
7.776742935180664 -10.140766143798828 -2.4020254611968994
8.368351936340332 -9.658334732055664 -2.402024984359741
8.930089950561523 -9.141453742980957 -2.402024745941162
9.287006378173828 -8.778618812561035 -2.402024745941162
9.459975242614746 -8.591946601867676 -2.402024507522583
10.113666534423828 -7.811935901641846 -2.402024269104004
10.70321273803711 -6.982393741607666 -2.4020237922668457
10.972748756408691 -6.55067253112793 -2.4020237922668457
11.101017951965332 -6.330870628356934 -2.4020235538482666
11.22488021850586 -6.108562469482422 -2.4020235538482666
11.34429931640625 -5.883822441101074 -2.4020233154296875
11.569586753845215 -5.427443504333496 -2.4020233154296875
6.550631046295166 -9.285470008850098 -2.4020309448242188
7.268725395202637 -8.734766960144043 -2.4020285606384277
7.610764026641846 -8.438502311706543 -2.402026414871216
7.777280330657959 -8.285177230834961 -2.4020252227783203
7.940717697143555 -8.128666877746582 -2.4020252227783203
8.41189193725586 -7.640037536621094 -2.402024984359741
8.562360763549805 -7.471019744873047 -2.402024984359741
8.70943546295166 -7.2990264892578125 -2.402024745941162
8.85305404663086 -7.124149799346924 -2.402024745941162
9.262621879577637 -6.5828471183776855 -2.402024507522583
9.5173921585083 -6.208807945251465 -2.402024269104004
10.087455749511719 -5.23194694519043 -2.402024030685425
10.189638137817383 -5.030037879943848 -2.402024030685425
10.287782669067383 -4.826132297515869 -2.402024030685425
5.89164400100708 -8.351365089416504 -2.4020309448242188
6.692647457122803 -7.7243242263793945 -2.4020304679870605
6.845134258270264 -7.589519023895264 -2.4020302295684814
6.994905948638916 -7.4517059326171875 -2.4020297527313232
7.286067962646484 -7.167267799377441 -2.4020285606384277
7.427342414855957 -7.020759105682373 -2.4020276069641113
7.565666198730469 -6.871464729309082 -2.402026653289795
7.962446212768555 -6.407473564147949 -2.4020252227783203
8.088461875915527 -6.24764347076416 -2.402024984359741
8.330812454223633 -5.920622825622559 -2.402024984359741
8.559950828552246 -5.584216594696045 -2.402024745941162
8.669455528259277 -5.412646770477295 -2.402024745941162
9.25284194946289 -4.340634822845459 -2.402024507522583
5.347919940948486 -7.580637454986572 -2.4020309448242188
5.497812271118164 -7.472623348236084 -2.4020309448242188
5.64552116394043 -7.3616838455200195 -2.4020309448242188
5.934173583984375 -7.131031513214111 -2.4020309448242188
6.213418960571289 -6.889084815979004 -2.4020309448242188
6.349371433258057 -6.764015197753906 -2.4020309448242188
6.482795238494873 -6.636237621307373 -2.4020309448242188
6.613664627075195 -6.505867004394531 -2.4020307064056396
6.867462158203125 -6.237327575683594 -2.4020302295684814
7.110375881195068 -5.958919048309326 -2.402029275894165
7.2276291847229 -5.816127300262451 -2.402028799057007
7.453477382659912 -5.523727893829346 -2.4020276069641113
7.561989784240723 -5.374226093292236 -2.402026891708374
7.667504787445068 -5.22254753112793 -2.4020259380340576
7.769980430603027 -5.068920612335205 -2.4020252227783203
8.235373497009277 -4.271358013153076 -2.402024984359741
8.318799018859863 -4.106515407562256 -2.402024984359741
5.163413047790527 -6.733022689819336 -2.4020309448242188
5.556216716766357 -6.412712097167969 -2.4020309448242188
5.682811260223389 -6.300800800323486 -2.4020309448242188
6.048878192901611 -5.950250148773193 -2.4020309448242188
6.281005859375 -5.704695224761963 -2.4020309448242188
6.816982269287109 -5.0520524978637695 -2.4020302295684814
7.285422325134277 -4.349465847015381 -2.4020285606384277
7.370590686798096 -4.2034220695495605 -2.4020280838012695
7.452822208404541 -4.055810451507568 -2.4020276069641113
7.681684494018555 -3.6037187576293945 -2.4020259380340576
4.501849174499512 -6.3813371658325195 -2.4020309448242188
4.628026008605957 -6.290431499481201 -2.4020309448242188
5.113900184631348 -5.902154922485352 -2.4020309448242188
5.457181453704834 -5.586370944976807 -2.4020309448242188
5.567342281341553 -5.476568698883057 -2.4020309448242188
5.675296306610107 -5.364607810974121 -2.4020309448242188
5.780994892120361 -5.250591278076172 -2.4020309448242188
5.985478401184082 -5.01621150970459 -2.4020309448242188
6.454476356506348 -4.396347999572754 -2.4020309448242188
6.624407768249512 -4.135886192321777 -2.4020307064056396
6.705453872680664 -4.003090858459473 -2.4020304679870605
6.783837795257568 -3.8687944412231445 -2.4020302295684814
7.002729415893555 -3.456935405731201 -2.4020297527313232
4.165608882904053 -5.904721736907959 -2.4020309448242188
4.28236198425293 -5.820600986480713 -2.4020309448242188
4.622256755828857 -5.554533958435059 -2.4020309448242188
4.731949329376221 -5.461369514465332 -2.4020309448242188
5.251410961151123 -4.963896751403809 -2.4020309448242188
5.444899559020996 -4.75091552734375 -2.4020309448242188
5.629756927490234 -4.53032922744751 -2.4020309448242188
5.718852519989014 -4.417354583740234 -2.4020309448242188
5.805679798126221 -4.302569389343262 -2.4020309448242188
5.890206336975098 -4.1861491203308105 -2.4020309448242188
5.972394943237305 -4.067936897277832 -2.4020309448242188
6.204629898071289 -3.704143524169922 -2.4020309448242188
6.27716064453125 -3.579890727996826 -2.4020309448242188
6.347201824188232 -3.4540960788726807 -2.4020309448242188
6.414725303649902 -3.3270201683044434 -2.4020309448242188
6.479706764221191 -3.19863224029541 -2.4020309448242188
6.542116641998291 -3.06894850730896 -2.4020307064056396
3.9805712699890137 -5.41040563583374 -2.4020309448242188
4.087518215179443 -5.330066204071045 -2.4020309448242188
4.296512126922607 -5.163083553314209 -2.4020309448242188
4.597121715545654 -4.897336959838867 -2.4020309448242188
4.788480281829834 -4.710417747497559 -2.4020309448242188
4.972238540649414 -4.516008377075195 -2.4020309448242188
5.061181545257568 -4.416093826293945 -2.4020309448242188
5.233010292053223 -4.211048603057861 -2.4020309448242188
5.396537780761719 -3.9993886947631836 -2.4020309448242188
5.475106239318848 -3.8911259174346924 -2.4020309448242188
5.551503658294678 -3.7813029289245605 -2.4020309448242188
5.6257004737854 -3.6700127124786377 -2.4020309448242188
5.767370700836182 -3.4431750774383545 -2.4020309448242188
5.834789752960205 -3.327562093734741 -2.4020309448242188
5.899894714355469 -3.2107691764831543 -2.4020309448242188
5.962662220001221 -3.092588424682617 -2.4020309448242188
6.023062705993652 -2.973175048828125 -2.4020309448242188
6.081074237823486 -2.8526971340179443 -2.4020309448242188
3.6132750511169434 -5.121789932250977 -2.4020309448242188
3.714545726776123 -5.048825740814209 -2.4020309448242188
3.814345598220825 -4.973855972290039 -2.4020309448242188
3.912632942199707 -4.896916389465332 -2.4020309448242188
4.009372234344482 -4.818031311035156 -2.4020309448242188
4.104517936706543 -4.737234592437744 -2.4020309448242188
4.289892673492432 -4.570044040679932 -2.4020309448242188
4.380041599273682 -4.483715057373047 -2.4020309448242188
4.883285999298096 -3.929633617401123 -2.4020309448242188
5.035881042480469 -3.7320823669433594 -2.4020309448242188
5.249728679656982 -3.4247326850891113 -2.4020309448242188
5.381932258605957 -3.2129769325256348 -2.4020309448242188
5.444846153259277 -3.1051790714263916 -2.4020309448242188
5.505599021911621 -2.9961767196655273 -2.4020309448242188
5.564170837402344 -2.885908842086792 -2.4020309448242188
5.620535850524902 -2.7745862007141113 -2.4020309448242188
3.3832311630249023 -4.795706748962402 -2.4020309448242188
3.4780566692352295 -4.727382659912109 -2.4020309448242188
3.5715014934539795 -4.657191276550293 -2.4020309448242188
4.016772270202637 -4.279087543487549 -2.4020309448242188
4.10118293762207 -4.198256015777588 -2.4020309448242188
4.183971881866455 -4.115753173828125 -2.4020309448242188
4.265100002288818 -4.031635761260986 -2.4020309448242188
4.344535827636719 -3.945892810821533 -2.4020309448242188
4.422248363494873 -3.8585972785949707 -2.4020309448242188
4.498208045959473 -3.7697694301605225 -2.4020309448242188
4.572383880615234 -3.679448127746582 -2.4020309448242188
4.850669860839844 -3.3038532733917236 -2.4020309448242188
5.262700080871582 -2.5978970527648926 -2.4020309448242188
3.177187442779541 -4.503641128540039 -2.4020309448242188
3.266237735748291 -4.439481258392334 -2.4020309448242188
3.3539915084838867 -4.373561382293701 -2.4020309448242188
3.609145402908325 -4.165497779846191 -2.4020309448242188
3.691378116607666 -4.09280252456665 -2.4020309448242188
3.7721447944641113 -4.018484592437744 -2.4020309448242188
3.8514134883880615 -3.9425759315490723 -2.4020309448242188
4.4281005859375 -3.281651258468628 -2.4020309448242188
4.555256366729736 -3.1027286052703857 -2.4020309448242188
4.787707328796387 -2.730417013168335 -2.4020309448242188
3.0752391815185547 -4.17987585067749 -2.4020309448242188
3.475517511367798 -3.8534679412841797 -2.4020309448242188
3.5515599250793457 -3.7834959030151367 -2.4020309448242188
3.6261961460113525 -3.7120213508605957 -2.4020309448242188
3.6993980407714844 -3.6390774250030518 -2.4020309448242188
3.771127939224243 -3.5646910667419434 -2.4020309448242188
3.977241039276123 -3.3331661224365234 -2.4020309448242188
4.2298583984375 -3.0061089992523193 -2.4020309448242188
4.346202373504639 -2.835308790206909 -2.4020309448242188
4.455651760101318 -2.6600053310394287 -2.4020309448242188
4.558034420013428 -2.4804739952087402 -2.4020309448242188
4.606524467468262 -2.3892171382904053 -2.4020309448242188
4.698006629943848 -2.2038984298706055 -2.4020309448242188
2.979931592941284 -3.885791301727295 -2.4020309448242188
3.1322948932647705 -3.7640533447265625 -2.4020309448242188
3.2796897888183594 -3.6363441944122314 -2.4020309448242188
3.4909543991088867 -3.434034585952759 -2.4020309448242188
3.5586462020874023 -3.3638391494750977 -2.4020309448242188
3.62492299079895 -3.292309522628784 -2.4020309448242188
3.6897618770599365 -3.219475746154785 -2.4020309448242188
3.7531421184539795 -3.1453638076782227 -2.4020309448242188
3.8150317668914795 -3.069997787475586 -2.4020309448242188
3.8754100799560547 -2.9934206008911133 -2.4020309448242188
3.934246778488159 -2.915656566619873 -2.4020309448242188
3.9915270805358887 -2.8367366790771484 -2.4020309448242188
4.047224044799805 -2.7566912174224854 -2.4020309448242188
4.101314544677734 -2.6755611896514893 -2.4020309448242188
4.204596996307373 -2.510117292404175 -2.4020309448242188
4.253747463226318 -2.425896406173706 -2.4020309448242188
4.34697151184082 -2.2545969486236572 -2.4020309448242188
2.817621946334839 -3.6741530895233154 -2.4020309448242188
2.9616918563842773 -3.559037446975708 -2.4020309448242188
3.2355003356933594 -3.3120830059051514 -2.4020309448242188
3.300816535949707 -3.2469964027404785 -2.4020309448242188
3.3648180961608887 -3.180624008178711 -2.4020309448242188
3.4274864196777344 -3.112990617752075 -2.4020309448242188
3.7199645042419434 -2.756852388381958 -2.4020309448242188
3.7741246223449707 -2.682227611541748 -2.4020309448242188
3.8267881870269775 -2.6065428256988525 -2.4020309448242188
3.975590705871582 -2.3734066486358643 -2.4020309448242188
4.066940784454346 -2.2132225036621094 -2.4020309448242188
4.110207557678223 -2.1317977905273438 -2.4020309448242188
4.19183349609375 -1.9664454460144043 -2.4020309448242188
2.5281407833099365 -3.583622932434082 -2.4020309448242188
2.8052818775177 -3.3710875511169434 -2.4020309448242188
2.8718554973602295 -3.314556121826172 -2.4020309448242188
2.9372899532318115 -3.25671124458313 -2.4020309448242188
3.06463360786438 -3.1371734142303467 -2.4020309448242188
3.126500129699707 -3.0755226612091064 -2.4020309448242188
3.3613121509552 -2.816990375518799 -2.4020309448242188
3.4167394638061523 -2.749498128890991 -2.4020309448242188
3.523510694503784 -2.6112680435180664 -2.4020309448242188
3.673138380050659 -2.396225929260254 -2.4020309448242188
3.7201268672943115 -2.3226077556610107 -2.4020309448242188
3.765639543533325 -2.2480673789978027 -2.4020309448242188
3.809659242630005 -2.172635793685913 -2.4020309448242188
3.9325854778289795 -1.9412920475006104 -2.4020309448242188
3.970461368560791 -1.8625975847244263 -2.4020309448242188
2.398322582244873 -3.3996028900146484 -2.4020309448242188
2.465535879135132 -3.3511791229248047 -2.4020309448242188
2.531787157058716 -3.301410436630249 -2.4020309448242188
2.5970213413238525 -3.2503437995910645 -2.4020309448242188
2.661229133605957 -3.1979854106903076 -2.4020309448242188
2.7864623069763184 -3.089481830596924 -2.4020309448242188
3.188715696334839 -2.6723315715789795 -2.4020309448242188
3.241302490234375 -2.608299493789673 -2.4020309448242188
3.2925853729248047 -2.5432498455047607 -2.4020309448242188
3.3425817489624023 -2.477175712585449 -2.4020309448242188
3.3912463188171387 -2.410123586654663 -2.4020309448242188
3.4385669231414795 -2.342116117477417 -2.4020309448242188
3.4845237731933594 -2.273181200027466 -2.4020309448242188
3.6140317916870117 -2.0610713958740234 -2.4020309448242188
3.65435791015625 -1.9886959791183472 -2.4020309448242188
3.6932373046875 -1.915531873703003 -2.4020309448242188
3.7665793895721436 -1.7669533491134644 -2.4020309448242188
