ply
format ascii 1.0
element vertex 376
property float x
property float y
property float z
end_header
29.1146183013916 -20.448104858398438 6.27333927154541
30.443559646606445 -19.628429412841797 6.387041091918945
31.129701614379883 -19.208791732788086 6.449893474578857
31.210126876831055 -16.78545570373535 6.248600959777832
33.334224700927734 -17.08546257019043 6.6048102378845215
33.302513122558594 -16.244550704956055 6.533492088317871
33.3342170715332 -15.450358390808105 6.4783854484558105
33.3342170715332 -14.65545654296875 6.4207024574279785
33.33421325683594 -12.349324226379395 6.268107891082764
33.29405212402344 -9.41415023803711 6.100809574127197
33.29405212402344 -8.705836296081543 6.068017959594727
33.33420944213867 -7.319257736206055 6.017737865447998
33.33420181274414 -5.946287631988525 5.9705023765563965
29.1146183013916 -20.44810676574707 5.450333118438721
29.158817291259766 -19.628427505493164 5.384758949279785
30.44356346130371 -19.628429412841797 5.549118995666504
29.875213623046875 -17.627389907836914 5.313998699188232
31.18718719482422 -16.773115158081055 5.424851417541504
33.3342170715332 -14.6554536819458 5.57836389541626
33.3342170715332 -13.874274253845215 5.531282901763916
33.33421325683594 -12.349332809448242 5.445788383483887
33.33421325683594 -11.603816986083984 5.407172679901123
33.33421325683594 -10.868526458740234 5.371193885803223
33.33421325683594 -10.142675399780273 5.337771892547607
33.33420944213867 -7.319260120391846 5.228263854980469
33.33420181274414 -6.630074977874756 5.206643104553223
29.1146183013916 -20.44810676574707 4.632981300354004
30.29889488220215 -18.696138381958008 4.636242389678955
24.10519790649414 -13.586551666259766 3.603276252746582
31.80864715576172 -16.303508758544922 4.654541969299316
33.30251693725586 -16.244550704956055 4.82510232925415
33.3342170715332 -13.874265670776367 4.701791763305664
33.33421325683594 -12.349331855773926 4.629117488861084
33.33421325683594 -10.868526458740234 4.565711498260498
28.37777328491211 -19.930599212646484 3.723727226257324
28.7064208984375 -19.323896408081055 3.7158915996551514
30.219711303710938 -18.64727783203125 3.8131139278411865
30.346160888671875 -17.90526580810547 3.7835705280303955
31.20279312133789 -17.587013244628906 3.846181631088257
26.33455467224121 -13.497763633728027 3.1776678562164307
32.38992691040039 -15.012661933898926 3.833523988723755
32.38992691040039 -14.240274429321289 3.799391508102417
32.38992691040039 -13.481218338012695 3.7673258781433105
33.2940559387207 -13.09006404876709 3.8415722846984863
33.2940559387207 -11.589837074279785 3.7855968475341797
36.48776626586914 -11.102191925048828 4.095478534698486
36.48777389526367 -10.317178726196289 4.071739196777344
36.48777389526367 -9.540922164916992 4.049853801727295
36.48777770996094 -8.011676788330078 4.011459827423096
36.48777770996094 -7.257292747497559 3.9948692321777344
36.48777770996094 -6.508817195892334 3.9799723625183105
28.377777099609375 -19.930599212646484 2.9355437755584717
28.706430435180664 -19.323896408081055 2.9293675422668457
29.971248626708984 -19.323898315429688 3.0187809467315674
30.234209060668945 -18.65622329711914 3.007452964782715
31.047948837280273 -17.499736785888672 3.017031192779541
30.601375579833984 -16.458051681518555 2.941378116607666
31.72478485107422 -16.260526657104492 3.017805814743042
32.38992691040039 -14.24027156829834 2.995192289352417
32.38992691040039 -13.481220245361328 2.969913959503174
36.361263275146484 -13.47074031829834 3.282522439956665
41.3996467590332 -13.498217582702637 3.6861748695373535
28.377777099609375 -19.930599212646484 2.1503610610961914
28.7064208984375 -19.323896408081055 2.1458358764648438
31.31624412536621 -19.32390022277832 2.2818784713745117
30.614768981933594 -18.063749313354492 2.2042582035064697
31.096580505371094 -17.527145385742188 2.2135140895843506
32.38992691040039 -14.240273475646973 2.194054365158081
34.46661376953125 -13.551054000854492 2.296541452407837
36.543914794921875 -13.538413047790527 2.4166102409362793
38.92808532714844 -13.551054000854492 2.556018829345703
29.97123908996582 -19.323898315429688 1.4061387777328491
31.31624412536621 -19.32390022277832 1.4509968757629395
30.57430076599121 -18.03987693786621 1.399787425994873
31.18018913269043 -17.57427406311035 1.4113105535507202
31.888587951660156 -17.150344848632812 1.4277161359786987
32.38992691040039 -16.601442337036133 1.4351561069488525
32.38992691040039 -15.01266098022461 1.4076850414276123
32.38992691040039 -14.24027156829834 1.3951514959335327
32.38992691040039 -13.481216430664062 1.3833768367767334
38.69736099243164 -13.470742225646973 1.615683674812317
41.31537628173828 -13.470742225646973 1.713512659072876
29.97123908996582 -19.323896408081055 0.6023731827735901
31.316240310668945 -19.32390022277832 0.6215897798538208
32.38992691040039 -19.111154556274414 0.6352616548538208
30.92733383178711 -17.431753158569336 0.5996873378753662
31.598041534423828 -16.99407958984375 0.606043815612793
32.38992691040039 -16.601444244384766 0.6148036122322083
32.38992691040039 -15.799383163452148 0.6087437272071838
34.26233673095703 -13.470742225646973 0.6218763589859009
36.136478424072266 -13.387469291687012 0.650951087474823
41.31537628173828 -13.470742225646973 0.73404860496521
28.297460556030273 -19.874191284179688 -0.19468840956687927
29.971235275268555 -19.323896408081055 -0.20077666640281677
31.31624412536621 -19.32390022277832 -0.20718200504779816
32.38992691040039 -19.111156463623047 -0.21173995733261108
32.38992691040039 -17.41997528076172 -0.20706313848495483
32.38992691040039 -15.012665748596191 -0.20099852979183197
32.38992691040039 -13.481223106384277 -0.19752898812294006
38.987831115722656 -13.571855545043945 -0.23242858052253723
41.31536102294922 -13.470742225646973 -0.24462172389030457
28.7064208984375 -19.323896408081055 -0.9743852019309998
29.971248626708984 -19.323896408081055 -1.0041264295578003
32.38992691040039 -17.419973373413086 -1.0355628728866577
32.38992691040039 -16.6014404296875 -1.024848461151123
32.38992691040039 -15.799382209777832 -1.0147457122802734
32.38992691040039 -15.012666702270508 -1.0052320957183838
38.16516876220703 -14.139033317565918 -1.1460214853286743
28.297460556030273 -19.874189376831055 -1.7536650896072388
28.7064151763916 -19.323896408081055 -1.754941701889038
29.97123908996582 -19.323896408081055 -1.808508276939392
30.599960327148438 -17.247234344482422 -1.781381368637085
32.38992691040039 -16.601442337036133 -1.845829725265503
32.38992691040039 -15.012661933898926 -1.8104979991912842
32.38992691040039 -14.240273475646973 -1.7943778038024902
32.38992691040039 -13.481220245361328 -1.7792332172393799
38.16516876220703 -14.139033317565918 -2.064073085784912
42.517127990722656 -12.936715126037598 -2.2538225650787354
42.93807601928711 -11.227574348449707 -2.2507870197296143
43.31402587890625 -10.413774490356445 -2.2592151165008545
46.26198196411133 -10.157811164855957 -2.4020309448242188
46.45405578613281 -9.239556312561035 -2.4020309448242188
25.45755958557129 -17.13690948486328 -2.250119686126709
26.12101936340332 -16.118154525756836 -2.2505273818969727
26.437719345092773 -15.599152565002441 -2.250746965408325
26.74401092529297 -15.073887825012207 -2.2509591579437256
27.30372428894043 -13.994512557983398 -2.2496156692504883
27.575544357299805 -13.450994491577148 -2.2496161460876465
27.836599349975586 -12.902210235595703 -2.2496190071105957
28.553808212280273 -11.226297378540039 -2.2496299743652344
28.77057647705078 -10.658620834350586 -2.2496306896209717
31.997724533081055 -7.0257792472839355 -2.4020309448242188
32.1306037902832 -6.39064884185791 -2.4020309448242188
32.25086212158203 -5.753024578094482 -2.4020309448242188
20.47447395324707 -14.379860877990723 -2.4020156860351562
20.755327224731445 -13.971528053283691 -2.4020156860351562
21.29244041442871 -13.138585090637207 -2.4020159244537354
22.035018920898438 -11.850884437561035 -2.4020168781280518
22.265331268310547 -11.412140846252441 -2.402017831802368
22.487077713012695 -10.968903541564941 -2.402017831802368
22.699918746948242 -10.521364212036133 -2.402017831802368
23.098825454711914 -9.614109992980957 -2.402017593383789
23.461437225341797 -8.691746711730957 -2.402017593383789
23.78728485107422 -7.755762100219727 -2.40201735496521
24.630878448486328 -4.393740653991699 -2.40201735496521
16.774932861328125 -11.29207706451416 -2.40201997756958
16.995195388793945 -10.957616806030273 -2.40201997756958
17.20888328552246 -10.618861198425293 -2.40201997756958
17.415830612182617 -10.275931358337402 -2.40201997756958
17.615934371948242 -9.928973197937012 -2.402019739151001
17.99534797668457 -9.223508834838867 -2.402019500732422
18.34652328491211 -8.503575325012207 -2.402019500732422
18.51134490966797 -8.138537406921387 -2.402019500732422
18.668909072875977 -7.770305633544922 -2.402019500732422
18.81914520263672 -7.399022102355957 -2.402019500732422
19.345706939697266 -5.886353492736816 -2.4020190238952637
19.832923889160156 -3.9447014331817627 -2.4020190238952637
19.907161712646484 -3.5511128902435303 -2.4020190238952637
14.063263893127441 -9.466768264770508 -2.4020211696624756
14.427152633666992 -8.902372360229492 -2.4020209312438965
14.60064697265625 -8.614876747131348 -2.4020209312438965
15.236679077148438 -7.432254314422607 -2.4020206928253174
15.380898475646973 -7.1290130615234375 -2.4020206928253174
15.519076347351074 -6.822981834411621 -2.4020206928253174
15.777118682861328 -6.203005313873291 -2.4020204544067383
15.896879196166992 -5.889311790466309 -2.4020204544067383
16.010406494140625 -5.573301315307617 -2.4020204544067383
16.117652893066406 -5.255107402801514 -2.4020204544067383
16.401288986206055 -4.288654804229736 -2.4020204544067383
16.483013153076172 -3.962965726852417 -2.4020204544067383
16.68927001953125 -2.9770915508270264 -2.4020204544067383
12.095573425292969 -8.142205238342285 -2.402021884918213
12.254465103149414 -7.901041507720947 -2.402021884918213
12.408547401428223 -7.656778335571289 -2.402021884918213
12.55776309967041 -7.4095072746276855 -2.402021646499634
13.22884750366211 -6.1315436363220215 -2.402021646499634
13.34765625 -5.86837100982666 -2.402021646499634
13.461305618286133 -5.602818489074707 -2.402022123336792
13.672740936279297 -5.065195083618164 -2.402021884918213
13.862524032592773 -4.519827365875244 -2.402022123336792
13.949323654174805 -4.244383335113525 -2.402022123336792
14.030651092529297 -3.9672691822052 -2.402022123336792
14.106473922729492 -3.6886000633239746 -2.402022123336792
14.300629615783691 -2.844346284866333 -2.402021884918213
10.457807540893555 -7.344847679138184 -2.4020237922668457
10.875541687011719 -6.710821151733398 -2.4020237922668457
11.132787704467773 -6.274835109710693 -2.4020235538482666
11.594499588012695 -5.374022006988525 -2.4020233154296875
12.069035530090332 -4.201287746429443 -2.4020228385925293
12.149885177612305 -3.961428642272949 -2.4020228385925293
12.225961685180664 -3.7200112342834473 -2.4020228385925293
12.297236442565918 -3.477132797241211 -2.4020228385925293
12.363691329956055 -3.2328898906707764 -2.4020228385925293
12.425297737121582 -2.9873788356781006 -2.4020228385925293
12.580778121948242 -2.244203805923462 -2.40202260017395
9.426711082458496 -6.34564208984375 -2.402024507522583
9.550546646118164 -6.157690525054932 -2.402024269104004
9.7869234085083 -5.7746148109436035 -2.402024269104004
9.89937686920166 -5.57963752746582 -2.402024269104004
10.007948875427246 -5.382473468780518 -2.402024269104004
10.112587928771973 -5.183199882507324 -2.402024030685425
10.402555465698242 -4.573492527008057 -2.4020237922668457
10.575519561767578 -4.157923698425293 -2.4020237922668457
10.871430397033691 -3.307868003845215 -2.4020235538482666
10.934814453125 -3.0918972492218018 -2.4020235538482666
10.993906021118164 -2.8747165203094482 -2.4020235538482666
11.048686027526855 -2.6564035415649414 -2.4020235538482666
11.099130630493164 -2.4370524883270264 -2.4020233154296875
11.145221710205078 -2.216747760772705 -2.4020233154296875
8.589765548706055 -5.538239002227783 -2.402024745941162
8.903508186340332 -5.018337726593018 -2.402024745941162
9.0011568069458 -4.841009616851807 -2.402024745941162
9.435705184936523 -3.9272942543029785 -2.402024269104004
9.511637687683105 -3.739640712738037 -2.402024269104004
9.583840370178223 -3.5505197048187256 -2.402024269104004
9.834784507751465 -2.7808597087860107 -2.402024269104004
9.98257064819336 -2.191889524459839 -2.402024030685425
10.024025917053223 -1.9937453269958496 -2.402024030685425
10.06155014038086 -1.7948150634765625 -2.402024030685425
7.695947170257568 -5.180570602416992 -2.4020259380340576
7.797043323516846 -5.027126312255859 -2.4020252227783203
8.170463562011719 -4.394247531890869 -2.402024984359741
8.417006492614746 -3.9012668132781982 -2.402024984359741
8.56490707397461 -3.5648562908172607 -2.402024745941162
8.633832931518555 -3.3945188522338867 -2.402024745941162
8.699372291564941 -3.222851514816284 -2.402024745941162
8.76150131225586 -3.049921751022339 -2.402024745941162
8.92715835571289 -2.524226427078247 -2.402024745941162
9.020126342773438 -2.16868257522583 -2.402024507522583
9.0989351272583 -1.8097466230392456 -2.402024507522583
9.133000373840332 -1.6291749477386475 -2.402024507522583
6.943533897399902 -4.876601219177246 -2.4020299911499023
7.391682147979736 -4.166200637817383 -2.4020278453826904
7.472741603851318 -4.018939018249512 -2.4020273685455322
7.550881385803223 -3.870237350463867 -2.402026891708374
7.626044750213623 -3.720005512237549 -2.402026414871216
7.698225021362305 -3.5682034492492676 -2.4020259380340576
7.76738977432251 -3.4149746894836426 -2.4020252227783203
7.89654016494751 -3.1046464443206787 -2.402024984359741
7.95647668838501 -2.9476354122161865 -2.402024984359741
8.013296127319336 -2.7894678115844727 -2.402024984359741
8.066972732543945 -2.6302101612091064 -2.402024984359741
8.1174898147583 -2.4699244499206543 -2.402024984359741
8.164809226989746 -2.3086602687835693 -2.402024984359741
8.208942413330078 -2.1464972496032715 -2.402024984359741
8.32192611694336 -1.6551967859268188 -2.402024745941162
8.353071212768555 -1.4900474548339844 -2.402024745941162
6.390773773193359 -4.488441467285156 -2.4020309448242188
6.725970268249512 -3.9685516357421875 -2.4020304679870605
6.80325174331665 -3.8345491886138916 -2.4020302295684814
6.877866268157959 -3.6990249156951904 -2.4020302295684814
7.08540153503418 -3.2840614318847656 -2.402029275894165
7.323092937469482 -2.7129738330841064 -2.4020283222198486
7.375389099121094 -2.56740403175354 -2.4020280838012695
7.4712815284729 -2.2733001708984375 -2.4020273685455322
7.6881103515625 -1.3715511560440063 -2.4020259380340576
6.07329797744751 -3.9157464504241943 -2.4020309448242188
6.295125484466553 -3.54811429977417 -2.4020309448242188
6.430708885192871 -3.296024799346924 -2.4020309448242188
6.556202411651611 -3.0387566089630127 -2.4020307064056396
6.615102291107178 -2.9083337783813477 -2.4020307064056396
6.671408653259277 -2.7766990661621094 -2.4020304679870605
6.725095272064209 -2.6441056728363037 -2.4020304679870605
6.776143550872803 -2.5103282928466797 -2.4020302295684814
6.824535846710205 -2.3756532669067383 -2.4020302295684814
6.870246410369873 -2.240021228790283 -2.4020302295684814
7.025983810424805 -1.689239501953125 -2.402029514312744
7.058060169219971 -1.5497498512268066 -2.402029514312744
5.572096824645996 -3.75089168548584 -2.4020309448242188
5.645295143127441 -3.6398589611053467 -2.4020309448242188
5.716278076171875 -3.5273003578186035 -2.4020309448242188
5.785017967224121 -3.413372039794922 -2.4020309448242188
5.851489067077637 -3.2981419563293457 -2.4020309448242188
5.915663719177246 -3.1815884113311768 -2.4020309448242188
5.977518081665039 -3.063735246658325 -2.4020309448242188
6.094167232513428 -2.824650287628174 -2.4020309448242188
6.148915767669678 -2.7033095359802246 -2.4020309448242188
6.201253414154053 -2.581028938293457 -2.4020309448242188
6.42606782913208 -1.9552710056304932 -2.4020309448242188
6.498464107513428 -1.6992363929748535 -2.4020309448242188
6.560662746429443 -1.440535068511963 -2.4020307064056396
6.587904930114746 -1.3103207349777222 -2.4020307064056396
5.129364967346191 -3.60251784324646 -2.4020309448242188
5.199707984924316 -3.500187635421753 -2.4020309448242188
5.460428237915039 -3.0777087211608887 -2.4020309448242188
5.578035831451416 -2.8590383529663086 -2.4020309448242188
5.6868896484375 -2.6359126567840576 -2.4020309448242188
5.786821365356445 -2.4086813926696777 -2.4020309448242188
5.919643402099609 -2.060656785964966 -2.4020309448242188
5.959292888641357 -1.9430081844329834 -2.4020309448242188
6.031572341918945 -1.7055147886276245 -2.4020309448242188
6.094382286071777 -1.465255856513977 -2.4020309448242188
6.147633075714111 -1.2227429151535034 -2.4020309448242188
4.802798748016357 -3.373169422149658 -2.4020309448242188
4.932620525360107 -3.1802849769592285 -2.4020309448242188
4.994643211364746 -3.0819735527038574 -2.4020309448242188
5.054705619812012 -2.982426404953003 -2.4020309448242188
5.112784385681152 -2.8817174434661865 -2.4020309448242188
5.274899959564209 -2.57301926612854 -2.4020309448242188
5.324827671051025 -2.468064069747925 -2.4020309448242188
5.372665882110596 -2.3620996475219727 -2.4020309448242188
5.418396949768066 -2.255225419998169 -2.4020309448242188
5.503461837768555 -2.0388967990875244 -2.4020309448242188
5.579891204833984 -1.819305419921875 -2.4020309448242188
5.647565841674805 -1.5968899726867676 -2.4020309448242188
5.678085803985596 -1.4847216606140137 -2.4020309448242188
5.777785301208496 -1.0306371450424194 -2.4020309448242188
4.510302543640137 -3.1677281856536865 -2.4020309448242188
4.572155475616455 -3.0777785778045654 -2.4020309448242188
4.690462589263916 -2.894261360168457 -2.4020309448242188
4.746867656707764 -2.8008134365081787 -2.4020309448242188
4.953650951385498 -2.4163269996643066 -2.4020309448242188
5.168293476104736 -1.914695382118225 -2.4020309448242188
5.240067005157471 -1.70850670337677 -2.4020309448242188
5.303620338439941 -1.4996591806411743 -2.4020309448242188
5.383317947387695 -1.1820240020751953 -2.4020309448242188
5.405673503875732 -1.0751703977584839 -2.4020309448242188
4.520638465881348 -2.54799485206604 -2.4020309448242188
4.570217132568359 -2.4579570293426514 -2.4020309448242188
4.790854454040527 -1.9940319061279297 -2.4020309448242188
4.829407691955566 -1.8987525701522827 -2.4020309448242188
4.933643817901611 -1.608596920967102 -2.4020309448242188
4.964537143707275 -1.5105657577514648 -2.4020309448242188
5.045482158660889 -1.2130717039108276 -2.4020309448242188
5.068520545959473 -1.1129287481307983 -2.4020309448242188
5.089566707611084 -1.0122981071472168 -2.4020309448242188
5.108619213104248 -0.9112941026687622 -2.4020309448242188
4.007280349731445 -2.814439058303833 -2.4020309448242188
4.115599155426025 -2.6535286903381348 -2.4020309448242188
4.217462062835693 -2.4884462356567383 -2.4020309448242188
4.265922546386719 -2.4044241905212402 -2.4020309448242188
4.401186466217041 -2.1468400955200195 -2.4020309448242188
4.520913124084473 -1.8816787004470825 -2.4020309448242188
4.557294845581055 -1.7917675971984863 -2.4020309448242188
4.591888427734375 -1.701155662536621 -2.4020309448242188
4.737590312957764 -1.238797903060913 -2.4020309448242188
4.761195182800293 -1.1447210311889648 -2.4020309448242188
4.80279541015625 -0.9552596807479858 -2.4020309448242188
3.789018392562866 -2.6611502170562744 -2.4020309448242188
3.891439199447632 -2.508998394012451 -2.4020309448242188
3.9877538681030273 -2.3529109954833984 -2.4020309448242188
4.120450496673584 -2.1119351387023926 -2.4020309448242188
4.23859977722168 -1.8635064363479614 -2.4020309448242188
4.274676322937012 -1.7791907787322998 -2.4020309448242188
4.309077262878418 -1.6941789388656616 -2.4020309448242188
4.341784477233887 -1.6084998846054077 -2.4020309448242188
4.455472469329834 -1.259817361831665 -2.4020309448242188
4.522425651550293 -0.9929962158203125 -2.4020309448242188
4.541205883026123 -0.9032305479049683 -2.4020309448242188
4.558206558227539 -0.8131088018417358 -2.4020309448242188
3.588918447494507 -2.520616054534912 -2.4020309448242188
3.638139486312866 -2.44903564453125 -2.4020309448242188
3.6859326362609863 -2.376497983932495 -2.4020309448242188
3.8624608516693115 -2.077312469482422 -2.4020309448242188
3.9790122509002686 -1.8442633152008057 -2.4020309448242188
4.048930644989014 -1.6852315664291382 -2.4020309448242188
4.169609069824219 -1.3594878911972046 -2.4020309448242188
4.195717811584473 -1.2766380310058594 -2.4020309448242188
4.220178127288818 -1.1932865381240845 -2.4020309448242188
3.4513232707977295 -2.3232786655426025 -2.4020309448242188
3.4966611862182617 -2.2544655799865723 -2.4020309448242188
3.5832042694091797 -2.114212989807129 -2.4020309448242188
3.6243772506713867 -2.0428285598754883 -2.4020309448242188
3.6641247272491455 -1.9706428050994873 -2.4020309448242188
3.70243763923645 -1.8976835012435913 -2.4020309448242188
3.7392966747283936 -1.8239808082580566 -2.4020309448242188
3.7746922969818115 -1.7495620250701904 -2.4020309448242188
3.808603525161743 -1.67445707321167 -2.4020309448242188
3.841017961502075 -1.5986953973770142 -2.4020309448242188
3.901320695877075 -1.445320963859558 -2.4020309448242188
3.9291832447052 -1.367767572402954 -2.4020309448242188
4.003474235534668 -1.132011890411377 -2.4020309448242188
4.025108337402344 -1.0524966716766357 -2.4020309448242188
4.063636302947998 -0.8922591805458069 -2.4020309448242188
4.080511569976807 -0.8115994334220886 -2.4020309448242188
4.095786094665527 -0.7306203842163086 -2.4020309448242188
