ply
format ascii 1.0
element vertex 276
property float x
property float y
property float z
end_header
-6.261307716369629 -41.788909912109375 5.502531051635742
-6.260531425476074 -41.783775329589844 4.536900043487549
-6.258238792419434 -41.76845932006836 1.665358066558838
-6.257608413696289 -41.76420974731445 0.7133467197418213
-19.911144256591797 -35.02862548828125 -0.22685256600379944
-21.506145477294922 -34.472225189208984 -1.1440677642822266
-20.53858757019043 -34.471763610839844 -1.12987220287323
-18.670848846435547 -34.46901321411133 -1.1038109064102173
-3.935516357421875 -20.504119873046875 -0.587888777256012
-21.5317325592041 -34.513240814208984 -2.063004970550537
-21.430034637451172 -35.96795654296875 -2.1233139038085938
-20.122941970825195 -39.03556442260742 -2.227221727371216
-18.523468017578125 -39.85531997680664 -2.2288708686828613
-11.380062103271484 -25.85628318786621 -1.43267023563385
-10.730277061462402 -25.79846954345703 -1.4170079231262207
-10.11107349395752 -25.78467559814453 -1.4045963287353516
-8.916017532348633 -25.794279098510742 -1.3840817213058472
-6.711893081665039 -26.1777286529541 -1.3705272674560547
-4.746188163757324 -20.22148895263672 -1.0533868074417114
-3.883768320083618 -20.234516143798828 -1.0449103116989136
-3.457188606262207 -20.23984146118164 -1.0413153171539307
-3.0340967178344727 -20.25001335144043 -1.0384281873703003
-16.625614166259766 -25.47386932373047 -2.2304024696350098
-16.105377197265625 -25.815326690673828 -2.230987548828125
-15.044036865234375 -26.46617889404297 -2.2321524620056152
-14.50332260131836 -26.775177001953125 -2.232724189758301
-13.956296920776367 -27.073192596435547 -2.2333016395568848
-10.73573112487793 -25.81155776977539 -2.049734115600586
-8.905174255371094 -25.762922286987305 -1.9986578226089478
-7.754692077636719 -25.807767868041992 -1.9758599996566772
-7.613888263702393 -27.357309341430664 -2.0821340084075928
-7.587403774261475 -29.592409133911133 -2.2399637699127197
-3.4390385150909424 -20.13357162475586 -1.4976177215576172
-8.092019081115723 -12.398643493652344 -1.4214147329330444
-10.675918579101562 -20.70973014831543 -2.2368721961975098
-10.251709938049316 -20.926944732666016 -2.237215757369995
-9.823123931884766 -21.13554573059082 -2.2375664710998535
-8.953465461730957 -21.526535034179688 -2.2382895946502686
-7.169259071350098 -22.20136260986328 -2.2398176193237305
-6.714898586273193 -22.347314834594727 -2.24021577835083
-5.334072589874268 -22.726213455200195 -2.2411227226257324
-3.8561577796936035 -20.090702056884766 -1.964016079902649
-3.4268853664398193 -20.06239891052246 -1.953987717628479
-3.006520986557007 -20.066017150878906 -1.9479424953460693
-9.64981746673584 -16.1961612701416 -2.2394673824310303
-8.981511116027832 -16.581132888793945 -2.2399933338165283
-8.641570091247559 -16.763391494750977 -2.2402658462524414
-8.297956466674805 -16.938724517822266 -2.240544319152832
-7.600264072418213 -17.268321990966797 -2.2411186695098877
-7.246464729309082 -17.42244529724121 -2.2414145469665527
-6.88956356048584 -17.569366455078125 -2.241716146469116
-6.529696464538574 -17.70901870727539 -2.242023229598999
-6.167016983032227 -17.84134292602539 -2.242335557937622
-4.316585063934326 -18.3911190032959 -2.2439727783203125
-3.9401538372039795 -18.478368759155273 -2.244314432144165
-8.096170425415039 -12.405007362365723 -2.0988783836364746
-8.098376274108887 -13.592244148254395 -2.2417964935302734
-7.8195366859436035 -13.756502151489258 -2.2420365810394287
-7.537374496459961 -13.915066719055176 -2.242281675338745
-7.252018451690674 -14.067876815795898 -2.2425312995910645
-6.963582992553711 -14.214861869812012 -2.242785692214966
-6.377917289733887 -14.491067886352539 -2.243299961090088
-6.080892086029053 -14.62009334564209 -2.243548631668091
-5.781270503997803 -14.743063926696777 -2.2438015937805176
-4.570358753204346 -12.39515209197998 -1.8718441724777222
-4.86805534362793 -15.075112342834473 -2.244588613510132
-4.248531818389893 -15.265290260314941 -2.2451345920562744
-3.9359283447265625 -15.350896835327148 -2.2454137802124023
-3.621610641479492 -15.430124282836914 -2.245696783065796
-3.30570912361145 -15.502948760986328 -2.245983600616455
-2.349759578704834 -15.682639122009277 -2.24686598777771
-7.47352933883667 -11.451003074645996 -2.2526490688323975
-6.7582268714904785 -11.889249801635742 -2.2529361248016357
-5.74233865737915 -12.355299949645996 -2.2444958686828613
-4.975431442260742 -12.688077926635742 -2.2451868057250977
-4.453347682952881 -12.883673667907715 -2.2456648349761963
-4.189381122589111 -12.973468780517578 -2.2459089756011963
-3.723891019821167 -12.393217086791992 -2.1318254470825195
-3.1165690422058105 -13.278388023376465 -2.2469165325164795
-2.5715367794036865 -13.397835731506348 -2.2474374771118164
-2.1149730682373047 -12.381937980651855 -2.0693392753601074
-6.335245132446289 -10.15478515625 -2.2496888637542725
-5.48685359954834 -10.643704414367676 -2.250779867172241
-3.9152610301971436 -11.326958656311035 -2.252624034881592
-3.6831438541412354 -11.40576171875 -2.252840757369995
-3.449422597885132 -11.479742050170898 -2.2530455589294434
-3.214197874069214 -11.548871994018555 -2.2532384395599365
-2.977570056915283 -11.613120079040527 -2.2534189224243164
-2.739644765853882 -11.672460556030273 -2.253587245941162
-2.5005273818969727 -11.726865768432617 -2.2537434101104736
-2.2603111267089844 -11.776298522949219 -2.2538869380950928
-2.019116163253784 -11.82075023651123 -2.2540183067321777
-6.210751056671143 -9.516162872314453 -2.4020309448242188
-6.01483678817749 -9.641189575195312 -2.4020309448242188
-5.4968485832214355 -9.670324325561523 -2.3512682914733887
-4.287168025970459 -9.740869522094727 -2.249630928039551
-4.0871124267578125 -9.82651424407959 -2.249630928039551
-3.885333776473999 -9.908089637756348 -2.249640703201294
-3.4769158363342285 -10.058815002441406 -2.249669313430786
-3.0628979206085205 -10.193375587463379 -2.249843120574951
-2.432573080062866 -10.36422061920166 -2.250323534011841
-2.2202208042144775 -10.412443161010742 -2.2504615783691406
-1.7927770614624023 -10.49566650390625 -2.2507054805755615
-1.5778234004974365 -10.530627250671387 -2.2508106231689453
-5.410017967224121 -8.671295166015625 -2.4020309448242188
-4.683021545410156 -9.084385871887207 -2.4020309448242188
-4.496219158172607 -9.17825984954834 -2.4020309448242188
-4.117157459259033 -9.354453086853027 -2.4020309448242188
-3.924978017807007 -9.436699867248535 -2.4020309448242188
-3.731163740158081 -9.514998435974121 -2.4020309448242188
-3.5357890129089355 -9.589315414428711 -2.4020309448242188
-3.338932514190674 -9.659622192382812 -2.4020309448242188
-3.122344970703125 -9.669291496276855 -2.3880529403686523
-2.906400680541992 -9.672481536865234 -2.373661518096924
-1.6547106504440308 -9.687368392944336 -2.3097288608551025
-5.070444107055664 -7.768977642059326 -2.4020309448242188
-4.910500526428223 -7.871046543121338 -2.4020309448242188
-4.748496055603027 -7.969829559326172 -2.4020309448242188
-4.584504127502441 -8.065274238586426 -2.4020309448242188
-3.910069465637207 -8.412951469421387 -2.4020309448242188
-3.562753200531006 -8.565810203552246 -2.4020309448242188
-3.3868212699890137 -8.636883735656738 -2.4020309448242188
-3.2094786167144775 -8.704347610473633 -2.4020309448242188
-2.6696813106536865 -8.884771347045898 -2.4020309448242188
-2.487424373626709 -8.937506675720215 -2.4020309448242188
-2.119844913482666 -9.031753540039062 -2.4020309448242188
-1.7487218379974365 -9.110892295837402 -2.4020309448242188
-1.374672770500183 -9.174779891967773 -2.4020309448242188
-4.342993259429932 -7.289237022399902 -2.4020309448242188
-4.193002700805664 -7.376526832580566 -2.4020309448242188
-4.041265964508057 -7.460745811462402 -2.4020309448242188
-3.8878307342529297 -7.5418291091918945 -2.4020309448242188
-3.7327756881713867 -7.619762897491455 -2.4020309448242188
-3.41805100440979 -7.76604700088501 -2.4020309448242188
-3.097599983215332 -7.899322986602783 -2.4020309448242188
-2.7719738483428955 -8.01939582824707 -2.4020309448242188
-2.441706418991089 -8.126046180725098 -2.4020309448242188
-2.275006055831909 -8.174275398254395 -2.4020309448242188
-1.7694737911224365 -8.298404693603516 -2.4020309448242188
-4.268269062042236 -6.539875507354736 -2.4020309448242188
-3.997256278991699 -6.708954811096191 -2.4020309448242188
-3.4356212615966797 -7.0131754875183105 -2.4020309448242188
-2.99910569190979 -7.210651874542236 -2.4020309448242188
-2.8510093688964844 -7.270479679107666 -2.4020309448242188
-2.551302433013916 -7.380989074707031 -2.4020309448242188
-2.399817943572998 -7.43162202835083 -2.4020309448242188
-2.247326612472534 -7.479147911071777 -2.4020309448242188
-1.9395922422409058 -7.564793586730957 -2.4020309448242188
-1.7844738960266113 -7.602878093719482 -2.4020309448242188
-1.3149034976959229 -7.697996139526367 -2.4020309448242188
-1.1571935415267944 -7.723276615142822 -2.4020309448242188
-3.9494731426239014 -6.051416397094727 -2.4020309448242188
-3.8248913288116455 -6.130926609039307 -2.4020309448242188
-3.179004430770874 -6.489365100860596 -2.4020309448242188
-3.045635938644409 -6.553025245666504 -2.4020309448242188
-2.910977602005005 -6.613943099975586 -2.4020309448242188
-2.7751049995422363 -6.672094345092773 -2.4020309448242188
-2.638068675994873 -6.727453231811523 -2.4020309448242188
-2.0794763565063477 -6.920535564422607 -2.4020309448242188
-1.6511913537979126 -7.035027503967285 -2.4020309448242188
-1.5069701671600342 -7.067325115203857 -2.4020309448242188
-1.362115502357483 -7.09666633605957 -2.4020309448242188
-3.1991941928863525 -5.906156063079834 -2.4020309448242188
-3.077726364135742 -5.970345973968506 -2.4020309448242188
-2.57952880859375 -6.20189094543457 -2.4020309448242188
-2.4521543979644775 -6.2533488273620605 -2.4020309448242188
-2.194383382797241 -6.348400592803955 -2.4020309448242188
-1.932928442955017 -6.432824611663818 -2.4020309448242188
-1.5348278284072876 -6.539246082305908 -2.4020309448242188
-1.130950927734375 -6.621057510375977 -2.4020309448242188
-3.3177342414855957 -5.318001747131348 -2.4020309448242188
-3.2082719802856445 -5.384741306304932 -2.4020309448242188
-2.872039794921875 -5.571342468261719 -2.4020309448242188
-2.757486581802368 -5.628914833068848 -2.4020309448242188
-2.6417980194091797 -5.684131145477295 -2.4020309448242188
-2.4071385860443115 -5.787413120269775 -2.4020309448242188
-2.168454647064209 -5.881011962890625 -2.4020309448242188
-2.047724485397339 -5.924129486083984 -2.4020309448242188
-1.680601716041565 -6.038546562194824 -2.4020309448242188
-1.5567529201507568 -6.071655750274658 -2.4020309448242188
-1.3071520328521729 -6.130240440368652 -2.4020309448242188
-0.9287853837013245 -6.198855876922607 -2.4020309448242188
-3.207695960998535 -4.914851188659668 -2.4020309448242188
-3.004019021987915 -5.041916847229004 -2.4020309448242188
-2.6891894340515137 -5.216639518737793 -2.4020309448242188
-2.5819385051727295 -5.270545482635498 -2.4020309448242188
-2.4736082553863525 -5.32224702835083 -2.4020309448242188
-2.1426024436950684 -5.46391487121582 -2.4020309448242188
-1.917547583580017 -5.546976566314697 -2.4020309448242188
-1.8035119771957397 -5.585016250610352 -2.4020309448242188
-1.573607087135315 -5.654097080230713 -2.4020309448242188
-1.457640290260315 -5.685096740722656 -2.4020309448242188
-1.3410693407058716 -5.713719844818115 -2.4020309448242188
-0.98817378282547 -5.785202503204346 -2.4020309448242188
-3.0123400688171387 -4.615530490875244 -2.4020309448242188
-2.821071147918701 -4.734856605529785 -2.4020309448242188
-2.723644971847534 -4.791562557220459 -2.4020309448242188
-2.525416135787964 -4.898937225341797 -2.4020309448242188
-2.2202587127685547 -5.0445780754089355 -2.4020309448242188
-1.906744360923767 -5.171231746673584 -2.4020309448242188
-1.6936743259429932 -5.244880676269531 -2.4020309448242188
-1.5860546827316284 -5.2784223556518555 -2.4020309448242188
-1.4777697324752808 -5.309753894805908 -2.4020309448242188
-1.038909912109375 -5.4127607345581055 -2.4020309448242188
-0.9279992580413818 -5.432875156402588 -2.4020309448242188
-0.8166906833648682 -5.450717449188232 -2.4020309448242188
-2.8361871242523193 -4.345627784729004 -2.4020309448242188
-2.746721029281616 -4.4027228355407715 -2.4020309448242188
-2.656104564666748 -4.457979202270508 -2.4020309448242188
-2.564373731613159 -4.511367321014404 -2.4020309448242188
-2.471574544906616 -4.562870979309082 -2.4020309448242188
-2.377736806869507 -4.612462997436523 -2.4020309448242188
-2.282907724380493 -4.660126209259033 -2.4020309448242188
-1.8944432735443115 -4.831099510192871 -2.4020309448242188
-1.7952466011047363 -4.868833541870117 -2.4020309448242188
-1.6952966451644897 -4.9045329093933105 -2.4020309448242188
-1.288824439048767 -5.026666641235352 -2.4020309448242188
-0.9781591296195984 -5.096238136291504 -2.4020309448242188
-0.8737280368804932 -5.115177631378174 -2.4020309448242188
-0.7689318656921387 -5.131976127624512 -2.4020309448242188
-2.676384210586548 -4.100773334503174 -2.4020309448242188
-2.5919249057769775 -4.154641151428223 -2.4020309448242188
-2.4198851585388184 -4.257174968719482 -2.4020309448242188
-2.3323144912719727 -4.305777072906494 -2.4020309448242188
-2.243764638900757 -4.352574348449707 -2.4020309448242188
-2.063891649246216 -4.440690517425537 -2.4020309448242188
-1.8805663585662842 -4.521378040313721 -2.4020309448242188
-1.7877025604248047 -4.558892726898193 -2.4020309448242188
-1.6940929889678955 -4.594500541687012 -2.4020309448242188
-1.5997741222381592 -4.628185749053955 -2.4020309448242188
-1.4091699123382568 -4.689736366271973 -2.4020309448242188
-1.2162060737609863 -4.743440628051758 -2.4020309448242188
-1.0212085247039795 -4.78920841217041 -2.4020309448242188
-0.9230480790138245 -4.8090925216674805 -2.4020309448242188
-0.8245007395744324 -4.826963901519775 -2.4020309448242188
-0.7256091237068176 -4.84281587600708 -2.4020309448242188
-2.5306127071380615 -3.8774197101593018 -2.4020309448242188
-2.2880589962005615 -4.025292873382568 -2.4020309448242188
-2.121553897857666 -4.115506649017334 -2.4020309448242188
-2.0369420051574707 -4.158034324645996 -2.4020309448242188
-1.9514782428741455 -4.198822975158691 -2.4020309448242188
-1.778135895729065 -4.2751145362854 -2.4020309448242188
-1.6903319358825684 -4.310585975646973 -2.4020309448242188
-1.6018224954605103 -4.344255447387695 -2.4020309448242188
-1.4228259325027466 -4.406126022338867 -2.4020309448242188
-1.14996337890625 -4.485082149505615 -2.4020309448242188
-0.9655858874320984 -4.528358459472656 -2.4020309448242188
-0.7795922756195068 -4.564055919647217 -2.4020309448242188
-0.6860876083374023 -4.579046726226807 -2.4020309448242188
-2.3213586807250977 -3.72090744972229 -2.4020309448242188
-2.244774103164673 -3.767604351043701 -2.4020309448242188
-2.1672496795654297 -3.8127262592315674 -2.4020309448242188
-2.009516477584839 -3.8981664180755615 -2.4020309448242188
-1.848421573638916 -3.977083683013916 -2.4020309448242188
-1.6842358112335205 -4.049346923828125 -2.4020309448242188
-1.6010668277740479 -4.082944393157959 -2.4020309448242188
-1.2620519399642944 -4.200128555297852 -2.4020309448242188
-1.1758898496627808 -4.22506046295166 -2.4020309448242188
-0.9145947098731995 -4.289215564727783 -2.4020309448242188
-0.8266931176185608 -4.307030200958252 -2.4020309448242188
-0.7384228110313416 -4.323028564453125 -2.4020309448242188
-2.2738842964172363 -3.4840657711029053 -2.4020309448242188
-2.202117919921875 -3.5298314094543457 -2.4020309448242188
-2.129506826400757 -3.5741405487060547 -2.4020309448242188
-1.9814502000808716 -3.6582067012786865 -2.4020309448242188
-1.9063280820846558 -3.6979968547821045 -2.4020309448242188
-1.6759790182113647 -3.807936429977417 -2.4020309448242188
-1.597747802734375 -3.8414127826690674 -2.4020309448242188
-1.5188524723052979 -3.873286724090576 -2.4020309448242188
-1.2784838676452637 -3.9591352939605713 -2.4020309448242188
-1.197243571281433 -3.9844541549682617 -2.4020309448242188
-0.9506652355194092 -4.050370216369629 -2.4020309448242188
-0.8676306009292603 -4.068967342376709 -2.4020309448242188
-0.7842309474945068 -4.0858588218688965 -2.4020309448242188
-0.7005053758621216 -4.101042747497559 -2.4020309448242188
-0.616485595703125 -4.1145124435424805 -2.4020309448242188
