ply
format ascii 1.0
element vertex 248
property float x
property float y
property float z
end_header
-39.03330612182617 -22.61548614501953 5.874475955963135
-39.89864730834961 -20.971988677978516 -0.25377899408340454
-42.55767059326172 -20.178865432739258 -1.326216220855713
-39.59241485595703 -20.811031341552734 -1.259462594985962
-41.76170349121094 -23.06103515625 -1.3432906866073608
-39.81929397583008 -23.070873260498047 -1.2958202362060547
-26.7491455078125 -20.27912712097168 -0.9451780319213867
-26.05593490600586 -20.612062454223633 -0.9354856610298157
-26.029035568237305 -21.47677230834961 -0.9501994252204895
-35.28818893432617 -12.474655151367188 -1.8981337547302246
-40.74700164794922 -15.355372428894043 -2.208317279815674
-40.424251556396484 -16.19195556640625 -2.208430290222168
-40.08466720581055 -17.02190589904785 -2.208561897277832
-27.72549819946289 -12.453516960144043 -1.5414080619812012
-39.35552978515625 -18.660554885864258 -2.208881139755249
-38.13905334472656 -21.060588836669922 -2.2094991207122803
-37.70145034790039 -21.843820571899414 -2.2097418308258057
-37.246826171875 -22.617414474487305 -2.209928274154663
-36.29080581665039 -24.136302947998047 -2.2103419303894043
-35.7932243347168 -24.883358001708984 -2.2107794284820557
-27.562353134155273 -20.015504837036133 -1.7274901866912842
-26.43753433227539 -20.042888641357422 -1.6825072765350342
-24.590858459472656 -20.290115356445312 -1.6168224811553955
-28.713048934936523 -10.820395469665527 -2.249826669692993
-27.11625099182129 -13.548014640808105 -2.2225682735443115
-26.539039611816406 -14.65499496459961 -2.222869634628296
-26.233659744262695 -15.199499130249023 -2.223039388656616
-18.686845779418945 -12.428255081176758 -1.6455219984054565
-24.174495697021484 -18.327219009399414 -2.2243242263793945
-23.589271545410156 -8.338994979858398 -2.4020309448242188
-23.412565231323242 -8.822949409484863 -2.4020309448242188
-23.225980758666992 -9.30316162109375 -2.4020309448242188
-21.486148834228516 -9.650968551635742 -2.2613091468811035
-21.173330307006836 -10.039406776428223 -2.249673843383789
-20.74696159362793 -10.905258178710938 -2.2502071857452393
-20.52803611755371 -11.335689544677734 -2.2513067722320557
-20.300094604492188 -11.76165771484375 -2.2523961067199707
-19.94635009765625 -12.112457275390625 -2.240431785583496
-19.59664535522461 -12.4593505859375 -2.22947096824646
-18.68684959411621 -12.428255081176758 -2.15457820892334
-19.078615188598633 -13.263401985168457 -2.2307722568511963
-18.802995681762695 -13.654542922973633 -2.2309510707855225
-18.519420623779297 -14.039986610412598 -2.231139898300171
-18.9224796295166 -7.130876541137695 -2.4020309448242188
-18.61284065246582 -7.9039201736450195 -2.4020309448242188
-18.089372634887695 -9.037945747375488 -2.4020309448242188
-17.453760147094727 -9.63805866241455 -2.368359088897705
-16.663822174072266 -9.654919624328613 -2.2876853942871094
-16.18779945373535 -9.82972526550293 -2.249631404876709
-15.555350303649902 -10.814038276672363 -2.250396490097046
-15.335015296936035 -11.136136054992676 -2.2512238025665283
-14.87421703338623 -11.766544342041016 -2.2528457641601562
-14.268420219421387 -12.275513648986816 -2.2358219623565674
-15.863748550415039 -5.9782023429870605 -2.4020309448242188
-15.73729133605957 -6.3035807609558105 -2.4020309448242188
-15.4644136428833 -6.94618034362793 -2.4020309448242188
-15.16530704498291 -7.576998710632324 -2.4020309448242188
-15.006071090698242 -7.887665271759033 -2.4020309448242188
-14.668588638305664 -8.498822212219238 -2.4020309448242188
-14.115909576416016 -9.388214111328125 -2.4020309448242188
-13.869643211364746 -9.642141342163086 -2.39340877532959
-13.747114181518555 -4.859718322753906 -2.4020309448242188
-13.535391807556152 -5.421602725982666 -2.4020309448242188
-13.420867919921875 -5.699151515960693 -2.4020309448242188
-13.30067253112793 -5.9742889404296875 -2.4020309448242188
-13.174837112426758 -6.246893405914307 -2.4020309448242188
-13.043417930603027 -6.516846179962158 -2.4020309448242188
-12.906465530395508 -6.7840447425842285 -2.4020309448242188
-12.616195678710938 -7.309688568115234 -2.4020309448242188
-12.463004112243652 -7.5679192543029785 -2.4020309448242188
-12.304544448852539 -7.822935581207275 -2.4020309448242188
-12.140847206115723 -8.074640274047852 -2.4020309448242188
-11.972013473510742 -8.322914123535156 -2.4020309448242188
-11.619234085083008 -8.808768272399902 -2.4020309448242188
-11.435343742370605 -9.04615592956543 -2.4020309448242188
-11.246726989746094 -9.279701232910156 -2.4020309448242188
-11.053166389465332 -9.509309768676758 -2.4020309448242188
-11.958467483520508 -4.506509304046631 -2.4020309448242188
-11.65744400024414 -5.236196994781494 -2.4020309448242188
-11.547146797180176 -5.4751200675964355 -2.4020309448242188
-11.431955337524414 -5.711720943450928 -2.4020309448242188
-11.18713092803955 -6.177577495574951 -2.4020309448242188
-10.923263549804688 -6.632938861846924 -2.4020309448242188
-10.640908241271973 -7.077057361602783 -2.4020309448242188
-10.340503692626953 -7.5091729164123535 -2.4020309448242188
-10.022564888000488 -7.9285454750061035 -2.4020309448242188
-10.71383285522461 -3.7874279022216797 -2.4020309448242188
-10.63357925415039 -4.007228374481201 -2.4020309448242188
-10.548810958862305 -4.225331783294678 -2.4020309448242188
-10.459574699401855 -4.441645622253418 -2.4020309448242188
-10.36589241027832 -4.656069278717041 -2.4020309448242188
-10.267828941345215 -4.868525981903076 -2.4020309448242188
-10.16540241241455 -5.078912258148193 -2.4020309448242188
-10.058680534362793 -5.2871551513671875 -2.4020309448242188
-9.713033676147461 -5.89806604385376 -2.4020309448242188
-9.461987495422363 -6.2929816246032715 -2.4020309448242188
-9.055434226989746 -6.865126132965088 -2.4020309448242188
-8.912145614624023 -7.050131797790527 -2.4020309448242188
-8.765094757080078 -7.232149124145508 -2.4020309448242188
-8.614324569702148 -7.411094665527344 -2.4020309448242188
-9.636032104492188 -3.406416654586792 -2.4020309448242188
-9.48760986328125 -3.8002679347991943 -2.4020309448242188
-9.046778678894043 -4.755271911621094 -2.4020309448242188
-8.624860763549805 -5.483480930328369 -2.4020309448242188
-8.269871711730957 -6.00549840927124 -2.4020309448242188
-8.14445972442627 -6.174500465393066 -2.4020309448242188
-8.015595436096191 -6.3408966064453125 -2.4020309448242188
-7.88332986831665 -6.504601955413818 -2.4020309448242188
-7.747720241546631 -6.665545463562012 -2.4020309448242188
-8.746747016906738 -3.0920445919036865 -2.4020309448242188
-8.681224822998047 -3.271491289138794 -2.4020309448242188
-8.612029075622559 -3.449552536010742 -2.4020309448242188
-8.462700843811035 -3.801206588745117 -2.4020309448242188
-8.29901123046875 -4.146411418914795 -2.4020309448242188
-8.211878776550293 -4.316421985626221 -2.4020309448242188
-8.121252059936523 -4.484598636627197 -2.4020309448242188
-7.92972469329834 -4.815169811248779 -2.4020309448242188
-7.828892230987549 -4.977424144744873 -2.4020309448242188
-7.724742889404297 -5.137573719024658 -2.4020309448242188
-7.617329120635986 -5.2955451011657715 -2.4020309448242188
-7.506669044494629 -5.451268196105957 -2.4020309448242188
-7.9998040199279785 -2.8279967308044434 -2.4020309448242188
-7.939877033233643 -2.992116928100586 -2.4020309448242188
-7.809959411621094 -3.3164894580841064 -2.4020309448242188
-7.666781425476074 -3.63523006439209 -2.4020309448242188
-7.510616302490234 -3.947817802429199 -2.4020309448242188
-7.427722454071045 -4.101627826690674 -2.4020309448242188
-7.252552509307861 -4.403972148895264 -2.4020309448242188
-7.1603288650512695 -4.552369117736816 -2.4020309448242188
-7.065080642700195 -4.698846817016602 -2.4020309448242188
-6.8656229972839355 -4.985745906829834 -2.4020309448242188
-6.761515140533447 -5.126055717468262 -2.4020309448242188
-6.654531002044678 -5.264198303222656 -2.4020309448242188
-6.4321465492248535 -5.533720970153809 -2.4020309448242188
-7.362962245941162 -2.6028659343719482 -2.4020309448242188
-7.188223838806152 -3.052471160888672 -2.4020309448242188
-6.912709712982178 -3.633538007736206 -2.4020309448242188
-6.836423873901367 -3.775108814239502 -2.4020309448242188
-6.757248878479004 -3.9150750637054443 -2.4020309448242188
-6.675200462341309 -4.053382873535156 -2.4020309448242188
-6.5026469230651855 -4.32478141784668 -2.4020309448242188
-6.4122161865234375 -4.457757472991943 -2.4020309448242188
-6.319071292877197 -4.588845729827881 -2.4020309448242188
-6.023714065551758 -4.97021484375 -2.4020309448242188
-5.920095920562744 -5.093193054199219 -2.4020309448242188
-6.7080888748168945 -2.6869289875030518 -2.4020309448242188
-6.651340007781982 -2.82448410987854 -2.4020309448242188
-6.591773986816406 -2.9608397483825684 -2.4020309448242188
-6.529407024383545 -3.0959417819976807 -2.4020309448242188
-6.252548694610596 -3.622659921646118 -2.4020309448242188
-6.1766276359558105 -3.750638246536255 -2.4020309448242188
-5.933292865753174 -4.124810695648193 -2.4020309448242188
-5.84710168838501 -4.246108531951904 -2.4020309448242188
-5.667322158813477 -4.48324728012085 -2.4020309448242188
-5.5738091468811035 -4.598992347717285 -2.4020309448242188
-6.285458087921143 -2.368652820587158 -2.4020309448242188
-6.235343933105469 -2.497572898864746 -2.4020309448242188
-6.182602882385254 -2.625433921813965 -2.4020309448242188
-6.127236843109131 -2.7521812915802 -2.4020309448242188
-6.0692644119262695 -2.877761125564575 -2.4020309448242188
-6.008723735809326 -3.002121925354004 -2.4020309448242188
-5.945633888244629 -3.125213623046875 -2.4020309448242188
-5.880018711090088 -3.246975898742676 -2.4020309448242188
-5.811913967132568 -3.3673598766326904 -2.4020309448242188
-5.741348743438721 -3.4863195419311523 -2.4020309448242188
-5.668344497680664 -3.6037979125976562 -2.4020309448242188
-5.592934608459473 -3.7197506427764893 -2.4020309448242188
-5.2679266929626465 -4.167298316955566 -2.4020309448242188
-5.86539363861084 -2.2103538513183594 -2.4020309448242188
-5.818634033203125 -2.330658435821533 -2.4020309448242188
-5.769407272338867 -2.4499738216400146 -2.4020309448242188
-5.663649559020996 -2.6854379177093506 -2.4020309448242188
-5.607152462005615 -2.801485776901245 -2.4020309448242188
-5.423501491546631 -3.142317056655884 -2.4020309448242188
-5.357646465301514 -3.2533254623413086 -2.4020309448242188
-5.289523124694824 -3.362952470779419 -2.4020309448242188
-5.219151496887207 -3.471156597137451 -2.4020309448242188
-4.915872097015381 -3.8887953758239746 -2.4020309448242188
-4.834751605987549 -3.989193916320801 -2.4020309448242188
-5.491968154907227 -2.069629669189453 -2.4020309448242188
-5.303066253662109 -2.514467239379883 -2.4020309448242188
-5.078205585479736 -2.942258596420288 -2.4020309448242188
-5.016545295715332 -3.0461997985839844 -2.4020309448242188
-4.952761173248291 -3.1488475799560547 -2.4020309448242188
-4.818912029266357 -3.3500964641571045 -2.4020309448242188
-4.676898002624512 -3.5456600189208984 -2.4020309448242188
-4.602900981903076 -3.6412124633789062 -2.4020309448242188
-5.157497406005859 -1.943585753440857 -2.4020309448242188
-5.0276665687561035 -2.2582874298095703 -2.4020309448242188
-4.980111122131348 -2.361332416534424 -2.4020309448242188
-4.930426120758057 -2.463374614715576 -2.4020309448242188
-4.878656387329102 -2.56437611579895 -2.4020309448242188
-4.824817180633545 -2.664290189743042 -2.4020309448242188
-4.768937110900879 -2.763070583343506 -2.4020309448242188
-4.651127338409424 -2.9570775032043457 -2.4020309448242188
-4.589253902435303 -3.05222225189209 -2.4020309448242188
-4.392068862915039 -3.329724073410034 -2.4020309448242188
-4.322571277618408 -3.4194557666778564 -2.4020309448242188
-4.251246929168701 -3.507737398147583 -2.4020309448242188
-4.892551898956299 -1.7295578718185425 -2.4020309448242188
-4.817185401916504 -1.9295305013656616 -2.4020309448242188
-4.776442050933838 -2.028311014175415 -2.4020309448242188
-4.135234355926514 -3.1350131034851074 -2.4020309448242188
-4.069801330566406 -3.219496488571167 -2.4020309448242188
-4.0026445388793945 -3.3026158809661865 -2.4020309448242188
-3.9337987899780273 -3.384334087371826 -2.4020309448242188
-4.582297325134277 -1.7268238067626953 -2.4020309448242188
-4.545768737792969 -1.8208105564117432 -2.4020309448242188
-4.507317543029785 -1.914026141166687 -2.4020309448242188
-4.380551815032959 -2.1886422634124756 -2.4020309448242188
-4.33455753326416 -2.2783799171447754 -2.4020309448242188
-4.286721229553223 -2.367149829864502 -2.4020309448242188
-4.185624122619629 -2.5416383743286133 -2.4020309448242188
-4.077425956726074 -2.711817502975464 -2.4020309448242188
-3.9623191356658936 -2.8773961067199707 -2.4020309448242188
-3.8404905796051025 -3.0380945205688477 -2.4020309448242188
-3.7771177291870117 -3.1165294647216797 -2.4020309448242188
-3.7121472358703613 -3.193643093109131 -2.4020309448242188
-4.365386962890625 -1.5432109832763672 -2.4020309448242188
-4.298178672790527 -1.7216384410858154 -2.4020309448242188
-4.261818885803223 -1.809775710105896 -2.4020309448242188
-4.183684825897217 -1.9837114810943604 -2.4020309448242188
-4.141958713531494 -2.0694351196289062 -2.4020309448242188
-4.053239822387695 -2.23822021484375 -2.4020309448242188
-3.957653045654297 -2.4032042026519775 -2.4020309448242188
-3.8017332553863525 -2.642953634262085 -2.4020309448242188
-3.7465085983276367 -2.720675230026245 -2.4020309448242188
-3.68969464302063 -2.797239065170288 -2.4020309448242188
-3.5099589824676514 -3.0196971893310547 -2.4020309448242188
-4.134881496429443 -1.4617143869400024 -2.4020309448242188
-4.000551700592041 -1.796957015991211 -2.4020309448242188
-3.962773323059082 -1.8789514303207397 -2.4020309448242188
-3.9232122898101807 -1.9601489305496216 -2.4020309448242188
-3.882028102874756 -2.0405166149139404 -2.4020309448242188
-3.8391900062561035 -2.1200196743011475 -2.4020309448242188
-3.794722318649292 -2.1986210346221924 -2.4020309448242188
-3.7486467361450195 -2.276291847229004 -2.4020309448242188
-3.6517417430877686 -2.428704023361206 -2.4020309448242188
-3.6009674072265625 -2.503380537033081 -2.4020309448242188
-3.5486576557159424 -2.576995849609375 -2.4020309448242188
-3.382791042327881 -2.7911643981933594 -2.4020309448242188
-3.795172691345215 -1.7046849727630615 -2.4020309448242188
-3.721766233444214 -1.8594965934753418 -2.4020309448242188
-3.682687997817993 -1.935738205909729 -2.4020309448242188
-3.642069101333618 -2.011157989501953 -2.4020309448242188
-3.5998687744140625 -2.085724353790283 -2.4020309448242188
-3.510937452316284 -2.2321701049804688 -2.4020309448242188
-3.2629246711730957 -2.5812008380889893 -2.4020309448242188
