ply
format ascii 1.0
element vertex 208
property float x
property float y
property float z
end_header
6.126235008239746 9.344226837158203 1.7117087841033936
6.12623405456543 9.344226837158203 1.199824333190918
6.126236438751221 9.344226837158203 0.9458631873130798
30.569608688354492 39.30580139160156 3.0877435207366943
30.569608688354492 39.30580520629883 1.96342933177948
6.126235008239746 9.344226837158203 0.4405815005302429
6.126235008239746 9.344226837158203 0.18874068558216095
30.50557518005371 39.22346496582031 -0.2797625660896301
6.126235008239746 9.344226837158203 -0.06290649622678757
6.126235008239746 9.344226837158203 -0.31461653113365173
25.797977447509766 36.08535385131836 -2.2496156692504883
24.349809646606445 40.625205993652344 -2.4020156860351562
23.525238037109375 41.108211517333984 -2.4020156860351562
22.69112205505371 41.57406234741211 -2.4020156860351562
20.99542999267578 42.45602035522461 -2.4020156860351562
20.134611129760742 42.87094497680664 -2.4020156860351562
18.38871955871582 43.648353576660156 -2.4020156860351562
19.586095809936523 26.259977340698242 -2.4020156860351562
17.40534782409668 27.753480911254883 -2.4020156860351562
15.111268997192383 29.066328048706055 -2.4020156860351562
14.52177906036377 29.36527442932129 -2.4020156860351562
13.926376342773438 29.65228271484375 -2.4020156860351562
13.325309753417969 29.927141189575195 -2.4020156860351562
12.107152938842773 30.440414428710938 -2.4020156860351562
15.360112190246582 19.74972152709961 -2.4020156860351562
14.958535194396973 20.05558967590332 -2.4020156860351562
14.13729476928711 20.642711639404297 -2.4020156860351562
6.126235008239746 9.344226837158203 -1.07270348072052
12.86269474029541 21.46010398864746 -2.4020156860351562
12.427130699157715 21.715267181396484 -2.4020156860351562
11.090749740600586 22.42721176147461 -2.4020156860351562
10.636027336120605 22.646400451660156 -2.4020156860351562
10.17696762084961 22.85637664794922 -2.4020156860351562
9.713773727416992 23.057044982910156 -2.4020156860351562
8.659955978393555 21.773290634155273 -2.2496156692504883
12.089777946472168 16.209314346313477 -2.4020156860351562
6.126236438751221 9.344226837158203 -1.3272439241409302
10.74367618560791 17.131196975708008 -2.4020156860351562
10.39587116241455 17.344459533691406 -2.4020156860351562
9.687697410583496 17.749736785888672 -2.4020156860351562
8.735815048217773 16.80323600769043 -2.2496156692504883
8.395031929016113 16.97606086730957 -2.2496156692504883
7.352746486663818 17.452800750732422 -2.2496156692504883
6.999139308929443 17.59758949279785 -2.2496156692504883
10.407611846923828 13.381906509399414 -2.4020156860351562
10.135517120361328 13.589151382446289 -2.4020156860351562
9.859301567077637 13.790874481201172 -2.4020156860351562
9.57906436920166 13.986968994140625 -2.4020156860351562
6.126235008239746 9.344226837158203 -1.5831539630889893
8.43554401397705 13.450794219970703 -2.2496156692504883
8.162460327148438 13.618242263793945 -2.2496156692504883
7.606430530548096 13.936447143554688 -2.2496156692504883
7.323713302612305 14.08707046508789 -2.2496156692504883
6.162681579589844 14.628019332885742 -2.2490594387054443
5.865573406219482 14.74752140045166 -2.248776912689209
8.164291381835938 10.946240425109863 -2.2496156692504883
7.94180154800415 11.108725547790527 -2.2496156692504883
6.126236438751221 9.344226837158203 -1.8407000303268433
7.020390510559082 11.712814331054688 -2.2496156692504883
6.051509857177734 12.23709487915039 -2.248960256576538
5.298497200012207 12.57674503326416 -2.248243570327759
7.347739219665527 9.447575569152832 -2.2496163845062256
6.96063232421875 9.736294746398926 -2.2496161460876465
6.126236438751221 9.344226837158203 -2.1001644134521484
6.155826091766357 10.270373344421387 -2.250628709793091
5.735049724578857 10.507719039916992 -2.250065326690674
5.521223068237305 10.620022773742676 -2.2497975826263428
4.418934345245361 11.110309600830078 -2.247417449951172
6.362879276275635 8.531004905700684 -2.2496256828308105
6.013554573059082 8.78074836730957 -2.2496261596679688
5.835180759429932 8.900286674499512 -2.249626636505127
5.654428482055664 9.016200065612793 -2.2496278285980225
5.471379280090332 9.128447532653809 -2.249626636505127
5.286093711853027 9.23696517944336 -2.2496256828308105
4.332912445068359 9.731254577636719 -2.2516822814941406
4.135329723358154 9.815799713134766 -2.2514777183532715
5.876428127288818 7.555795192718506 -2.2496306896209717
5.566834449768066 7.786704063415527 -2.249630928039551
5.248176097869873 8.0049409866333 -2.249630928039551
5.085611343383789 8.109190940856934 -2.249630928039551
4.920971393585205 8.210145950317383 -2.249630928039551
4.754328727722168 8.307754516601562 -2.249630928039551
4.585752010345459 8.401981353759766 -2.249630928039551
4.419230937957764 8.50033187866211 -2.251628875732422
4.07700777053833 8.680834770202637 -2.2540030479431152
5.334105014801025 6.858489990234375 -2.249630928039551
5.053085803985596 7.068090438842773 -2.249630928039551
4.76383638381958 7.2661895751953125 -2.249630928039551
4.321159362792969 7.550828456878662 -2.252546787261963
3.857492685317993 7.800446510314941 -2.253138303756714
3.699625253677368 7.877303123474121 -2.253316640853882
3.3793323040008545 8.02132511138916 -2.2536489963531494
3.2170286178588867 8.088418960571289 -2.253802537918091
4.75105094909668 6.369951248168945 -2.249630928039551
4.621574401855469 6.46450138092041 -2.249630928039551
4.3570237159729 6.645679950714111 -2.249630928039551
4.22367525100708 6.734809875488281 -2.2504918575286865
4.08730936050415 6.819262504577637 -2.2506935596466064
3.9492344856262207 6.900925636291504 -2.2508859634399414
3.8095152378082275 6.979765892028809 -2.2510712146759033
3.6682116985321045 7.055759906768799 -2.251248836517334
3.525385618209839 7.128875732421875 -2.2514195442199707
3.088330030441284 7.33059549331665 -2.2518858909606934
2.93998646736145 7.391863822937012 -2.252026081085205
4.634670257568359 6.2139177322387695 -2.3843376636505127
4.440731048583984 6.211548328399658 -2.3485679626464844
4.256423473358154 6.215062141418457 -2.3169496059417725
3.7601499557495117 6.273431777954102 -2.249630928039551
3.6328184604644775 6.348018646240234 -2.249630928039551
3.5040135383605957 6.420029163360596 -2.249635934829712
3.2426257133483887 6.557095050811768 -2.249955892562866
3.109884023666382 6.621621131896973 -2.2501060962677
2.9758496284484863 6.6834397315979 -2.250248908996582
2.840578556060791 6.742526054382324 -2.25038480758667
2.704127073287964 6.798851013183594 -2.250513792037964
4.202595233917236 5.878452777862549 -2.4020309448242188
3.962028741836548 6.043207168579102 -2.4020309448242188
3.839301586151123 6.1219096183776855 -2.4020309448242188
3.551378011703491 6.205709934234619 -2.3767147064208984
3.3897581100463867 6.210690021514893 -2.3519461154937744
3.23132061958313 6.2154059410095215 -2.3285651206970215
3.0758605003356934 6.21986722946167 -2.306513547897339
2.923179864883423 6.224086284637451 -2.285738706588745
4.015866756439209 5.384258270263672 -2.4020309448242188
3.906425714492798 5.464181423187256 -2.4020309448242188
3.7953906059265137 5.5418806076049805 -2.4020309448242188
3.568735361099243 5.690482139587402 -2.4020309448242188
3.45324444770813 5.761322021484375 -2.4020309448242188
3.2179698944091797 5.895941257476807 -2.4020309448242188
2.977496385574341 6.020959377288818 -2.4020309448242188
2.8554186820983887 6.079805374145508 -2.4020309448242188
2.468395948410034 6.2061686515808105 -2.3884716033935547
3.848088264465332 4.947797775268555 -2.4020309448242188
3.7474851608276367 5.024423599243164 -2.4020309448242188
3.3302319049835205 5.310181140899658 -2.4020309448242188
3.2224206924438477 5.376288414001465 -2.4020309448242188
3.0029101371765137 5.5019097328186035 -2.4020309448242188
2.89129638671875 5.561375617980957 -2.4020309448242188
2.778505802154541 5.618574142456055 -2.4020309448242188
2.549591064453125 5.726089954376221 -2.4020309448242188
2.433553457260132 5.776364803314209 -2.4020309448242188
2.316507577896118 5.824282646179199 -2.4020309448242188
3.6030969619750977 4.632791042327881 -2.4020309448242188
3.508897542953491 4.704539775848389 -2.4020309448242188
3.1182103157043457 4.972103595733643 -2.4020309448242188
3.0172643661499023 5.03400182723999 -2.4020309448242188
2.707219123840332 5.20730447769165 -2.4020309448242188
2.6011462211608887 5.260862827301025 -2.4020309448242188
2.4949450492858887 5.3122782707214355 -2.4020309448242188
2.387260675430298 5.3615336418151855 -2.4020309448242188
3.3836631774902344 4.35064697265625 -2.4020309448242188
3.295201301574707 4.418025970458984 -2.4020309448242188
3.2053990364074707 4.483605861663818 -2.4020309448242188
3.0219151973724365 4.609267711639404 -2.4020309448242188
2.542346239089966 4.890172004699707 -2.4020309448242188
2.4431700706481934 4.940467834472656 -2.4020309448242188
2.241877317428589 5.035007953643799 -2.4020309448242188
2.0369348526000977 5.1213507652282715 -2.4020309448242188
3.1857969760894775 4.096235275268555 -2.4020309448242188
3.017956495285034 4.221418380737305 -2.4020309448242188
2.9321751594543457 4.28144645690918 -2.4020309448242188
2.845202684402466 4.339732646942139 -2.4020309448242188
2.7570691108703613 4.396249771118164 -2.4020309448242188
2.667813777923584 4.4509782791137695 -2.4020309448242188
2.486081600189209 4.554980278015137 -2.4020309448242188
2.3936779499053955 4.604209899902344 -2.4020309448242188
2.014707088470459 4.782196521759033 -2.4020309448242188
3.0062925815582275 3.865432024002075 -2.4020309448242188
2.8479113578796387 3.9835636615753174 -2.4020309448242188
2.766962766647339 4.04020881652832 -2.4020309448242188
2.684890031814575 4.095210552215576 -2.4020309448242188
2.517496347427368 4.200188636779785 -2.4020309448242188
2.4322447776794434 4.250124454498291 -2.4020309448242188
2.170692205429077 4.389474391937256 -2.4020309448242188
1.9918444156646729 4.47346830368042 -2.4020309448242188
1.8097569942474365 4.550181865692139 -2.4020309448242188
2.768235921859741 3.711501359939575 -2.4020309448242188
2.6162571907043457 3.820154905319214 -2.4020309448242188
2.538653612136841 3.872159957885742 -2.4020309448242188
2.4600157737731934 3.9225878715515137 -2.4020309448242188
2.299769163131714 4.018637657165527 -2.4020309448242188
2.218223810195923 4.064215660095215 -2.4020309448242188
2.135777473449707 4.108143329620361 -2.4020309448242188
2.0524609088897705 4.150395393371582 -2.4020309448242188
1.883358120918274 4.2298173904418945 -2.4020309448242188
1.7111852169036865 4.302352428436279 -2.4020309448242188
2.6924376487731934 3.4618823528289795 -2.4020309448242188
2.6220457553863525 3.5154967308044434 -2.4020309448242188
2.5505895614624023 3.5676798820495605 -2.4020309448242188
2.4780919551849365 3.618411064147949 -2.4020309448242188
2.330103635787964 3.7154369354248047 -2.4020309448242188
2.254669189453125 3.7616894245147705 -2.4020309448242188
2.178318977355957 3.8064122200012207 -2.4020309448242188
2.022987127304077 3.891190767288208 -2.4020309448242188
1.944069743156433 3.93121337890625 -2.4020309448242188
1.8643640279769897 3.969635009765625 -2.4020309448242188
2.554180860519409 3.2841155529022217 -2.4020309448242188
2.487406015396118 3.334977865219116 -2.4020309448242188
2.4196178913116455 3.384481191635132 -2.4020309448242188
2.3508434295654297 3.432607412338257 -2.4020309448242188
2.210453987121582 3.5246520042419434 -2.4020309448242188
2.066462278366089 3.6109557151794434 -2.4020309448242188
1.9931920766830444 3.6519110202789307 -2.4020309448242188
1.844244360923767 3.7293479442596436 -2.4020309448242188
1.7686290740966797 3.7657957077026367 -2.4020309448242188
1.692293643951416 3.8007121086120605 -2.4020309448242188
1.6152721643447876 3.834080696105957 -2.4020309448242188
1.5375902652740479 3.8658885955810547 -2.4020309448242188
