ply
format ascii 1.0
element vertex 370
property float x
property float y
property float z
end_header
-17.305944442749023 21.969987869262695 4.9314069747924805
-17.351787567138672 21.154254913330078 4.824365615844727
-17.246732711791992 17.232995986938477 4.2990007400512695
-17.24673080444336 16.564868927001953 4.216553211212158
-17.24673080444336 15.921619415283203 4.138792514801025
-17.246728897094727 14.70262336730957 3.9961161613464355
-17.246726989746094 14.123663902282715 3.9306559562683105
-17.389265060424805 13.67525863647461 3.9007694721221924
-19.828231811523438 13.199929237365723 4.2001237869262695
-22.62998390197754 13.199922561645508 4.619476795196533
-23.69391632080078 13.199920654296875 4.7824578285217285
-17.24673843383789 21.894819259643555 4.2697930335998535
-17.678035736083984 20.703569412231445 4.17057466506958
-17.24673843383789 19.408151626586914 3.977529764175415
-17.246736526489258 18.652301788330078 3.891735076904297
-17.246732711791992 17.232999801635742 3.7350103855133057
-17.24673080444336 15.92161750793457 3.595820903778076
-17.246728897094727 14.123663902282715 3.414989471435547
-17.389266967773438 13.67525863647461 3.3890228271484375
-18.223472595214844 13.199931144714355 3.4471569061279297
-19.003021240234375 13.199930191040039 3.544565439224243
-19.828229904174805 13.199929237365723 3.649104595184326
-20.703960418701172 13.199926376342773 3.7615129947662354
-22.629980087280273 13.199922561645508 4.01344108581543
-23.69391632080078 13.199920654296875 4.1550421714782715
-17.24673843383789 21.894817352294922 3.6294798851013184
-17.31318473815918 21.107189178466797 3.5549566745758057
-17.24673843383789 19.40814971923828 3.3810460567474365
-17.309049606323242 15.97914981842041 3.0676231384277344
-17.31045150756836 14.756946563720703 2.9621124267578125
-17.30742645263672 14.173371315002441 2.913081645965576
-17.437681198120117 13.71334457397461 2.888814687728882
-17.76422119140625 13.410483360290527 2.898425340652466
-18.308313369750977 13.26137638092041 2.9438493251800537
-19.921777725219727 13.262200355529785 3.1165056228637695
-24.49211883544922 13.64460277557373 3.650920867919922
-17.305946350097656 21.969982147216797 3.0031895637512207
-17.351787567138672 21.15425682067871 2.9380009174346924
-17.414520263671875 19.59697151184082 2.8151707649230957
-17.305912017822266 18.71630859375 2.7372758388519287
-17.306745529174805 17.9904727935791 2.680633544921875
-17.30754280090332 17.293766021728516 2.627289295196533
-17.30830955505371 16.624011993408203 2.577017068862915
-17.309049606323242 15.979158401489258 2.529601812362671
-17.310449600219727 14.75694751739502 2.442596912384033
-17.437686920166016 13.713335990905762 2.3821518421173096
-17.764223098754883 13.410481452941895 2.390077829360962
-19.092044830322266 13.2617769241333 2.4962055683135986
-22.739213943481445 13.263641357421875 2.826805353164673
-26.120189666748047 14.551605224609375 3.2107176780700684
-27.640926361083984 14.690597534179688 3.3612871170043945
-17.305944442749023 21.96998405456543 2.3675193786621094
-17.718534469604492 20.75100326538086 2.3098747730255127
-17.246736526489258 19.408153533935547 2.1979196071624756
-17.246734619140625 18.65230941772461 2.150510549545288
-17.246732711791992 17.23300552368164 2.0639073848724365
-17.246728897094727 14.702624320983887 1.918495535850525
-17.709320068359375 13.369035720825195 1.8783594369888306
-18.223474502563477 13.199931144714355 1.904843807220459
-19.003021240234375 13.199930191040039 1.9586701393127441
-19.82823371887207 13.199929237365723 2.016436815261841
-20.703954696655273 13.199926376342773 2.078552007675171
-21.635759353637695 13.199925422668457 2.145482301712036
-26.120208740234375 14.551613807678223 2.531120777130127
-27.640907287597656 14.690579414367676 2.6498260498046875
-17.678030014038086 20.703569412231445 1.6881773471832275
-17.24673843383789 19.408153533935547 1.610031247138977
-17.246734619140625 18.65230941772461 1.5753040313720703
-17.246734619140625 17.928091049194336 1.5426313877105713
-17.24673080444336 15.921624183654785 1.455523133277893
-17.246728897094727 14.702624320983887 1.4053465127944946
-17.709320068359375 13.369035720825195 1.375944972038269
-18.223482131958008 13.199931144714355 1.3953471183776855
-19.003007888793945 13.199930191040039 1.4347742795944214
-19.82823371887207 13.199929237365723 1.4770911931991577
-20.7039794921875 13.199926376342773 1.5225931406021118
-17.837162017822266 22.644367218017578 1.1366333961486816
-17.837160110473633 20.072566986083984 1.0588321685791016
-17.837158203125 19.29084014892578 1.0359934568405151
-17.837158203125 18.541839599609375 1.0145066976547241
-17.837156295776367 17.822946548461914 0.9942722916603088
-17.837156295776367 17.13194465637207 0.9752036929130554
-19.229055404663086 15.747040748596191 0.9800217747688293
-19.640886306762695 15.445979118347168 0.9852561950683594
-23.224977493286133 14.807220458984375 1.0860737562179565
-24.30409049987793 14.827864646911621 1.122610330581665
-25.212631225585938 14.7063627243042 1.1509217023849487
-25.774152755737305 13.698434829711914 1.1509217023849487
-17.837162017822266 22.644367218017578 0.48692092299461365
-17.837160110473633 21.745990753173828 0.4750926196575165
-17.837160110473633 20.072566986083984 0.45359084010124207
-18.026540756225586 16.64151382446289 0.4144151210784912
-19.059844970703125 16.2482852935791 0.42306533455848694
-19.472930908203125 15.946755409240723 0.4251539409160614
-20.079971313476562 15.158666610717773 0.42499953508377075
-23.942855834960938 15.264906883239746 0.47964248061180115
-17.837160110473633 21.745990753173828 -0.15835250914096832
-17.837158203125 20.889936447143555 -0.15465621650218964
-17.837162017822266 20.072566986083984 -0.15118667483329773
-17.837158203125 18.541837692260742 -0.14485763013362885
-17.837156295776367 17.822948455810547 -0.14196838438510895
-18.02654266357422 16.64151382446289 -0.13812942802906036
-19.059844970703125 16.24828338623047 -0.1410093605518341
-21.264739990234375 14.77098274230957 -0.14577484130859375
-23.942855834960938 15.264906883239746 -0.15986983478069305
-25.983333587646484 15.15591049194336 -0.1693589687347412
-26.293004989624023 14.647879600524902 -0.1694389283657074
-28.73353385925293 15.27129077911377 -0.18320418894290924
-17.837160110473633 20.07257080078125 -0.7561147809028625
-17.837158203125 19.290851593017578 -0.7398054599761963
-17.837158203125 18.541839599609375 -0.7244614958763123
-17.837156295776367 17.822954177856445 -0.7100124955177307
-18.409671783447266 16.333229064941406 -0.6929836869239807
-19.47292709350586 15.946755409240723 -0.7087098360061646
-19.890283584594727 15.642107963562012 -0.7125079035758972
-20.079957962036133 15.158663749694824 -0.7084037661552429
-22.898212432861328 15.243657112121582 -0.774566650390625
-23.942855834960938 15.264906883239746 -0.7995409965515137
-25.057613372802734 15.287582397460938 -0.82651287317276
-25.983333587646484 15.15591049194336 -0.8469988703727722
-26.293006896972656 14.647879600524902 -0.8474540710449219
-17.837160110473633 21.745988845825195 -1.426371693611145
-17.837158203125 19.290842056274414 -1.3324459791183472
-18.02653694152832 16.641517639160156 -1.2442026138305664
-18.409666061401367 16.333229064941406 -1.2481189966201782
-19.059843063354492 16.2482852935791 -1.2701696157455444
-20.079952239990234 15.158662796020508 -1.275891661643982
-20.50478172302246 14.85236930847168 -1.2840218544006348
-21.264739990234375 14.77098274230957 -1.31307053565979
-17.837162017822266 22.64436912536621 -2.1135756969451904
-17.837158203125 20.88992691040039 -2.0140955448150635
-17.837160110473633 20.072566986083984 -1.9689043760299683
-17.837158203125 19.290849685668945 -1.9264357089996338
-17.837156295776367 17.822948455810547 -1.8488551378250122
-17.837156295776367 17.131948471069336 -1.8133975267410278
-19.059844970703125 16.24828338623047 -1.836399793624878
-19.47292709350586 15.94675350189209 -1.8454662561416626
-19.890283584594727 15.642107009887695 -1.8553500175476074
-20.079952239990234 15.158660888671875 -1.8447633981704712
-20.504785537719727 14.85236930847168 -1.856425166130066
-22.89821434020996 15.243657112121582 -2.016954183578491
-23.315624237060547 14.865004539489746 -2.0274417400360107
-25.45920753479004 14.85018253326416 -2.1610751152038574
-15.075517654418945 17.65565299987793 -2.228874683380127
-15.419281959533691 17.351688385009766 -2.2285478115081787
-16.088451385498047 16.724016189575195 -2.2279138565063477
-17.349748611450195 15.392857551574707 -2.226724147796631
-18.224742889404297 14.33230972290039 -2.2258992195129395
-18.502248764038086 13.967635154724121 -2.2256362438201904
-18.772565841674805 13.597661972045898 -2.2253801822662354
-19.2911376953125 12.842363357543945 -2.22489857673645
-20.23712158203125 11.274139404296875 -2.2240169048309326
-11.627958297729492 14.7617769241333 -2.232163429260254
-12.19933795928955 14.28722095489502 -2.231621742248535
-8.80653190612793 8.458366394042969 -1.4504510164260864
-10.40445327758789 8.869671821594238 -1.6240429878234863
-15.195666313171387 11.006781578063965 -2.2288029193878174
-13.303617477416992 8.481804847717285 -1.8741436004638672
-16.167661666870117 9.863503456115723 -2.249622106552124
-16.364683151245117 9.545413970947266 -2.250413656234741
-16.555315017700195 9.222996711730957 -2.251116991043091
-9.756248474121094 12.385542869567871 -2.2339563369750977
-9.998083114624023 12.18904972076416 -2.2337286472320557
-8.148857116699219 8.47079849243164 -1.6654268503189087
-8.478150367736816 8.47140884399414 -1.6981682777404785
-11.575897216796875 10.686474800109863 -2.2322325706481934
-10.391254425048828 8.858419418334961 -1.934720754623413
-10.313730239868164 8.44611644744873 -1.8888250589370728
-12.867362976074219 9.320313453674316 -2.251199960708618
-13.572490692138672 8.28054428100586 -2.2527267932891846
-13.72924518585205 8.0081787109375 -2.2520275115966797
-13.88048267364502 7.73284387588501 -2.251321315765381
-8.396244049072266 10.658727645874023 -2.235243082046509
-9.664530754089355 9.656829833984375 -2.2507100105285645
-10.042312622070312 9.270752906799316 -2.251539945602417
-10.751566886901855 8.455240249633789 -2.253300189971924
-10.914482116699219 8.239520072937012 -2.2528703212738037
-11.374913215637207 7.572439193725586 -2.2511508464813232
-11.659184455871582 7.113238334655762 -2.2499704360961914
-11.796188354492188 6.8806328773498535 -2.2497169971466064
-12.058292388916016 6.408806800842285 -2.249630928039551
-7.597641944885254 9.262556076049805 -2.2517569065093994
-8.136751174926758 8.799880981445312 -2.252744436264038
-8.310356140136719 8.638671875 -2.2530899047851562
-8.645870208740234 8.304047584533691 -2.2532429695129395
-8.963645935058594 7.952643871307373 -2.2523305416107178
-9.413238525390625 7.402764320373535 -2.2509067058563232
-9.555648803710938 7.213706016540527 -2.250418186187744
-9.69422721862793 7.021886348724365 -2.2499232292175293
-9.830161094665527 6.828269004821777 -2.2497079372406006
-10.092016220092773 6.4342241287231445 -2.2496323585510254
-10.713069915771484 6.24886417388916 -2.33115553855896
-11.163883209228516 6.219426155090332 -2.4020309448242188
-11.284621238708496 5.99755859375 -2.4020309448242188
-6.597177505493164 8.375158309936523 -2.2536120414733887
-6.920847415924072 8.105337142944336 -2.252903938293457
-7.233405590057373 7.822916030883789 -2.2521650791168213
-7.680330753326416 7.376683235168457 -2.2510018348693848
-7.962995529174805 7.064846038818359 -2.2501919269561768
-8.099584579467773 6.904802322387695 -2.24977707862854
-8.365710258483887 6.57896089553833 -2.2496609687805176
-8.504387855529785 6.420506477355957 -2.2525291442871094
-8.994351387023926 6.247692108154297 -2.3148961067199707
-9.581851959228516 6.108952045440674 -2.4020309448242188
-9.700702667236328 5.918375015258789 -2.4020309448242188
-9.815783500671387 5.7254838943481445 -2.4020309448242188
-9.927046775817871 5.530364036560059 -2.4020309448242188
-10.034704208374023 5.3330793380737305 -2.4020309448242188
-6.074794769287109 7.4060235023498535 -2.2512247562408447
-6.219094276428223 7.283474445343018 -2.250903367996216
-6.360912322998047 7.158083915710449 -2.250575065612793
-6.636833190917969 6.899033546447754 -2.2498984336853027
-6.77127742767334 6.765902996063232 -2.24969744682312
-6.903635501861572 6.630674839019775 -2.249671459197998
-7.03323221206665 6.492857456207275 -2.2496449947357178
-7.160174369812012 6.352543830871582 -2.249630928039551
-7.334787368774414 6.252849578857422 -2.2652337551116943
-7.624842166900635 6.244113445281982 -2.316220760345459
-7.928089618682861 6.234810829162598 -2.3704426288604736
-8.15705680847168 6.157876014709473 -2.4020309448242188
-8.277156829833984 5.995450973510742 -2.4020309448242188
-8.725323677062988 5.322993278503418 -2.4020309448242188
-8.828323364257812 5.149505615234375 -2.4020309448242188
-5.5103888511657715 6.717958450317383 -2.2496888637542725
-5.642048358917236 6.607670307159424 -2.2496676445007324
-5.771473407745361 6.494799613952637 -2.249645948410034
-5.898875713348389 6.379426956176758 -2.249630928039551
-6.026279926300049 6.26408052444458 -2.2505226135253906
-6.250988006591797 6.246000289916992 -2.2879791259765625
-7.059982776641846 6.018548965454102 -2.4020309448242188
-7.177492618560791 5.877838611602783 -2.4020309448242188
-7.2923150062561035 5.734832763671875 -2.4020309448242188
-7.513284206390381 5.442147254943848 -2.4020309448242188
-7.82258939743042 4.987337112426758 -2.4020309448242188
-8.192055702209473 4.353915691375732 -2.4020309448242188
-4.928282260894775 6.257059574127197 -2.254871129989624
-5.121285438537598 6.243605613708496 -2.286060333251953
-5.325941562652588 6.237464904785156 -2.3219094276428223
-5.537045001983643 6.230966091156006 -2.3597774505615234
-5.7551469802856445 6.224088668823242 -2.399785280227661
-5.882480144500732 6.114845275878906 -2.4020309448242188
-6.002163410186768 5.997382640838623 -2.4020309448242188
-6.119516849517822 5.8775787353515625 -2.4020309448242188
-6.3469743728637695 5.63114070892334 -2.4020309448242188
-6.871674537658691 4.977410316467285 -2.4020309448242188
-7.063014984130859 4.701951026916504 -2.4020309448242188
-7.243318557739258 4.419131278991699 -2.4020309448242188
-7.412318706512451 4.129417419433594 -2.4020309448242188
-5.071113109588623 5.939016819000244 -2.4020309448242188
-5.1875410079956055 5.837626934051514 -2.4020309448242188
-5.301850318908691 5.7339606285095215 -2.4020309448242188
-5.63236141204834 5.4096832275390625 -2.4020309448242188
-5.8417582511901855 5.182859420776367 -2.4020309448242188
-5.943052768707275 5.06638240814209 -2.4020309448242188
-6.232853412628174 4.70527982711792 -2.4020309448242188
-6.745789051055908 3.934774160385132 -2.4020309448242188
-4.471500873565674 5.67659330368042 -2.4020309448242188
-4.582817077636719 5.587104797363281 -2.4020309448242188
-4.800057888031006 5.401619911193848 -2.4020309448242188
-4.905878067016602 5.305696487426758 -2.4020309448242188
-5.009777069091797 5.207701206207275 -2.4020309448242188
-5.2116851806640625 5.005635738372803 -2.4020309448242188
-5.3095927238464355 4.901653289794922 -2.4020309448242188
-5.40543794631958 4.795756816864014 -2.4020309448242188
-5.499172210693359 4.687978267669678 -2.4020309448242188
-5.680148601531982 4.466981887817383 -2.4020309448242188
-5.767326354980469 4.353845119476318 -2.4020309448242188
-5.85225248336792 4.239004611968994 -2.4020309448242188
-5.934891223907471 4.122513294219971 -2.4020309448242188
-6.168770790100098 3.7635509967803955 -2.4020309448242188
-6.312690734863281 3.516812562942505 -2.4020309448242188
-4.156420707702637 5.276546001434326 -2.4020309448242188
-4.361672878265381 5.108157157897949 -2.4020309448242188
-4.751501560211182 4.747708797454834 -2.4020309448242188
-4.8444013595581055 4.652873516082764 -2.4020309448242188
-5.02449893951416 4.457785606384277 -2.4020309448242188
-5.196760177612305 4.25572395324707 -2.4020309448242188
-5.591301918029785 3.7222087383270264 -2.4020309448242188
-5.931281566619873 3.1523571014404297 -2.4020309448242188
-3.975170135498047 4.846289157867432 -2.4020309448242188
-4.2553839683532715 4.602194786071777 -2.4020309448242188
-4.345512390136719 4.517190933227539 -2.4020309448242188
-4.433953762054443 4.430416584014893 -2.4020309448242188
-4.5206403732299805 4.341919422149658 -2.4020309448242188
-4.6055803298950195 4.25172233581543 -2.4020309448242188
-4.688710689544678 4.159868240356445 -2.4020309448242188
-4.849452018737793 3.9713103771209717 -2.4020309448242188
-4.926995277404785 3.874689817428589 -2.4020309448242188
-5.0026140213012695 3.77655029296875 -2.4020309448242188
-5.350827693939209 3.2645256519317627 -2.4020309448242188
-5.414306640625 3.1581315994262695 -2.4020309448242188
-5.475665092468262 3.0505034923553467 -2.4020309448242188
-3.8985180854797363 4.387094497680664 -2.4020309448242188
-3.984463930130005 4.30919075012207 -2.4020309448242188
-4.068850994110107 4.2295989990234375 -2.4020309448242188
-4.151658058166504 4.148350238800049 -2.4020309448242188
-4.312361240386963 3.981032609939575 -2.4020309448242188
-4.4663286209106445 3.8074896335601807 -2.4020309448242188
-4.540707111358643 3.718472719192505 -2.4020309448242188
-4.75309419631958 3.442841053009033 -2.4020309448242188
-4.948768138885498 3.155116558074951 -2.4020309448242188
-5.069598197937012 2.957066059112549 -2.4020309448242188
-5.127053737640381 2.8562896251678467 -2.4020309448242188
-5.182507038116455 2.7543962001800537 -2.4020309448242188
-3.410496234893799 4.329644203186035 -2.4020309448242188
-3.4954051971435547 4.261390209197998 -2.4020309448242188
-3.578944683074951 4.191473484039307 -2.4020309448242188
-4.33235502243042 3.407052516937256 -2.4020309448242188
-4.463624000549316 3.233168363571167 -2.4020309448242188
-4.5879130363464355 3.0542376041412354 -2.4020309448242188
-4.705035209655762 2.870530366897583 -2.4020309448242188
-4.814808368682861 2.682338237762451 -2.4020309448242188
-4.866884708404541 2.586649179458618 -2.4020309448242188
-3.369662284851074 3.9463677406311035 -2.4020309448242188
-3.4470036029815674 3.878995895385742 -2.4020309448242188
-3.5976104736328125 3.7397406101226807 -2.4020309448242188
-3.74259877204895 3.594633102416992 -2.4020309448242188
-3.8129162788391113 3.519961357116699 -2.4020309448242188
-3.881739377975464 3.443915367126465 -2.4020309448242188
-3.9490513801574707 3.366518497467041 -2.4020309448242188
-4.01481819152832 3.287808656692505 -2.4020309448242188
-4.141618728637695 3.126570463180542 -2.4020309448242188
-4.202608108520508 3.044102668762207 -2.4020309448242188
-4.261948108673096 2.96044921875 -2.4020309448242188
-4.4298996925354 2.7026708126068115 -2.4020309448242188
-4.482451915740967 2.6145853996276855 -2.4020309448242188
-4.582283020019531 2.435389995574951 -2.4020309448242188
-3.2527830600738525 3.660433769226074 -2.4020309448242188
-3.324490785598755 3.595430850982666 -2.4020309448242188
-3.394902229309082 3.529024600982666 -2.4020309448242188
-3.5317234992980957 3.392094612121582 -2.4020309448242188
-3.598076105117798 3.321629524230957 -2.4020309448242188
-3.84918212890625 3.0270726680755615 -2.4020309448242188
-4.0218071937561035 2.7936432361602783 -2.4020309448242188
-4.229888916015625 2.4672672748565674 -2.4020309448242188
-2.936426877975464 3.5799145698547363 -2.4020309448242188
-3.143420457839966 3.3996026515960693 -2.4020309448242188
-3.339365243911743 3.207340717315674 -2.4020309448242188
-3.4021055698394775 3.140712261199951 -2.4020309448242188
-3.463512420654297 3.0728600025177 -2.4020309448242188
-3.80275559425354 2.641483783721924 -2.4020309448242188
-3.9041783809661865 2.489131450653076 -2.4020309448242188
-3.952613353729248 2.4114789962768555 -2.4020309448242188
-3.9995036125183105 2.332883358001709 -2.4020309448242188
-4.04482889175415 2.2533819675445557 -2.4020309448242188
-4.0885748863220215 2.1729958057403564 -2.4020309448242188
-2.847827672958374 3.3352251052856445 -2.4020309448242188
-2.913193941116333 3.2782843112945557 -2.4020309448242188
-3.1023521423339844 3.0998809337615967 -2.4020309448242188
-3.5002379417419434 2.642383337020874 -2.4020309448242188
-3.5517802238464355 2.5726847648620605 -2.4020309448242188
-3.6506786346435547 2.430307149887085 -2.4020309448242188
-3.6979997158050537 2.3576784133911133 -2.4020309448242188
-3.831226110458374 2.1343812942504883 -2.4020309448242188
-2.574439525604248 3.2682621479034424 -2.4020309448242188
-2.6385338306427 3.2167394161224365 -2.4020309448242188
-2.763603448867798 3.109947443008423 -2.4020309448242188
-2.824528217315674 3.0547215938568115 -2.4020309448242188
-2.8843493461608887 2.998300075531006 -2.4020309448242188
-2.943046808242798 2.940704822540283 -2.4020309448242188
-3.000591993331909 2.881962299346924 -2.4020309448242188
-3.166111946105957 2.69907283782959 -2.4020309448242188
-3.2188403606414795 2.6359691619873047 -2.4020309448242188
-3.270311117172241 2.571836471557617 -2.4020309448242188
-3.369398832321167 2.440579652786255 -2.4020309448242188
-3.46321964263916 2.305514097213745 -2.4020309448242188
-3.5081048011779785 2.23661470413208 -2.4020309448242188
-3.5516295433044434 2.1668403148651123 -2.4020309448242188
-3.5937376022338867 2.096217393875122 -2.4020309448242188
-3.6738030910491943 1.9525507688522339 -2.4020309448242188
