ply
format ascii 1.0
element vertex 270
property float x
property float y
property float z
end_header
-38.9011116027832 -22.833984375 5.87393856048584
-39.792076110839844 -20.20216941833496 -1.2565858364105225
-39.71034622192383 -23.308977127075195 -1.2965463399887085
-39.71648406982422 -24.41176414489746 -1.3126893043518066
-42.808067321777344 -11.683490753173828 -2.250385284423828
-42.06281280517578 -12.404397010803223 -2.2240097522735596
-40.62796401977539 -15.669821739196777 -2.208357572555542
-40.303096771240234 -16.493574142456055 -2.2084758281707764
-39.961875915527344 -17.31072425842285 -2.2086122035980225
-39.230831146240234 -18.92398452758789 -2.208940029144287
-38.8412971496582 -19.719463348388672 -2.2091310024261475
-38.43593215942383 -20.50710678100586 -2.2093400955200195
-38.014896392822266 -21.28658103942871 -2.209567070007324
-37.578147888183594 -22.05743408203125 -2.209796667098999
-36.74977493286133 -22.588241577148438 -2.1876437664031982
-36.65657043457031 -23.57112693786621 -2.2101781368255615
-25.07515525817871 -19.99392318725586 -1.626434564590454
-31.77288055419922 -7.981204509735107 -2.4020309448242188
-31.604013442993164 -8.625601768493652 -2.4020309448242188
-30.31317710876465 -9.613544464111328 -2.33172345161438
-28.629711151123047 -11.042211532592773 -2.2499160766601562
-28.418128967285156 -11.629789352416992 -2.2514102458953857
-28.011024475097656 -12.133845329284668 -2.2382447719573975
-27.55293846130371 -12.606817245483398 -2.2216684818267822
-27.029062271118164 -13.7224702835083 -2.222611904144287
-26.746206283569336 -14.270167350769043 -2.2227582931518555
-22.224130630493164 -12.444493293762207 -1.8676049709320068
-25.17007827758789 -16.918142318725586 -2.2236766815185547
-24.466400146484375 -17.93116569519043 -2.224130153656006
-23.72213363647461 -18.915077209472656 -2.2245993614196777
-24.2659912109375 -6.09550666809082 -2.4020309448242188
-23.690492630004883 -8.046929359436035 -2.4020309448242188
-23.521976470947266 -8.526968002319336 -2.4020309448242188
-22.240320205688477 -9.634085655212402 -2.326904296875
-21.30794334411621 -9.749432563781738 -2.249630928039551
-21.105934143066406 -10.18098258972168 -2.2497007846832275
-20.895326614379883 -10.608424186706543 -2.2497825622558594
-20.46344757080078 -11.458579063415527 -2.2516210079193115
-19.283416748046875 -12.961404800415039 -2.230642080307007
-19.017322540283203 -13.35183334350586 -2.230811834335327
-18.4617977142334 -14.116303443908691 -2.2311785221099854
-19.508026123046875 -5.324273586273193 -2.4020309448242188
-19.395721435546875 -5.719829082489014 -2.4020309448242188
-19.275394439697266 -6.113013744354248 -2.4020309448242188
-19.01091194152832 -6.891658306121826 -2.4020309448242188
-18.714994430541992 -7.658895492553711 -2.4020309448242188
-18.555395126342773 -8.037846565246582 -2.4020309448242188
-18.388126373291016 -8.413468360900879 -2.4020309448242188
-17.840984344482422 -9.518880844116211 -2.4020309448242188
-16.134572982788086 -9.917122840881348 -2.249648094177246
-15.718986511230469 -10.565500259399414 -2.2497718334198
-15.506396293640137 -10.886853218078613 -2.2505834102630615
-16.441997528076172 -4.130151748657227 -2.4020309448242188
-16.260475158691406 -4.795242786407471 -2.4020309448242188
-15.937885284423828 -5.777653694152832 -2.4020309448242188
-15.689802169799805 -6.420868873596191 -2.4020309448242188
-15.556001663208008 -6.738565444946289 -2.4020309448242188
-15.415772438049316 -7.053469657897949 -2.4020309448242188
-14.95706844329834 -7.980195045471191 -2.4020309448242188
-14.442723274230957 -8.877229690551758 -2.4020309448242188
-14.259197235107422 -9.169057846069336 -2.4020309448242188
-12.41402816772461 -9.898466110229492 -2.249642848968506
-14.1414794921875 -3.5522754192352295 -2.4020309448242188
-14.066324234008789 -3.83908748626709 -2.4020309448242188
-13.985355377197266 -4.124305248260498 -2.4020309448242188
-13.898603439331055 -4.407814979553223 -2.4020309448242188
-13.806105613708496 -4.689508438110352 -2.4020309448242188
-13.604025840759277 -5.246944904327393 -2.4020309448242188
-13.258838653564453 -6.066566467285156 -2.4020309448242188
-13.132742881774902 -6.334911823272705 -2.4020309448242188
-13.001220703125 -6.600630760192871 -2.4020309448242188
-12.86431884765625 -6.863626956939697 -2.4020309448242188
-12.722102165222168 -7.123786926269531 -2.4020309448242188
-12.421937942504883 -7.635151386260986 -2.4020309448242188
-12.101237297058105 -8.133882522583008 -2.4020309448242188
-11.760528564453125 -8.619166374206543 -2.4020309448242188
-11.582903861999512 -8.856505393981934 -2.4020309448242188
-11.400375366210938 -9.090193748474121 -2.4020309448242188
-12.394363403320312 -3.113408327102661 -2.4020309448242188
-12.01435661315918 -4.3553314208984375 -2.4020309448242188
-11.923317909240723 -4.598715305328369 -2.4020309448242188
-11.827345848083496 -4.840206146240234 -2.4020309448242188
-11.510258674621582 -5.552266597747803 -2.4020309448242188
-11.395025253295898 -5.785159111022949 -2.4020309448242188
-11.274917602539062 -6.015656471252441 -2.4020309448242188
-11.021084785461426 -6.4691009521484375 -2.4020309448242188
-10.887272834777832 -6.691868305206299 -2.4020309448242188
-10.748953819274902 -6.9118547439575195 -2.4020309448242188
-10.307570457458496 -7.554308891296387 -2.4020309448242188
-10.151845932006836 -7.762331485748291 -2.4020309448242188
-11.02117919921875 -2.768470287322998 -2.4020309448242188
-10.96260929107666 -2.991997718811035 -2.4020309448242188
-10.899506568908691 -3.214282751083374 -2.4020309448242188
-10.759806632995605 -3.6547746658325195 -2.4020309448242188
-10.683271408081055 -3.8727989196777344 -2.4020309448242188
-10.60231876373291 -4.089217185974121 -2.4020309448242188
-10.427297592163086 -4.516906261444092 -2.4020309448242188
-10.333296775817871 -4.727988243103027 -2.4020309448242188
-10.132516860961914 -5.144211292266846 -2.4020309448242188
-9.800084114074707 -5.752385139465332 -2.4020309448242188
-9.681062698364258 -5.950464725494385 -2.4020309448242188
-9.027108192443848 -6.902332782745361 -2.4020309448242188
-8.884888648986816 -7.084455490112305 -2.4020309448242188
-9.803027153015137 -2.890929698944092 -2.4020309448242188
-9.742219924926758 -3.0896544456481934 -2.4020309448242188
-9.60854434967041 -3.48319935798645 -2.4020309448242188
-9.458982467651367 -3.870978593826294 -2.4020309448242188
-9.378317832946777 -4.062509059906006 -2.4020309448242188
-9.205389022827148 -4.440452575683594 -2.4020309448242188
-9.017233848571777 -4.8110551834106445 -2.4020309448242188
-8.917546272277832 -4.993411540985107 -2.4020309448242188
-8.482369422912598 -5.701441287994385 -2.4020309448242188
-8.364686012268066 -5.872735977172852 -2.4020309448242188
-8.11898422241211 -6.207962512969971 -2.4020309448242188
-7.991075038909912 -6.371766090393066 -2.4020309448242188
-8.997660636901855 -2.2601726055145264 -2.4020309448242188
-8.949840545654297 -2.442659854888916 -2.4020309448242188
-8.8431396484375 -2.8045198917388916 -2.4020309448242188
-8.721802711486816 -3.161745548248291 -2.4020309448242188
-8.586038589477539 -3.513737678527832 -2.4020309448242188
-8.355854034423828 -4.030656814575195 -2.4020309448242188
-8.272157669067383 -4.19972038269043 -2.4020309448242188
-8.000730514526367 -4.696229934692383 -2.4020309448242188
-7.803182125091553 -5.0176472663879395 -2.4020309448242188
-7.699544906616211 -5.175271511077881 -2.4020309448242188
-7.592715740203857 -5.330755710601807 -2.4020309448242188
-7.482751846313477 -5.484034538269043 -2.4020309448242188
-7.369851589202881 -5.635058879852295 -2.4020309448242188
-8.185561180114746 -2.234064817428589 -2.4020309448242188
-8.087968826293945 -2.5650246143341064 -2.4020309448242188
-8.034131050109863 -2.728947162628174 -2.4020309448242188
-7.976992130279541 -2.8917438983917236 -2.4020309448242188
-7.715672969818115 -3.53029727935791 -2.4020309448242188
-7.403324604034424 -4.1455183029174805 -2.4020309448242188
-7.136819362640381 -4.589159965515137 -2.4020309448242188
-6.944334030151367 -4.8755316734313965 -2.4020309448242188
-6.740365505218506 -5.153836727142334 -2.4020309448242188
-7.574177265167236 -1.90259850025177 -2.4020309448242188
-7.533936977386475 -2.0562169551849365 -2.4020309448242188
-7.4441094398498535 -2.360827922821045 -2.4020309448242188
-7.394558429718018 -2.5117034912109375 -2.4020309448242188
-7.341958999633789 -2.6615383625030518 -2.4020309448242188
-7.286325454711914 -2.810269355773926 -2.4020309448242188
-7.16603946685791 -3.104192018508911 -2.4020309448242188
-6.963461875915527 -3.53530216217041 -2.4020309448242188
-6.890141010284424 -3.676163911819458 -2.4020309448242188
-6.813960552215576 -3.815502166748047 -2.4020309448242188
-6.568674564361572 -4.223826885223389 -2.4020309448242188
-6.481429100036621 -4.35651159286499 -2.4020309448242188
-6.298945903778076 -4.616429328918457 -2.4020309448242188
-6.2037787437438965 -4.743548393249512 -2.4020309448242188
-6.971288204193115 -1.9026381969451904 -2.4020309448242188
-6.888106346130371 -2.184499502182007 -2.4020309448242188
-6.630814075469971 -2.872342824935913 -2.4020309448242188
-6.508547782897949 -3.1395633220672607 -2.4020309448242188
-6.156269550323486 -3.78395676612854 -2.4020309448242188
-6.078060150146484 -3.908350706100464 -2.4020309448242188
-5.997334957122803 -4.031127452850342 -2.4020309448242188
-5.649990558624268 -4.505073547363281 -2.4020309448242188
-6.51457405090332 -1.6364275217056274 -2.4020309448242188
-6.47997522354126 -1.768554925918579 -2.4020309448242188
-6.442640781402588 -1.899946689605713 -2.4020309448242188
-6.402688026428223 -2.0305519104003906 -2.4020309448242188
-6.360068321228027 -2.1603193283081055 -2.4020309448242188
-6.2165374755859375 -2.544045925140381 -2.4020309448242188
-6.1079607009887695 -2.794689893722534 -2.4020309448242188
-6.049874305725098 -2.918309211730957 -2.4020309448242188
-5.926222324371338 -3.161875009536743 -2.4020309448242188
-5.86070442199707 -3.2817211151123047 -2.4020309448242188
-5.792762756347656 -3.4002044200897217 -2.4020309448242188
-5.649727821350098 -3.6329195499420166 -2.4020309448242188
-5.417729377746582 -3.9705967903137207 -2.4020309448242188
-6.079190731048584 -1.5270636081695557 -2.4020309448242188
-6.046892166137695 -1.6503595113754272 -2.4020309448242188
-5.935031414031982 -2.0159432888031006 -2.4020309448242188
-5.848151683807373 -2.2555768489837646 -2.4020309448242188
-5.751605033874512 -2.4914870262145996 -2.4020309448242188
-5.6455535888671875 -2.723275899887085 -2.4020309448242188
-5.339992046356201 -3.2822277545928955 -2.4020309448242188
-5.272149085998535 -3.390127420425415 -2.4020309448242188
-5.202125072479248 -3.4966237545013428 -2.4020309448242188
-5.055661678314209 -3.7052390575408936 -2.4020309448242188
-4.979276657104492 -3.807267665863037 -2.4020309448242188
-4.900833606719971 -3.9077272415161133 -2.4020309448242188
-5.557188987731934 -1.8875962495803833 -2.4020309448242188
-5.517632484436035 -2.000200033187866 -2.4020309448242188
-5.475823402404785 -2.111973524093628 -2.4020309448242188
-5.3854265213012695 -2.332864284515381 -2.4020309448242188
-5.233182907104492 -2.6568517684936523 -2.4020309448242188
-5.178079605102539 -2.762711763381958 -2.4020309448242188
-4.733787536621094 -3.469341993331909 -2.4020309448242188
-4.588820934295654 -3.658938407897949 -2.4020309448242188
-5.345494270324707 -1.342763900756836 -2.4020309448242188
-5.2864789962768555 -1.5589916706085205 -2.4020309448242188
-5.100943565368652 -2.087502956390381 -2.4020309448242188
-5.057442665100098 -2.190789222717285 -2.4020309448242188
-5.0118560791015625 -2.293168544769287 -2.4020309448242188
-4.964186191558838 -2.3946034908294678 -2.4020309448242188
-4.914459705352783 -2.4950456619262695 -2.4020309448242188
-4.862726211547852 -2.594458818435669 -2.4020309448242188
-4.753220558166504 -2.7900209426879883 -2.4020309448242188
-4.6358513832092285 -2.980973482131958 -2.4020309448242188
-4.574280738830566 -3.0746166706085205 -2.4020309448242188
-4.445490837097168 -3.2580535411834717 -2.4020309448242188
-5.006157875061035 -1.3663172721862793 -2.4020309448242188
-4.946468353271484 -1.5687273740768433 -2.4020309448242188
-4.913548946380615 -1.668980360031128 -2.4020309448242188
-4.878583908081055 -1.7685434818267822 -2.4020309448242188
-4.841557025909424 -1.8673723936080933 -2.4020309448242188
-4.8026580810546875 -1.96543288230896 -2.4020309448242188
-4.761702537536621 -2.062678813934326 -2.4020309448242188
-4.6270904541015625 -2.3491430282592773 -2.4020309448242188
-4.527754306793213 -2.535332202911377 -2.4020309448242188
-4.475264072418213 -2.6268692016601562 -2.4020309448242188
-4.364759922027588 -2.806655168533325 -2.4020309448242188
-4.247040271759033 -2.981795072555542 -2.4020309448242188
-4.122295379638672 -3.1520016193389893 -2.4020309448242188
-4.749327659606934 -1.1930084228515625 -2.4020309448242188
-4.724086284637451 -1.2893333435058594 -2.4020309448242188
-4.696893215179443 -1.3851220607757568 -2.4020309448242188
-4.636695384979248 -1.574941873550415 -2.4020309448242188
-4.568745136260986 -1.7621554136276245 -2.4020309448242188
-4.532052040100098 -1.8546897172927856 -2.4020309448242188
-4.4934000968933105 -1.9464572668075562 -2.4020309448242188
-4.452898025512695 -2.037418842315674 -2.4020309448242188
-4.320404052734375 -2.3051071166992188 -2.4020309448242188
-4.272647380828857 -2.392479419708252 -2.4020309448242188
-4.223110675811768 -2.478858232498169 -2.4020309448242188
-4.171830177307129 -2.564218282699585 -2.4020309448242188
-4.118834018707275 -2.648515224456787 -2.4020309448242188
-4.0077409744262695 -2.813786029815674 -2.4020309448242188
-3.949700117111206 -2.894692897796631 -2.4020309448242188
-3.8900279998779297 -2.97440242767334 -2.4020309448242188
-3.8287436962127686 -3.052884817123413 -2.4020309448242188
-4.4667840003967285 -1.2191081047058105 -2.4020309448242188
-4.441071510314941 -1.3096801042556763 -2.4020309448242188
-4.4135236740112305 -1.3997082710266113 -2.4020309448242188
-4.384151458740234 -1.4891610145568848 -2.4020309448242188
-4.319939613342285 -1.6661760807037354 -2.4020309448242188
-4.2851433753967285 -1.753672480583191 -2.4020309448242188
-4.248663902282715 -1.8404406309127808 -2.4020309448242188
-4.210339069366455 -1.9264485836029053 -2.4020309448242188
-4.128559589385986 -2.096041440963745 -2.4020309448242188
-4.085084915161133 -2.179556131362915 -2.4020309448242188
-3.9446184635162354 -2.4245545864105225 -2.4020309448242188
-3.8944926261901855 -2.5042593479156494 -2.4020309448242188
-3.8427672386169434 -2.582927703857422 -2.4020309448242188
-3.6781530380249023 -2.8123979568481445 -2.4020309448242188
-3.6202049255371094 -2.886605978012085 -2.4020309448242188
-4.25349760055542 -1.0684581995010376 -2.4020309448242188
-4.123085021972656 -1.4946621656417847 -2.4020309448242188
-4.058868408203125 -1.6610608100891113 -2.4020309448242188
-3.988016366958618 -1.8247125148773193 -2.4020309448242188
-3.8265769481658936 -2.142704725265503 -2.4020309448242188
-3.782216787338257 -2.2200660705566406 -2.4020309448242188
-3.6888420581817627 -2.3720099925994873 -2.4020309448242188
-3.589336395263672 -2.520026922225952 -2.4020309448242188
-3.4290270805358887 -2.7341644763946533 -2.4020309448242188
-4.013639450073242 -1.0954318046569824 -2.4020309448242188
-3.990535259246826 -1.1768156290054321 -2.4020309448242188
-3.965782403945923 -1.257711410522461 -2.4020309448242188
-3.93938946723938 -1.3380889892578125 -2.4020309448242188
-3.911367654800415 -1.417912244796753 -2.4020309448242188
-3.8817272186279297 -1.4971470832824707 -2.4020309448242188
-3.747253894805908 -1.8075830936431885 -2.4020309448242188
-3.6300835609436035 -2.0326781272888184 -2.4020309448242188
-3.544435977935791 -2.178588628768921 -2.4020309448242188
-3.499406576156616 -2.250208854675293 -2.4020309448242188
-3.452927827835083 -2.320894956588745 -2.4020309448242188
-3.405021905899048 -2.3906242847442627 -2.4020309448242188
