ply
format ascii 1.0
element vertex 268
property float x
property float y
property float z
end_header
-22.883338928222656 -30.69196128845215 5.864853858947754
-21.858911514282227 -34.78543472290039 -0.23130705952644348
-20.082931518554688 -34.97663879394531 -0.2270783931016922
-33.90752029418945 -31.648788452148438 -1.3060359954833984
-33.744964599609375 -35.49589920043945 -1.3790643215179443
-21.102020263671875 -26.069242477416992 -0.944398045539856
-20.256704330444336 -26.06951141357422 -0.9296126961708069
-19.838109970092773 -26.60759162902832 -0.9345312118530273
-24.89417839050293 -34.81433868408203 -1.2051273584365845
-21.662084579467773 -34.47224426269531 -1.1463983058929443
-20.71624183654785 -34.471763610839844 -1.1324410438537598
-19.78603744506836 -34.45956039428711 -1.118876338005066
-18.88907241821289 -34.4687614440918 -1.1067441701889038
-32.50737380981445 -29.15288734436035 -2.2144317626953125
-31.929222106933594 -29.80228042602539 -2.2150299549102783
-31.338279724121094 -30.440370559692383 -2.2156410217285156
-30.11888313293457 -31.68169403076172 -2.216902017593384
-29.490882873535156 -32.284420013427734 -2.2175514698028564
-20.8135929107666 -25.712921142578125 -1.6776845455169678
-18.50151824951172 -25.874250411987305 -1.6131467819213867
-18.43904685974121 -26.90313148498535 -1.654076099395752
-24.00874900817871 -36.569889068603516 -2.218583822250366
-21.682817459106445 -34.50519561767578 -2.066725730895996
-21.615398406982422 -35.96795654296875 -2.128138780593872
-21.85047149658203 -38.05496597290039 -2.225440263748169
-19.52803611755371 -39.26751708984375 -2.2240893840789795
-22.18854522705078 -20.71046257019043 -2.225487232208252
-21.77437400817871 -21.150493621826172 -2.2257425785064697
-21.35157585144043 -21.582345962524414 -2.2260093688964844
-20.48079490661621 -22.42085075378418 -2.226577043533325
-20.03310203552246 -22.827205657958984 -2.226877450942993
-19.114076614379883 -23.61334991455078 -2.2275192737579346
-18.644861221313477 -23.995141983032227 -2.2280735969543457
-18.168071746826172 -24.367677688598633 -2.2286338806152344
-17.19240379333496 -25.084238052368164 -2.229762315750122
-16.693872451782227 -25.427934646606445 -2.23032546043396
-15.157943725585938 -26.39920425415039 -2.23203182220459
-14.633048057556152 -26.702369689941406 -2.2325870990753174
-14.102121353149414 -26.995161056518555 -2.2331478595733643
-13.565373420715332 -27.27745246887207 -2.2337138652801514
-17.30803680419922 -15.52199649810791 -2.2319869995117188
-16.997325897216797 -15.865062713623047 -2.2322137355804443
-16.679874420166016 -16.201976776123047 -2.2324485778808594
-16.025217056274414 -16.856727600097656 -2.23293137550354
-15.688064575195312 -17.174123764038086 -2.2331535816192627
-15.344636917114258 -17.484811782836914 -2.233384609222412
-14.639662742614746 -18.085702896118164 -2.2338712215423584
-13.911383628845215 -18.658451080322266 -2.2343907356262207
-13.160900115966797 -19.202150344848633 -2.234942674636841
-8.140009880065918 -12.398777961730957 -1.423948884010315
-7.790685176849365 -12.397801399230957 -1.405745506286621
-11.99605655670166 -19.961410522460938 -2.2358288764953613
-11.597912788391113 -20.199031829833984 -2.2361392974853516
-11.195108413696289 -20.42884063720703 -2.236457109451294
-10.787776947021484 -20.6506290435791 -2.2367823123931885
-10.376091003417969 -20.86438751220703 -2.237114429473877
-13.242523193359375 -13.385642051696777 -2.236645221710205
-12.701558113098145 -13.904722213745117 -2.2370598316192627
-12.14039134979248 -14.402134895324707 -2.2375006675720215
-11.852493286132812 -14.642467498779297 -2.2377305030822754
-10.654783248901367 -15.545649528503418 -2.238701343536377
-10.029658317565918 -15.960810661315918 -2.2391741275787354
-7.453869342803955 -12.40321159362793 -1.7189083099365234
-8.732177734375 -16.715681076049805 -2.2401928901672363
-8.39870834350586 -16.88822364807129 -2.240462303161621
-11.822981834411621 -10.602956771850586 -2.250166654586792
-11.17796802520752 -11.298786163330078 -2.251967668533325
-10.953657150268555 -11.522022247314453 -2.252547025680542
-10.724833488464355 -11.740748405456543 -2.25311541557312
-10.20116901397705 -12.101468086242676 -2.242572784423828
-9.452436447143555 -12.677956581115723 -2.2406599521636963
-8.941987037658691 -13.046623229980469 -2.2410824298858643
-8.417231559753418 -13.394862174987793 -2.2415242195129395
-8.149733543395996 -13.561148643493652 -2.2417526245117188
-7.328083515167236 -14.02787971496582 -2.242464542388916
-10.35147476196289 -9.661944389343262 -2.332714319229126
-9.95668888092041 -9.671428680419922 -2.2866880893707275
-9.408916473388672 -9.89710521697998 -2.249641180038452
-9.007779121398926 -10.264108657836914 -2.249711036682129
-8.802818298339844 -10.442764282226562 -2.250007390975952
-8.383523941040039 -10.789229393005371 -2.2509121894836426
-7.950418472290039 -11.11864948272705 -2.2517752647399902
-7.504297256469727 -11.43047046661377 -2.2525949478149414
-7.276535511016846 -11.57961368560791 -2.252988338470459
-7.045774936676025 -11.724160194396973 -2.2533700466156006
-6.308172702789307 -12.075418472290039 -2.244375467300415
-6.064542770385742 -12.19459056854248 -2.243638753890991
-9.513957023620605 -8.532197952270508 -2.4020309448242188
-9.166732788085938 -8.90413761138916 -2.4020309448242188
-8.987710952758789 -9.084856033325195 -2.4020309448242188
-8.618924140930176 -9.435408592224121 -2.4020309448242188
-8.429435729980469 -9.605120658874512 -2.4020309448242188
-8.142566680908203 -9.659558296203613 -2.3746304512023926
-7.825109004974365 -9.667163848876953 -2.337733745574951
-6.368206024169922 -10.134127616882324 -2.249685049057007
-5.753767013549805 -10.499489784240723 -2.2503957748413086
-5.332668781280518 -10.72303581237793 -2.2509915828704834
-7.829562664031982 -8.235820770263672 -2.4020309448242188
-7.664065361022949 -8.390049934387207 -2.4020309448242188
-7.324016571044922 -8.68847370147705 -2.4020309448242188
-7.149637222290039 -8.83255386352539 -2.4020309448242188
-6.7923502922058105 -9.110146522521973 -2.4020309448242188
-6.2364702224731445 -9.499327659606934 -2.4020309448242188
-5.807494163513184 -9.663656234741211 -2.383192539215088
-5.301616668701172 -9.674385070800781 -2.3319032192230225
-5.056432247161865 -9.679339408874512 -2.3083720207214355
-4.815859794616699 -9.684036254882812 -2.286170482635498
-7.608829975128174 -6.823666095733643 -2.4020309448242188
-7.471484661102295 -6.973782062530518 -2.4020309448242188
-7.331183433532715 -7.121129989624023 -2.4020309448242188
-7.04190731048584 -7.407304286956787 -2.4020309448242188
-6.89306640625 -7.546019077301025 -2.4020309448242188
-6.587227821350098 -7.8144211769104 -2.4020309448242188
-6.430359840393066 -7.944005966186523 -2.4020309448242188
-5.437901496887207 -8.653668403625488 -2.4020309448242188
-5.264557838439941 -8.760205268859863 -2.4020309448242188
-5.089142322540283 -8.86327075958252 -2.4020309448242188
-4.911676406860352 -8.962822914123535 -2.4020309448242188
-4.551041126251221 -9.15123176574707 -2.4020309448242188
-6.906641006469727 -6.1939311027526855 -2.4020309448242188
-6.654616355895996 -6.463939666748047 -2.4020309448242188
-6.392031669616699 -6.723703384399414 -2.4020309448242188
-5.836918354034424 -7.210875034332275 -2.4020309448242188
-5.6922173500061035 -7.325638771057129 -2.4020309448242188
-5.396105766296387 -7.5464186668396 -2.4020309448242188
-5.244810581207275 -7.652337551116943 -2.4020309448242188
-5.091440200805664 -7.755232334136963 -2.4020309448242188
-4.778706073760986 -7.951752662658691 -2.4020309448242188
-4.458393573760986 -8.135669708251953 -2.4020309448242188
-4.295554161071777 -8.222805976867676 -2.4020309448242188
-6.316856384277344 -5.6649932861328125 -2.4020309448242188
-6.202826023101807 -5.789616107940674 -2.4020309448242188
-6.086331844329834 -5.9119462966918945 -2.4020309448242188
-5.967432498931885 -6.031928539276123 -2.4020309448242188
-5.722601413726807 -6.264683723449707 -2.4020309448242188
-5.338468074798584 -6.595096111297607 -2.4020309448242188
-4.796921730041504 -6.998854637145996 -2.4020309448242188
-4.656652927398682 -7.092964172363281 -2.4020309448242188
-4.514524936676025 -7.1842522621154785 -2.4020309448242188
-3.778238534927368 -7.597333908081055 -2.4020309448242188
-5.813965797424316 -5.214014053344727 -2.4020309448242188
-5.709017753601074 -5.32871675491333 -2.4020309448242188
-5.3807878494262695 -5.659976005554199 -2.4020309448242188
-5.267159938812256 -5.765974521636963 -2.4020309448242188
-4.667967319488525 -6.260847568511963 -2.4020309448242188
-4.542416095733643 -6.352529048919678 -2.4020309448242188
-4.41505241394043 -6.4416937828063965 -2.4020309448242188
-4.1551384925842285 -6.612331390380859 -2.4020309448242188
-3.8886332511901855 -6.772489547729492 -2.4020309448242188
-3.7530486583709717 -6.84855842590332 -2.4020309448242188
-3.615973949432373 -6.921911239624023 -2.4020309448242188
-5.379726886749268 -4.824583530426025 -2.4020309448242188
-5.082160949707031 -5.137089252471924 -2.4020309448242188
-4.873644828796387 -5.335312366485596 -2.4020309448242188
-4.546505451202393 -5.616705417633057 -2.4020309448242188
-4.43379020690918 -5.70609712600708 -2.4020309448242188
-4.319316387176514 -5.793228626251221 -2.4020309448242188
-4.203138828277588 -5.8780646324157715 -2.4020309448242188
-4.085292816162109 -5.960569858551025 -2.4020309448242188
-3.9658286571502686 -6.040712833404541 -2.4020309448242188
-3.8447887897491455 -6.118462562561035 -2.4020309448242188
-3.722231388092041 -6.193789005279541 -2.4020309448242188
-3.2177257537841797 -6.4702582359313965 -2.4020309448242188
-4.910336017608643 -4.583237171173096 -2.4020309448242188
-4.818129062652588 -4.680078506469727 -2.4020309448242188
-4.430566310882568 -5.048518180847168 -2.4020309448242188
-4.014930248260498 -5.3849639892578125 -2.4020309448242188
-3.9069292545318604 -5.463819980621338 -2.4020309448242188
-3.6863603591918945 -5.615007400512695 -2.4020309448242188
-3.5738275051116943 -5.687276363372803 -2.4020309448242188
-3.459925413131714 -5.757295608520508 -2.4020309448242188
-3.344623327255249 -5.825026512145996 -2.4020309448242188
-3.227997303009033 -5.890453338623047 -2.4020309448242188
-3.110097646713257 -5.953546524047852 -2.4020309448242188
-2.990971565246582 -6.014280319213867 -2.4020309448242188
-4.496129512786865 -4.367300510406494 -2.4020309448242188
-4.318721294403076 -4.542810440063477 -2.4020309448242188
-4.2274346351623535 -4.6278815269470215 -2.4020309448242188
-3.9436614513397217 -4.871962547302246 -2.4020309448242188
-3.645829439163208 -5.098667621612549 -2.4020309448242188
-3.543609619140625 -5.170233726501465 -2.4020309448242188
-3.439985990524292 -5.239752292633057 -2.4020309448242188
-3.335005521774292 -5.307191848754883 -2.4020309448242188
-3.1211297512054443 -5.435737133026123 -2.4020309448242188
-4.209878444671631 -4.089254856109619 -2.4020309448242188
-4.043734550476074 -4.25357723236084 -2.4020309448242188
-3.958291530609131 -4.333242893218994 -2.4020309448242188
-3.8712432384490967 -4.411182880401611 -2.4020309448242188
-3.6925859451293945 -4.5617852210998535 -2.4020309448242188
-3.5080742835998535 -4.705155372619629 -2.4020309448242188
-3.413715124130249 -4.774056434631348 -2.4020309448242188
-3.317997932434082 -4.841063499450684 -2.4020309448242188
-3.1226751804351807 -4.969303131103516 -2.4020309448242188
-2.922391891479492 -5.089664936065674 -2.4020309448242188
-2.8204917907714844 -5.146833419799805 -2.4020309448242188
-2.7174742221832275 -5.201961040496826 -2.4020309448242188
-3.953486204147339 -3.840212345123291 -2.4020309448242188
-3.876255512237549 -3.9181535243988037 -2.4020309448242188
-3.7974963188171387 -3.9945387840270996 -2.4020309448242188
-3.5522942543029785 -4.214085578918457 -2.4020309448242188
-3.4677019119262695 -4.283966064453125 -2.4020309448242188
-3.38173508644104 -4.352147102355957 -2.4020309448242188
-3.294426918029785 -4.418604850769043 -2.4020309448242188
-3.2058160305023193 -4.483309745788574 -2.4020309448242188
-3.024815082550049 -4.607365131378174 -2.4020309448242188
-2.9324967861175537 -4.6666669845581055 -2.4020309448242188
-2.8390166759490967 -4.724118709564209 -2.4020309448242188
-2.6487207412719727 -4.833383560180664 -2.4020309448242188
-2.551978588104248 -4.885153770446777 -2.4020309448242188
-2.4542248249053955 -4.934987545013428 -2.4020309448242188
-3.863276958465576 -3.464616537094116 -2.4020309448242188
-3.7935423851013184 -3.5408358573913574 -2.4020309448242188
-3.7223002910614014 -3.6156489849090576 -2.4020309448242188
-3.5754308700561523 -3.7609503269195557 -2.4020309448242188
-3.499908924102783 -3.831395149230957 -2.4020309448242188
-3.4228880405426025 -3.900292158126831 -2.4020309448242188
-3.0183489322662354 -4.221139907836914 -2.4020309448242188
-2.8479340076446533 -4.337942600250244 -2.4020309448242188
-2.7610137462615967 -4.393772602081299 -2.4020309448242188
-2.6730029582977295 -4.447866916656494 -2.4020309448242188
-2.5839293003082275 -4.500194072723389 -2.4020309448242188
-2.4938342571258545 -4.5507426261901855 -2.4020309448242188
-3.645602226257324 -3.2694032192230225 -2.4020309448242188
-3.57979416847229 -3.3413264751434326 -2.4020309448242188
-3.5125725269317627 -3.411924362182617 -2.4020309448242188
-3.443953275680542 -3.4811739921569824 -2.4020309448242188
-3.373976469039917 -3.549038887023926 -2.4020309448242188
-3.080960512161255 -3.8061883449554443 -2.4020309448242188
-2.9269988536834717 -3.9258077144622803 -2.4020309448242188
-2.768420934677124 -4.039209842681885 -2.4020309448242188
-2.605405330657959 -4.1461920738220215 -2.4020309448242188
-2.522394895553589 -4.19725227355957 -2.4020309448242188
-2.4383397102355957 -4.2466325759887695 -2.4020309448242188
-2.3533215522766113 -4.29433012008667 -2.4020309448242188
-3.447036027908325 -3.0913310050964355 -2.4020309448242188
-3.3212530612945557 -3.226091146469116 -2.4020309448242188
-2.984217405319214 -3.5401737689971924 -2.4020309448242188
-2.840932607650757 -3.656156539916992 -2.4020309448242188
-2.617640256881714 -3.819208860397339 -2.4020309448242188
-2.5410900115966797 -3.870561361312866 -2.4020309448242188
-2.463536262512207 -3.9203784465789795 -2.4020309448242188
-2.3850059509277344 -3.968642473220825 -2.4020309448242188
-2.305529832839966 -4.015334129333496 -2.4020309448242188
-3.265001058578491 -2.9280776977539062 -2.4020309448242188
-3.206064462661743 -2.9924919605255127 -2.4020309448242188
-3.1458611488342285 -3.0557210445404053 -2.4020309448242188
-3.084406614303589 -3.1177401542663574 -2.4020309448242188
-2.957859516143799 -3.2380428314208984 -2.4020309448242188
-2.8928167819976807 -3.2962844371795654 -2.4020309448242188
-2.826622247695923 -3.353217363357544 -2.4020309448242188
-2.7593114376068115 -3.408823251724243 -2.4020309448242188
-2.6214282512664795 -3.515956401824951 -2.4020309448242188
-2.5509190559387207 -3.567444086074829 -2.4020309448242188
-2.333442449569702 -3.7133429050445557 -2.4020309448242188
-2.18377685546875 -3.80328369140625 -2.4020309448242188
-2.107633113861084 -3.8460028171539307 -2.4020309448242188
-2.030651807785034 -3.8871984481811523 -2.4020309448242188
-1.9528295993804932 -3.9268364906311035 -2.4020309448242188
-3.041433572769165 -2.83882999420166 -2.4020309448242188
-2.8665666580200195 -3.0153045654296875 -2.4020309448242188
-2.681478261947632 -3.181032419204712 -2.4020309448242188
-2.486821174621582 -3.3354134559631348 -2.4020309448242188
-2.4199352264404297 -3.38425874710083 -2.4020309448242188
-2.2833032608032227 -3.4779036045074463 -2.4020309448242188
-2.143054246902466 -3.566033363342285 -2.4020309448242188
-2.0716404914855957 -3.6079859733581543 -2.4020309448242188
-1.9994078874588013 -3.648513078689575 -2.4020309448242188
-1.8525890111923218 -3.725209951400757 -2.4020309448242188
