ply
format ascii 1.0
element vertex 307
property float x
property float y
property float z
end_header
33.33420944213867 2.02824068069458 5.888589382171631
33.33420944213867 2.700955867767334 5.896981716156006
33.33420181274414 3.375869035720825 5.907782554626465
33.33420181274414 4.053528785705566 5.92101526260376
33.33420181274414 4.734511375427246 5.936707019805908
33.334197998046875 6.108743667602539 5.97559928894043
33.294036865234375 10.361908912658691 6.148382663726807
33.33419418334961 11.113279342651367 6.1957621574401855
31.308134078979492 11.854580879211426 5.902950763702393
31.10089683532715 12.495686531066895 5.909997463226318
33.33420181274414 3.3758702278137207 5.132734298706055
33.33420181274414 4.73451566696167 5.157865047454834
33.29404067993164 5.412855625152588 5.167430400848389
33.334197998046875 6.108741283416748 5.191654682159424
33.334197998046875 6.803201198577881 5.211879730224609
33.334197998046875 8.923449516296387 5.286420822143555
27.745229721069336 8.027641296386719 4.424751281738281
33.33419418334961 10.374408721923828 5.348210334777832
33.33419418334961 11.113276481628418 5.382933139801025
31.151390075683594 11.085366249084473 5.065374851226807
31.11454963684082 11.781282424926758 5.096826076507568
33.29405212402344 2.0257914066314697 4.343597888946533
33.29404830932617 2.697695255279541 4.349787712097168
27.909093856811523 4.537393569946289 3.68206524848938
27.831851959228516 5.100403785705566 3.6846446990966797
33.29404067993164 7.494328022003174 4.444057464599609
33.294036865234375 8.200014114379883 4.465137958526611
27.745229721069336 8.027640342712402 3.761199951171875
33.294036865234375 10.361909866333008 4.540698051452637
33.33419418334961 11.113276481628418 4.575688362121582
30.483837127685547 11.542468070983887 4.24466609954834
30.799144744873047 13.835311889648438 4.396766662597656
36.48740005493164 2.2201101779937744 3.9253270626068115
36.48777770996094 3.6952574253082275 3.9381632804870605
36.4877815246582 4.43702507019043 3.9469847679138184
36.4877815246582 5.932101249694824 3.9695658683776855
36.487789154052734 7.446836948394775 3.9988903999328613
36.487789154052734 8.213245391845703 4.0161566734313965
27.84807014465332 6.858730316162109 3.079737424850464
27.792247772216797 7.439897060394287 3.089465379714966
34.355106353759766 10.692152976989746 3.8636474609375
33.29403305053711 11.099885940551758 3.7686266899108887
31.302074432373047 11.138986587524414 3.5677525997161865
31.26077651977539 11.836645126342773 3.58941388130188
31.03632164001465 13.199515342712402 3.6216161251068115
30.492191314697266 13.69742488861084 3.589496374130249
37.65085983276367 9.273072242736816 3.2824957370758057
27.745229721069336 8.027641296386719 2.4450480937957764
34.35511016845703 11.453654289245605 3.065622568130493
31.198217391967773 11.10202693939209 2.803251266479492
30.16001319885254 11.419853210449219 2.7300219535827637
30.7314395904541 13.069854736328125 2.827000617980957
34.940242767333984 9.353397369384766 2.242945909500122
27.745229721069336 8.027641296386719 1.791059970855713
34.35511016845703 11.453653335571289 2.2456462383270264
31.077449798583984 13.21700668334961 2.094165802001953
30.22172737121582 13.575928688049316 2.0544593334198
41.19609451293945 9.27305793762207 1.6650471687316895
34.355106353759766 10.692155838012695 1.418747067451477
34.35511016845703 11.453653335571289 1.4279578924179077
31.128862380981445 12.506922721862793 1.3228083848953247
37.65085220336914 9.273072242736816 0.6549952626228333
34.64023971557617 9.27308464050293 0.6057377457618713
27.745229721069336 8.027641296386719 0.48789045214653015
34.35434341430664 10.691920280456543 0.6077607870101929
34.35435104370117 11.453397750854492 0.6117066740989685
34.35435485839844 12.2251558303833 0.615953803062439
33.67292785644531 15.126246452331543 0.6235487461090088
34.35434341430664 10.69191837310791 -0.2025727778673172
34.3543586730957 13.802860260009766 -0.20844954252243042
34.354366302490234 14.610652923583984 -0.21018752455711365
42.858680725097656 9.647299766540527 -1.2369978427886963
40.36423873901367 9.941353797912598 -1.1705305576324463
34.35434341430664 10.69191837310791 -1.013107419013977
34.35435485839844 12.225152015686035 -1.026764988899231
34.35435485839844 13.00800609588623 -1.0343636274337769
47.27656936645508 2.87658429145813 -2.4020309448242188
45.43946075439453 5.525569915771484 -2.3214035034179688
43.93701171875 6.24045991897583 -2.2505972385406494
43.83352279663086 7.126352310180664 -2.2521729469299316
43.71213150024414 8.010591506958008 -2.2537460327148438
43.53549575805664 8.885210990905762 -2.2533843517303467
34.64023208618164 9.273083686828613 -1.818605661392212
27.745229721069336 8.027641296386719 -1.4647915363311768
34.35435104370117 11.453397750854492 -1.8365302085876465
34.35435485839844 12.225154876708984 -1.849282145500183
30.59871482849121 12.293920516967773 -1.6723580360412598
33.67292785644531 15.126246452331543 -1.8720853328704834
30.073680877685547 6.1377692222595215 -2.2505221366882324
29.958730697631836 6.7435784339904785 -2.2516000270843506
27.745229721069336 8.027642250061035 -2.1177802085876465
28.905630111694336 10.286203384399414 -2.2496182918548584
28.693275451660156 10.864484786987305 -2.2496178150177
28.469350814819336 11.43838882446289 -2.249617099761963
28.23394012451172 12.00768756866455 -2.2496163845062256
24.973512649536133 1.5195353031158447 -2.40201735496521
24.937971115112305 2.0206427574157715 -2.40201735496521
24.89237403869629 2.5209426879882812 -2.40201735496521
24.836732864379883 3.0202202796936035 -2.40201735496521
24.77109146118164 3.5182878971099854 -2.40201735496521
24.695459365844727 4.014929294586182 -2.40201735496521
24.609874725341797 4.509952068328857 -2.40201735496521
24.03392791748047 6.953832626342773 -2.4020166397094727
23.735347747802734 7.913132190704346 -2.4020159244537354
23.571685791015625 8.388092041015625 -2.4020156860351562
23.21592140197754 9.327672004699707 -2.4020156860351562
23.02397346496582 9.791918754577637 -2.4020156860351562
20.15536117553711 1.6331236362457275 -2.4020187854766846
20.118505477905273 2.0374763011932373 -2.4020187854766846
20.020483016967773 2.8435490131378174 -2.4020187854766846
19.81298828125 4.043653964996338 -2.4020187854766846
19.727807998657227 4.440640926361084 -2.4020187854766846
19.424694061279297 5.6202263832092285 -2.4020190238952637
19.307931900024414 6.009103298187256 -2.4020190238952637
19.051115036010742 6.779425621032715 -2.4020190238952637
18.76357078552246 7.538808345794678 -2.402017831802368
18.44577407836914 8.28604507446289 -2.402017831802368
16.921430587768555 1.0295997858047485 -2.4020204544067383
16.897348403930664 1.3691376447677612 -2.4020204544067383
16.8664493560791 1.7081282138824463 -2.4020204544067383
16.828754425048828 2.04642653465271 -2.4020204544067383
16.784278869628906 2.3839032649993896 -2.4020204544067383
16.733030319213867 2.7204174995422363 -2.4020204544067383
16.61031723022461 3.390019416809082 -2.4020204544067383
16.538904190063477 3.722835063934326 -2.4020204544067383
16.46082305908203 4.0541558265686035 -2.4020204544067383
16.18690299987793 5.0377631187438965 -2.4020206928253174
15.730546951293945 6.320200443267822 -2.4020209312438965
15.464120864868164 6.946651935577393 -2.4020209312438965
14.533120155334473 1.1775718927383423 -2.402021646499634
14.506552696228027 1.4691312313079834 -2.402021646499634
14.474127769470215 1.7600950002670288 -2.402021646499634
14.43587589263916 2.050354480743408 -2.402021646499634
14.341914176940918 2.6282684803009033 -2.402021646499634
14.2862548828125 2.9156975746154785 -2.402021646499634
14.157675743103027 3.4869091510772705 -2.402021646499634
14.006271362304688 4.052493095397949 -2.402021884918213
13.73690128326416 4.888339519500732 -2.402021884918213
13.635986328125 5.16316032409668 -2.402022123336792
13.52957534790039 5.4358978271484375 -2.402022123336792
13.417704582214355 5.706450462341309 -2.402022123336792
12.71434497833252 1.28762948513031 -2.40202260017395
12.613761901855469 2.050715446472168 -2.40202260017395
12.46743392944336 2.806364059448242 -2.40202260017395
12.40856647491455 3.056119918823242 -2.40202260017395
12.275866508483887 3.551828622817993 -2.40202260017395
11.85806655883789 4.764322280883789 -2.4020228385925293
11.760016441345215 5.0014472007751465 -2.4020228385925293
11.305707931518555 1.144970178604126 -2.4020233154296875
11.250624656677246 1.5979490280151367 -2.4020233154296875
11.17740249633789 2.048346996307373 -2.4020233154296875
11.134017944335938 2.2723541259765625 -2.4020233154296875
11.086149215698242 2.495443820953369 -2.4020233154296875
10.915812492370605 3.1583170890808105 -2.4020233154296875
10.850197792053223 3.3768486976623535 -2.4020233154296875
10.627228736877441 4.023919105529785 -2.4020235538482666
10.544294357299805 4.236476898193359 -2.4020235538482666
10.186991691589355 0.8254185318946838 -2.4020237922668457
10.118823051452637 1.4371970891952515 -2.4020237922668457
10.087929725646973 1.640070915222168 -2.4020237922668457
10.052966117858887 1.842284917831421 -2.4020237922668457
10.01395034790039 2.043757438659668 -2.4020237922668457
9.970895767211914 2.2444050312042236 -2.4020237922668457
9.817694664001465 2.840595006942749 -2.402024030685425
9.758681297302246 3.0371429920196533 -2.402024030685425
9.62887954711914 3.426481246948242 -2.402024030685425
9.405138969421387 3.999937057495117 -2.402024269104004
9.260039329528809 0.5634394884109497 -2.402024269104004
9.229958534240723 0.9347526431083679 -2.402024269104004
9.184985160827637 1.3045616149902344 -2.402024269104004
9.156943321228027 1.4887140989303589 -2.402024269104004
9.050712585449219 2.037276029586792 -2.402024269104004
8.911652565002441 2.5784459114074707 -2.402024507522583
5.599374771118164 2.120159149169922 -1.5502254962921143
5.19681978225708 2.21016788482666 -1.4621812105178833
8.457221031188965 0.6852622628211975 -2.402024745941162
8.422883033752441 1.0242478847503662 -2.402024745941162
8.374975204467773 1.361585259437561 -2.402024745941162
8.345952033996582 1.5294630527496338 -2.402024745941162
8.313554763793945 1.6967240571975708 -2.402024745941162
8.196330070495605 2.194133996963501 -2.402024745941162
8.049379348754883 2.6835851669311523 -2.402024984359741
5.814054012298584 2.0689566135406494 -1.7470253705978394
5.409628868103027 2.0483133792877197 -1.6375329494476318
4.600014686584473 1.9563511610031128 -1.4151092767715454
4.563226222991943 2.0498502254486084 -1.4161688089370728
7.783959865570068 0.6302720308303833 -2.402024984359741
7.769728660583496 0.7868690490722656 -2.4020252227783203
7.73187255859375 1.0981736183166504 -2.4020254611968994
7.708266258239746 1.253191351890564 -2.4020256996154785
7.681550025939941 1.4075218439102173 -2.4020259380340576
7.618842601776123 1.7149696350097656 -2.402026414871216
7.456690311431885 2.3207058906555176 -2.4020276069641113
7.408594608306885 2.469951629638672 -2.4020276069641113
5.746939659118652 2.045073986053467 -1.876219391822815
4.908044338226318 2.0873541831970215 -1.640461802482605
4.673913478851318 2.0995726585388184 -1.57598078250885
7.189423561096191 0.7280076146125793 -2.402028799057007
7.17335319519043 0.8723017573356628 -2.402029037475586
7.154395580291748 1.0161536931991577 -2.402029037475586
7.080245018005371 1.4450156688690186 -2.402029275894165
7.049805641174316 1.5868805646896362 -2.402029514312744
6.980413436889648 1.868568778038025 -2.4020297527313232
6.899765491485596 2.147376775741577 -2.4020299911499023
6.855259895324707 2.285475254058838 -2.4020302295684814
5.401077747344971 2.0450751781463623 -1.9197381734848022
5.141107082366943 2.0655877590179443 -1.841707706451416
4.622916221618652 2.0766632556915283 -1.6846071481704712
6.704550743103027 0.4080006182193756 -2.4020304679870605
6.695008277893066 0.5424739122390747 -2.4020304679870605
6.65020751953125 0.9445423483848572 -2.4020304679870605
6.629902362823486 1.077873945236206 -2.4020304679870605
6.581282615661621 1.3431718349456787 -2.4020307064056396
6.552989482879639 1.4750492572784424 -2.4020307064056396
6.488484859466553 1.736947774887085 -2.4020307064056396
6.413521766662598 1.9960455894470215 -2.4020309448242188
6.372151851654053 2.1243958473205566 -2.4020309448242188
5.401079177856445 2.0450751781463623 -2.0652856826782227
4.87925910949707 2.0751113891601562 -1.8961025476455688
4.612385272979736 2.071932792663574 -1.8081988096237183
6.256480693817139 0.3806813061237335 -2.4020309448242188
6.247576713562012 0.506220817565918 -2.4020309448242188
6.22221565246582 0.7566630244255066 -2.4020309448242188
6.205769062042236 0.8813945055007935 -2.4020309448242188
6.165380954742432 1.1298549175262451 -2.4020309448242188
6.141452312469482 1.2534159421920776 -2.4020309448242188
6.115047454833984 1.3764704465866089 -2.4020309448242188
6.086177825927734 1.498971700668335 -2.4020309448242188
5.984898567199707 1.862669825553894 -2.4020309448242188
5.946293830871582 1.9824360609054565 -2.4020309448242188
5.905291557312012 2.101425886154175 -2.4020309448242188
5.401079177856445 2.0450754165649414 -2.21319580078125
5.203057765960693 2.09047794342041 -2.1488215923309326
4.904682636260986 2.0859243869781494 -2.0424840450286865
5.858156681060791 0.3564448356628418 -2.4020309448242188
5.839122295379639 0.5913493037223816 -2.4020309448242188
5.826071739196777 0.7084675431251526 -2.4020309448242188
5.792932033538818 0.9418009519577026 -2.4020309448242188
5.725726127624512 1.2888352870941162 -2.4020309448242188
5.529327392578125 1.9676074981689453 -2.4020309448242188
5.401079177856445 2.0450754165649414 -2.3636815547943115
5.400844573974609 2.29693865776062 -2.4020309448242188
4.652719497680664 2.0900516510009766 -2.0875473022460938
5.493554592132568 0.44513899087905884 -2.4020309448242188
5.483508110046387 0.555335521697998 -2.4020309448242188
5.471255779266357 0.665320873260498 -2.4020309448242188
5.456794261932373 0.7750388979911804 -2.4020309448242188
5.377021312713623 1.210344672203064 -2.4020309448242188
5.35163688659668 1.3180601596832275 -2.4020309448242188
5.192583084106445 1.8478044271469116 -2.4020309448242188
5.154436111450195 1.9516870975494385 -2.4020309448242188
5.071926116943359 2.1570520401000977 -2.4020309448242188
5.027594089508057 2.2584495544433594 -2.4020309448242188
5.179681301116943 0.31516218185424805 -2.4020309448242188
5.172313213348389 0.41909560561180115 -2.4020309448242188
5.162852764129639 0.5228614807128906 -2.4020309448242188
5.151312351226807 0.6264146566390991 -2.4020309448242188
5.137698650360107 0.7297172546386719 -2.4020309448242188
5.122011661529541 0.8327241539955139 -2.4020309448242188
5.084450721740723 1.0376914739608765 -2.4020309448242188
5.038688659667969 1.240984320640564 -2.4020309448242188
5.012757301330566 1.3418995141983032 -2.4020309448242188
4.984803199768066 1.442278504371643 -2.4020309448242188
4.954842567443848 1.5420719385147095 -2.4020309448242188
4.815147399902344 1.9346259832382202 -2.4020309448242188
4.73359489440918 2.1263835430145264 -2.4020309448242188
4.887833118438721 0.2973966896533966 -2.4020309448242188
4.880875110626221 0.39547470211982727 -2.4020309448242188
4.848215103149414 0.6886018514633179 -2.4020309448242188
4.833411693572998 0.7858051657676697 -2.4020309448242188
4.816659927368164 0.8827076554298401 -2.4020309448242188
4.777338981628418 1.0753720998764038 -2.4020309448242188
4.675661563873291 1.4551862478256226 -2.4020309448242188
4.645503044128418 1.5487678050994873 -2.4020309448242188
4.57957649230957 1.7340214252471924 -2.4020309448242188
4.584152698516846 0.6510999798774719 -2.4020309448242188
4.495809078216553 1.1072801351547241 -2.4020309448242188
4.472671985626221 1.1973252296447754 -2.4020309448242188
4.447729587554932 1.2868858575820923 -2.4020309448242188
4.420997142791748 1.3759346008300781 -2.4020309448242188
4.392480373382568 1.464409589767456 -2.4020309448242188
4.362191200256348 1.5523096323013306 -2.4020309448242188
4.330145359039307 1.6395808458328247 -2.4020309448242188
4.296353816986084 1.7261850833892822 -2.4020309448242188
4.37754487991333 0.26636093854904175 -2.4020309448242188
4.371314525604248 0.35420456528663635 -2.4020309448242188
4.363321304321289 0.4418974220752716 -2.4020309448242188
4.353569030761719 0.529414176940918 -2.4020309448242188
4.342063903808594 0.6167176961898804 -2.4020309448242188
4.313802242279053 0.790538489818573 -2.4020309448242188
4.297059059143066 0.8769926428794861 -2.4020309448242188
4.187524318695068 1.3037501573562622 -2.4020309448242188
4.160512447357178 1.3870768547058105 -2.4020309448242188
4.101470947265625 1.5529907941818237 -2.4020309448242188
4.069462776184082 1.6350263357162476 -2.4020309448242188
4.035816669464111 1.7164020538330078 -2.4020309448242188
4.146849155426025 0.3360029458999634 -2.4020309448242188
4.139266490936279 0.41919752955436707 -2.4020309448242188
4.130014419555664 0.5022209286689758 -2.4020309448242188
4.092291355133057 0.7499427795410156 -2.4020309448242188
4.076407432556152 0.8319587707519531 -2.4020309448242188
4.05888032913208 0.9136366248130798 -2.4020309448242188
4.039718151092529 0.9949403405189514 -2.4020309448242188
3.9965198040008545 1.1563289165496826 -2.4020309448242188
3.8908605575561523 1.473243236541748 -2.4020309448242188
3.860496759414673 1.5510646104812622 -2.4020309448242188
3.8285765647888184 1.6282672882080078 -2.4020309448242188
