ply
format ascii 1.0
element vertex 315
property float x
property float y
property float z
end_header
30.922636032104492 13.48597526550293 5.9484686851501465
33.33418273925781 15.35018539428711 6.470973491668701
31.306346893310547 15.986795425415039 6.198248386383057
31.306346893310547 16.79635238647461 6.264459133148193
32.93381881713867 22.237871170043945 7.006991386413574
32.93382263183594 24.2401065826416 7.210498332977295
33.33419418334961 10.66965103149414 5.361825942993164
31.098886489868164 12.81814193725586 5.152995586395264
30.732757568359375 13.403162956237793 5.136347770690918
33.33418273925781 15.350189208984375 5.622039794921875
31.794540405273438 15.430782318115234 5.4140753746032715
31.306346893310547 15.986800193786621 5.385095119476318
31.306346893310547 16.796344757080078 5.442616939544678
31.306352615356445 17.62371826171875 5.503674030303955
31.095321655273438 19.2069091796875 5.599091529846191
31.30635643005371 20.226303100585938 5.709839820861816
31.14095115661621 21.02727699279785 5.7563300132751465
31.306365966796875 23.042255401611328 5.954976558685303
33.294036865234375 9.916580200195312 4.523804664611816
33.29403305053711 11.40670394897461 4.582971096038818
31.306346893310547 15.98680305480957 4.577526569366455
31.306346893310547 16.796350479125977 4.626423358917236
31.306352615356445 17.623720169067383 4.678323268890381
31.095321655273438 19.2069091796875 4.759432315826416
31.30635643005371 20.22631072998047 4.853572845458984
31.140941619873047 21.02727699279785 4.893089294433594
31.306365966796875 22.07698631286621 4.988462924957275
31.306365966796875 23.042261123657227 5.061947345733643
34.355106353759766 10.232623100280762 3.8492724895477295
31.372528076171875 11.464905738830566 3.5867435932159424
31.260820388793945 12.148725509643555 3.601422071456909
30.85888671875 13.45816707611084 3.6151037216186523
30.036067962646484 13.831430435180664 3.550867795944214
31.16705894470215 15.126254081726074 3.7201061248779297
30.569501876831055 16.401018142700195 3.725214719772339
30.56950569152832 17.208913803100586 3.767005443572998
30.56951141357422 18.882125854492188 3.858323335647583
30.56951141357422 19.75025177001953 3.908116340637207
30.569515228271484 20.641427993774414 3.9608640670776367
30.48920249938965 22.440814971923828 4.065192699432373
34.3551025390625 10.232627868652344 3.034515380859375
34.35511016845703 11.770245552062988 3.0742039680480957
31.234506607055664 11.414468765258789 2.815114736557007
31.3216495513916 12.172368049621582 2.8446507453918457
30.715688705444336 13.395723342895508 2.836688280105591
32.84787368774414 15.126249313354492 3.0613255500793457
31.167064666748047 15.126253128051758 2.932689666748047
30.569501876831055 16.40101432800293 2.936716318130493
30.569501876831055 17.20891761779785 2.9696617126464844
30.56950569152832 18.035507202148438 3.0046069622039795
30.56951141357422 20.641422271728516 3.122487783432007
30.569515228271484 21.55736541748047 3.166529417037964
30.569520950317383 22.499914169311523 3.213174343109131
34.355106353759766 10.23262882232666 2.222860097885132
31.76300621032715 11.607605934143066 2.0970354080200195
30.8270206451416 12.706082344055176 2.067605495452881
30.666250228881836 13.37415599822998 2.0746006965637207
32.84786605834961 15.126249313354492 2.2424986362457275
31.16705894470215 15.126254081726074 2.14827036857605
30.569501876831055 16.401020050048828 2.1512200832366943
30.56950569152832 18.035507202148438 2.2009506225585938
30.56951141357422 19.750247955322266 2.256840944290161
34.355106353759766 10.23263168334961 1.4134681224822998
34.355106353759766 10.996438026428223 1.422358512878418
31.255414962768555 12.146625518798828 1.322226643562317
30.907821655273438 12.739389419555664 1.3181912899017334
32.847862243652344 15.126249313354492 1.425955891609192
31.16705894470215 15.126254081726074 1.3660383224487305
30.48918914794922 16.357927322387695 1.3643195629119873
30.48918914794922 17.16370391845703 1.3796250820159912
30.48918914794922 17.988126754760742 1.395858883857727
30.489198684692383 19.69835662841797 1.4313056468963623
30.489198684692383 20.587188720703125 1.4506220817565918
30.489198684692383 21.500732421875 1.471084713935852
30.48920249938965 22.440805435180664 1.4927549362182617
34.35434341430664 10.232401847839355 0.6054993867874146
31.002798080444336 12.048449516296387 0.5618491768836975
30.83963394165039 12.711282730102539 0.5634510517120361
34.354366302490234 14.982623100280762 0.63309246301651
31.16705894470215 15.126253128051758 0.585193932056427
30.48918342590332 16.357925415039062 0.5844581723213196
30.48918914794922 17.16370391845703 0.5910151600837708
30.48918914794922 17.98812484741211 0.5979698300361633
30.489192962646484 18.8325138092041 0.605341911315918
30.489198684692383 19.6983585357666 0.613154411315918
30.489198684692383 20.587194442749023 0.6214298605918884
30.489198684692383 21.500732421875 0.630195140838623
34.35435104370117 10.996194839477539 -0.20308837294578552
34.35435485839844 12.554600715637207 -0.20593276619911194
34.3543586730957 14.15996265411377 -0.20920760929584503
34.354366302490234 14.982622146606445 -0.21101607382297516
31.157480239868164 17.5399169921875 -0.20130904018878937
31.157489776611328 21.038442611694336 -0.21166884899139404
31.157493591308594 21.972003936767578 -0.21465423703193665
34.35435104370117 10.996193885803223 -1.0156865119934082
34.35435485839844 11.76998519897461 -1.0225390195846558
34.3543586730957 13.3509521484375 -1.0378223657608032
30.99968719482422 12.777252197265625 -0.9441202878952026
34.354366302490234 14.982619285583496 -1.0553340911865234
31.157480239868164 16.716476440429688 -0.9956184029579163
31.157480239868164 17.5399112701416 -1.0067875385284424
31.157489776611328 19.24530792236328 -1.0311933755874634
31.157489776611328 21.03843879699707 -1.0585991144180298
31.157499313354492 22.932687759399414 -1.0893442630767822
34.35435485839844 11.76998233795166 -1.841671109199524
31.013158798217773 12.05247974395752 -1.6874053478240967
30.49696159362793 12.570042610168457 -1.6728558540344238
34.354366302490234 14.982622146606445 -1.9007378816604614
30.48918342590332 15.569511413574219 -1.7361767292022705
31.157480239868164 16.71647834777832 -1.7931851148605347
31.157480239868164 17.5399169921875 -1.8133015632629395
31.15748405456543 18.38240623474121 -1.834639072418213
31.157489776611328 20.130128860473633 -1.8812270164489746
31.157493591308594 21.972009658813477 -1.9335095882415771
29.025081634521484 9.9441499710083 -2.2496185302734375
28.817304611206055 10.531118392944336 -2.2496180534362793
28.3662109375 11.691807746887207 -2.249616861343384
28.12309455871582 12.26504135131836 -2.2496161460876465
27.86840057373047 12.833236694335938 -2.2496156692504883
27.60222816467285 13.396140098571777 -2.2496156692504883
27.32468605041504 13.953536033630371 -2.2496156692504883
27.035888671875 14.505176544189453 -2.2496156692504883
26.7359619140625 15.050847053527832 -2.2496156692504883
26.425016403198242 15.59032917022705 -2.2496156692504883
26.103187561035156 16.12337875366211 -2.2496156692504883
25.770606994628906 16.649791717529297 -2.2496156692504883
25.42742347717285 17.169336318969727 -2.2496156692504883
25.073759078979492 17.68181800842285 -2.2496156692504883
23.9786319732666 7.142019271850586 -2.4020161628723145
23.669095993041992 8.109156608581543 -2.4020156860351562
23.49966049194336 8.587818145751953 -2.4020156860351562
22.933578491210938 10.001787185668945 -2.4020156860351562
22.725881576538086 10.465136528015137 -2.4020156860351562
22.508825302124023 10.92416763305664 -2.4020156860351562
22.282501220703125 11.37870979309082 -2.4020156860351562
21.802433013916016 12.273547172546387 -2.4020156860351562
21.28639793395996 13.148149490356445 -2.4020156860351562
20.44693374633789 14.419004440307617 -2.4020156860351562
19.258907318115234 6.1644206047058105 -2.4020190238952637
19.129846572875977 6.553984642028809 -2.4020190238952637
18.992900848388672 6.940845966339111 -2.4020190238952637
18.695592880249023 7.7058329582214355 -2.402017831802368
18.367502212524414 8.458128929138184 -2.402017593383789
17.81880760192871 9.560072898864746 -2.40201735496521
17.416181564331055 10.275264739990234 -2.4020156860351562
16.758691787719727 11.315958976745605 -2.4020156860351562
16.285707473754883 11.986677169799805 -2.4020156860351562
16.037599563598633 5.49456787109375 -2.4020209312438965
15.922797203063965 5.8188934326171875 -2.4020209312438965
15.673562049865723 6.460227966308594 -2.4020209312438965
15.539233207702637 6.776968955993652 -2.4020209312438965
15.098061561584473 7.709929466247559 -2.4020192623138428
14.7727632522583 8.316240310668945 -2.4020190238952637
14.423134803771973 8.908856391906738 -2.4020187854766846
13.974074363708496 4.1621623039245605 -2.402021884918213
13.886730194091797 4.444887161254883 -2.402021884918213
13.793668746948242 4.725785255432129 -2.402021884918213
13.59054183959961 5.281620979309082 -2.402022123336792
13.117497444152832 6.366290092468262 -2.402022123336792
12.848356246948242 6.893343448638916 -2.402022361755371
12.557992935180664 7.409040927886963 -2.4020206928253174
12.247037887573242 7.912528038024902 -2.402020215988159
12.08394718170166 8.159432411193848 -2.402020215988159
11.742887496948242 8.643054962158203 -2.4020187854766846
12.002985954284668 4.38642692565918 -2.4020228385925293
11.911503791809082 4.629106521606445 -2.4020228385925293
11.815104484558105 4.869875907897949 -2.4020228385925293
11.60776138305664 5.345306396484375 -2.4020228385925293
11.496901512145996 5.579771041870117 -2.4020230770111084
11.381296157836914 5.81193733215332 -2.4020230770111084
11.136086463928223 6.268990993499756 -2.4020233154296875
11.00656509399414 6.493692874908447 -2.4020233154296875
10.44369888305664 7.3648362159729 -2.402022361755371
10.75011920928955 3.683049201965332 -2.4020233154296875
10.673166275024414 3.900447368621826 -2.4020235538482666
10.591814041137695 4.11624002456665 -2.4020235538482666
10.506098747253418 4.330338478088379 -2.4020235538482666
10.416059494018555 4.5426506996154785 -2.4020235538482666
10.321728706359863 4.7530951499938965 -2.4020237922668457
10.22314167022705 4.961580276489258 -2.4020237922668457
9.902301788330078 5.574441432952881 -2.4020237922668457
9.66794204711914 5.971677780151367 -2.402024030685425
9.54476261138916 6.1666483879089355 -2.402024030685425
9.15185546875 6.735990047454834 -2.402024269104004
9.449198722839355 3.894710063934326 -2.402024269104004
9.194706916809082 4.4624528884887695 -2.402024269104004
9.102252960205078 4.648128986358643 -2.402024269104004
8.906140327453613 5.013659954071045 -2.402024269104004
8.695356369018555 5.370935440063477 -2.402024507522583
8.584569931030273 5.546290874481201 -2.402024507522583
8.47024917602539 5.719358921051025 -2.402024745941162
8.891157150268555 2.6482226848602295 -2.402024507522583
8.835585594177246 2.8281102180480957 -2.402024507522583
8.776373863220215 3.0068347454071045 -2.402024507522583
8.713549613952637 3.1843199729919434 -2.402024507522583
8.647138595581055 3.3604888916015625 -2.402024745941162
8.34615421295166 4.050626754760742 -2.402024745941162
8.084220886230469 4.550960540771484 -2.402024745941162
7.990192890167236 4.7140960693359375 -2.402024745941162
7.892888069152832 4.875270366668701 -2.402024984359741
7.688559532165527 5.191539764404297 -2.4020259380340576
8.081059455871582 2.586597204208374 -2.402024984359741
8.026901245117188 2.75006103515625 -2.402024984359741
7.969440937042236 2.912388324737549 -2.402024984359741
7.844701766967773 3.2333824634552 -2.402024984359741
7.777468204498291 3.3919084072113037 -2.402024984359741
7.633434772491455 3.704718589782715 -2.402026414871216
7.476815223693848 4.0114288330078125 -2.4020273685455322
6.93418550491333 4.88992977142334 -2.4020297527313232
7.484538555145264 2.2292609214782715 -2.4020273685455322
7.43775749206543 2.380689859390259 -2.4020276069641113
7.387916088104248 2.531139850616455 -2.4020278453826904
7.279122352600098 2.828847646713257 -2.4020285606384277
7.158339500427246 3.121893882751465 -2.402029037475586
7.093509197235107 3.2665202617645264 -2.402029275894165
7.025760173797607 3.409799814224243 -2.402029514312744
6.955118179321289 3.5516788959503174 -2.4020297527313232
6.881607532501221 3.6920909881591797 -2.4020299911499023
6.805263519287109 3.830983877182007 -2.4020302295684814
6.726119041442871 3.9683001041412354 -2.4020304679870605
6.47219705581665 4.370214939117432 -2.4020309448242188
6.382178783416748 4.500660419464111 -2.4020309448242188
6.289528846740723 4.629249095916748 -2.4020309448242188
6.882246017456055 2.202880382537842 -2.4020299911499023
6.836121559143066 2.3420910835266113 -2.4020302295684814
6.623691082000732 2.888723611831665 -2.4020304679870605
6.563703536987305 3.022548198699951 -2.4020307064056396
6.435647964477539 3.286407470703125 -2.4020309448242188
6.36762809753418 3.416335344314575 -2.4020309448242188
6.296988487243652 3.5448522567749023 -2.4020309448242188
6.397234916687012 2.0476372241973877 -2.4020309448242188
6.210126876831055 2.5595412254333496 -2.4020309448242188
6.042870998382568 2.932774543762207 -2.4020309448242188
5.982108116149902 3.0548033714294434 -2.4020309448242188
5.918882846832275 3.1755735874176025 -2.4020309448242188
5.785145282745361 3.4131414890289307 -2.4020309448242188
5.7146897315979 3.5298399925231934 -2.4020309448242188
5.641877174377441 3.6450860500335693 -2.4020309448242188
5.566746711730957 3.7588279247283936 -2.4020309448242188
5.48931884765625 3.8710906505584717 -2.4020309448242188
6.007250785827637 1.7892524003982544 -2.4020309448242188
5.969700813293457 1.9108301401138306 -2.4020309448242188
5.88724946975708 2.151461362838745 -2.4020309448242188
5.745428562164307 2.505632162094116 -2.4020309448242188
5.523318767547607 2.9633476734161377 -2.4020309448242188
5.398519039154053 3.1850383281707764 -2.4020309448242188
5.264827728271484 3.401423931121826 -2.4020309448242188
5.122464656829834 3.612318754196167 -2.4020309448242188
5.048101902008057 3.715527296066284 -2.4020309448242188
5.624793529510498 1.6753376722335815 -2.4020309448242188
5.589636325836182 1.7891395092010498 -2.4020309448242188
5.552176475524902 1.9022047519683838 -2.4020309448242188
5.226913928985596 2.669159412384033 -2.4020309448242188
5.171672344207764 2.77468204498291 -2.4020309448242188
5.054816722869873 2.9822473526000977 -2.4020309448242188
4.993256568908691 3.0842247009277344 -2.4020309448242188
4.929637432098389 3.1849260330200195 -2.4020309448242188
4.863989353179932 3.284308433532715 -2.4020309448242188
4.796336650848389 3.3823375701904297 -2.4020309448242188
5.249218463897705 1.6801782846450806 -2.4020309448242188
5.214040279388428 1.786358118057251 -2.4020309448242188
5.09568452835083 2.100306749343872 -2.4020309448242188
5.006260871887207 2.305356502532959 -2.4020309448242188
4.958453178405762 2.406799793243408 -2.4020309448242188
4.90858268737793 2.50645112991333 -2.4020309448242188
4.856709003448486 2.605700731277466 -2.4020309448242188
4.802829265594482 2.7037243843078613 -2.4020309448242188
4.746971130371094 2.8006365299224854 -2.4020309448242188
4.689158916473389 2.896392822265625 -2.4020309448242188
4.567764759063721 3.084287643432617 -2.4020309448242188
4.942261695861816 1.58205246925354 -2.4020309448242188
4.909139156341553 1.6819279193878174 -2.4020309448242188
4.873997688293457 1.781181812286377 -2.4020309448242188
4.836846828460693 1.8797184228897095 -2.4020309448242188
4.797708511352539 1.9774881601333618 -2.4020309448242188
4.713509559631348 2.170544147491455 -2.4020309448242188
4.668492317199707 2.265751361846924 -2.4020309448242188
4.621547698974609 2.360025644302368 -2.4020309448242188
4.57270622253418 2.4533286094665527 -2.4020309448242188
4.521975040435791 2.545619249343872 -2.4020309448242188
4.300655364990234 2.9039275646209717 -2.4020309448242188
4.179279804229736 3.0760514736175537 -2.4020309448242188
4.693121433258057 1.3978413343429565 -2.4020309448242188
4.663788795471191 1.4927995204925537 -2.4020309448242188
4.564315319061279 1.7738059759140015 -2.4020309448242188
4.527379035949707 1.866066336631775 -2.4020309448242188
4.447926998138428 2.0482449531555176 -2.4020309448242188
4.361148357391357 2.227050304412842 -2.4020309448242188
4.267184734344482 2.4021854400634766 -2.4020309448242188
4.217557430267334 2.4882888793945312 -2.4020309448242188
4.113110065460205 2.6573851108551025 -2.4020309448242188
4.05833625793457 2.740306854248047 -2.4020309448242188
4.001890659332275 2.8221001625061035 -2.4020309448242188
3.943796396255493 2.90273118019104 -2.4020309448242188
4.437507152557373 1.3217127323150635 -2.4020309448242188
4.380218505859375 1.5006916522979736 -2.4020309448242188
4.315713882446289 1.6771937608718872 -2.4020309448242188
4.280789852142334 1.7644294500350952 -2.4020309448242188
4.165497779846191 2.021634101867676 -2.4020309448242188
4.123613357543945 2.1057517528533936 -2.4020309448242188
4.080029010772705 2.189000368118286 -2.4020309448242188
4.034769058227539 2.271348714828491 -2.4020309448242188
3.8372936248779297 2.591052770614624 -2.4020309448242188
3.783921957015991 2.668391704559326 -2.4020309448242188
4.176890850067139 1.3369464874267578 -2.4020309448242188
4.087801456451416 1.5886204242706299 -2.4020309448242188
3.7772436141967773 2.228512763977051 -2.4020309448242188
3.731241464614868 2.3047070503234863 -2.4020309448242188
3.9358532428741455 1.3484416007995605 -2.4020309448242188
3.877896547317505 1.5070465803146362 -2.4020309448242188
3.8135459423065186 1.663162350654602 -2.4020309448242188
3.705281972885132 1.8921271562576294 -2.4020309448242188
3.5832836627960205 2.114078998565674 -2.4020309448242188
3.539644718170166 2.18636155128479 -2.4020309448242188
3.494544506072998 2.257744312286377 -2.4020309448242188
