ply
format ascii 1.0
element vertex 487
property float x
property float y
property float z
end_header
5.441687107086182 -12.436065673828125 2.393555164337158
33.11475372314453 -32.37329864501953 8.165702819824219
33.11475372314453 -31.088815689086914 8.009012222290039
33.11475372314453 -29.852182388305664 7.861372947692871
33.00300598144531 -27.415632247924805 7.565256595611572
32.90372085571289 -26.22696304321289 7.419381618499756
17.881494522094727 -13.670934677124023 3.968897581100464
5.441687107086182 -12.436066627502441 2.079542636871338
5.689689636230469 -12.31835651397705 2.0786049365997314
28.758241653442383 -33.06659698486328 6.713397026062012
28.743242263793945 -31.729963302612305 6.558732032775879
28.750263214111328 -30.475753784179688 6.418368339538574
29.114608764648438 -28.462718963623047 6.237451553344727
29.114614486694336 -25.197811126708984 5.898661136627197
29.114614486694336 -24.1855411529541 5.798364639282227
29.104530334472656 -39.5069465637207 6.389945030212402
29.016845703125 -37.764198303222656 6.201727867126465
28.903564453125 -36.08234405517578 6.020304203033447
28.944936752319336 -33.28118133544922 5.743677616119385
28.932119369506836 -31.9384765625 5.61179780960083
28.903568267822266 -30.638261795043945 5.4849395751953125
29.114608764648438 -28.46272087097168 5.30206298828125
29.114614486694336 -25.197811126708984 5.014077663421631
28.90357780456543 -23.03852081298828 4.813223838806152
29.1146183013916 -22.258991241455078 4.7724175453186035
28.9190616607666 -21.196786880493164 4.669130802154541
5.441687107086182 -12.436062812805176 1.4576579332351685
29.11458969116211 -39.52060317993164 5.271053314208984
29.016845703125 -37.764198303222656 5.1140241622924805
28.9039249420166 -34.6238899230957 4.843204021453857
28.93212890625 -31.9384765625 4.627561092376709
28.903568267822266 -30.63825798034668 4.522951126098633
29.114608764648438 -29.63768196105957 4.461259841918945
29.114608764648438 -28.46272087097168 4.372147560119629
29.114608764648438 -27.333393096923828 4.2882513999938965
28.29745101928711 -25.509489059448242 4.091061115264893
28.37777328491211 -24.560089111328125 4.030029773712158
28.37777328491211 -23.573444366455078 3.9615068435668945
5.441687107086182 -12.436065673828125 1.1491221189498901
29.11458969116211 -39.52059555053711 4.155354022979736
28.903564453125 -37.61676025390625 4.01582145690918
28.37775421142578 -33.99360275268555 3.7485625743865967
28.377763748168945 -30.080894470214844 3.500735282897949
28.37776756286621 -25.58188819885254 3.2342796325683594
28.37777328491211 -20.8000431060791 2.978455066680908
5.441687107086182 -12.436065673828125 0.841761589050293
5.68969202041626 -12.318359375 0.8412379026412964
28.37775421142578 -35.42593002319336 2.814676523208618
28.37775421142578 -33.99359130859375 2.7459166049957275
28.377763748168945 -30.080894470214844 2.564378023147583
28.377763748168945 -28.887596130371094 2.51106595993042
28.29745101928711 -27.663862228393555 2.453943967819214
28.37776756286621 -25.58189582824707 2.3691928386688232
28.37777328491211 -24.56009292602539 2.327242851257324
28.37777328491211 -22.619415283203125 2.250330686569214
28.37777328491211 -21.69565200805664 2.215078830718994
5.441687107086182 -12.436063766479492 0.5352576971054077
28.37775421142578 -35.425926208496094 1.7897911071777344
28.297441482543945 -32.536685943603516 1.7002863883972168
28.29744529724121 -31.237838745117188 1.6619813442230225
28.29745101928711 -27.663862228393555 1.5604093074798584
28.29745101928711 -26.566226959228516 1.5304666757583618
28.29745101928711 -24.49057960510254 1.475654125213623
28.297454833984375 -20.741168975830078 1.3834284543991089
5.441685676574707 -12.43606948852539 0.22929885983467102
5.689687252044678 -12.318354606628418 0.2292603999376297
28.297441482543945 -35.32566452026367 0.7645567059516907
28.29744529724121 -31.23784065246582 0.7119730710983276
28.29745101928711 -28.805843353271484 0.6820850968360901
28.29745101928711 -26.56623649597168 0.6556336879730225
28.297454833984375 -24.49057960510254 0.6321531534194946
28.297454833984375 -23.506731033325195 0.621404230594635
28.297460556030273 -20.741174697875977 0.5926445126533508
29.265932083129883 -35.05754852294922 -0.25711700320243835
29.265926361083984 -33.650272369384766 -0.2510862648487091
28.65011215209961 -30.369604110717773 -0.23506590723991394
28.650115966796875 -29.16484832763672 -0.23017898201942444
28.650115966796875 -28.008628845214844 -0.22558151185512543
28.650115966796875 -25.827415466308594 -0.21717406809329987
28.650115966796875 -24.795801162719727 -0.21332870423793793
28.650121688842773 -22.836490631103516 -0.20627853274345398
28.650121688842773 -21.90386962890625 -0.20304656028747559
5.689693450927734 -12.318360328674316 -0.3822669982910156
28.329198837280273 -35.36532211303711 -1.2759053707122803
28.45746612548828 -34.08909606933594 -1.2503738403320312
28.342905044555664 -32.58897018432617 -1.2161283493041992
28.650115966796875 -29.164846420288086 -1.1511727571487427
28.650115966796875 -26.89731788635254 -1.1065300703048706
28.650121688842773 -22.83649444580078 -1.031640648841858
28.650121688842773 -20.999662399291992 -1.0002211332321167
18.105573654174805 -43.76651382446289 -2.4020156860351562
5.441687107086182 -12.436065673828125 -0.6884216070175171
5.689687252044678 -12.318354606628418 -0.6880386471748352
22.431127548217773 -41.71528244018555 -2.4020156860351562
27.732666015625 -34.62062072753906 -2.2496156692504883
28.294574737548828 -33.89397048950195 -2.2391281127929688
28.37342643737793 -31.321718215942383 -2.143301486968994
28.650115966796875 -24.795804977416992 -1.92156982421875
28.650121688842773 -20.99966049194336 -1.8014745712280273
11.90825366973877 -30.518774032592773 -2.4020156860351562
5.68969202041626 -12.318359375 -0.9949653148651123
14.92815113067627 -29.160797119140625 -2.4020156860351562
16.6688175201416 -28.20198631286621 -2.4020156860351562
18.8931884765625 -26.762828826904297 -2.4020156860351562
19.959917068481445 -25.97698402404785 -2.4020156860351562
20.993993759155273 -25.148630142211914 -2.4020156860351562
21.498281478881836 -24.718942642211914 -2.4020156860351562
21.993751525878906 -24.27913475036621 -2.4020156860351562
22.480224609375 -23.829418182373047 -2.4020156860351562
22.95749855041504 -23.36995506286621 -2.4020156860351562
23.4254150390625 -22.900915145874023 -2.4020156860351562
23.88371467590332 -22.42253875732422 -2.4020156860351562
24.661334991455078 -21.343631744384766 -2.391395092010498
24.65743637084961 -20.48295783996582 -2.3503618240356445
24.649513244628906 -18.845264434814453 -2.2750473022460938
7.634269714355469 -22.17401885986328 -2.2514543533325195
6.344012260437012 -17.28278350830078 -1.767486810684204
8.51812744140625 -21.830469131469727 -2.2497289180755615
9.564199447631836 -23.119491577148438 -2.4020156860351562
5.441688060760498 -12.436060905456543 -1.3032222986221313
5.689687252044678 -12.318354606628418 -1.3026800155639648
10.948430061340332 -22.4970703125 -2.4020156860351562
11.401115417480469 -22.271039962768555 -2.4020156860351562
12.292353630065918 -21.791805267333984 -2.4020156860351562
12.730525016784668 -21.538774490356445 -2.4020156860351562
13.16347599029541 -21.27692985534668 -2.4020156860351562
14.01305103302002 -20.727237701416016 -2.4020156860351562
14.429340362548828 -20.43963623046875 -2.4020156860351562
15.642111778259277 -19.527132034301758 -2.4020156860351562
16.797344207763672 -18.542715072631836 -2.4020156860351562
17.16887855529785 -18.199296951293945 -2.4020156860351562
17.890745162963867 -17.49016571044922 -2.4020156860351562
18.240787506103516 -17.124826431274414 -2.4020156860351562
18.583337783813477 -16.75244140625 -2.4020156860351562
19.24554443359375 -15.987293243408203 -2.4020156860351562
19.564908981323242 -15.594836235046387 -2.4020156860351562
19.87626838684082 -15.196003913879395 -2.4020156860351562
6.344012260437012 -17.282785415649414 -2.1868910789489746
6.890953063964844 -17.660310745239258 -2.2518367767333984
7.245025634765625 -17.513357162475586 -2.251323938369751
5.689694881439209 -12.318361282348633 -1.6117925643920898
9.576711654663086 -17.809856414794922 -2.4020156860351562
9.93490982055664 -17.6125545501709 -2.4020156860351562
10.638967514038086 -17.19641876220703 -2.4020156860351562
10.984548568725586 -16.977754592895508 -2.4020156860351562
11.32562255859375 -16.752155303955078 -2.4020156860351562
11.662067413330078 -16.519702911376953 -2.4020156860351562
11.993741989135742 -16.280494689941406 -2.4020156860351562
12.642251014709473 -15.782205581665039 -2.4020156860351562
12.958820343017578 -15.523321151733398 -2.4020156860351562
13.270090103149414 -15.258084297180176 -2.4020156860351562
13.575934410095215 -14.986611366271973 -2.4020156860351562
14.170815467834473 -14.425411224365234 -2.4020156860351562
14.459640502929688 -14.135884284973145 -2.4020156860351562
14.742536544799805 -13.840596199035645 -2.4020156860351562
15.019293785095215 -13.539642333984375 -2.4020156860351562
15.290104866027832 -13.233146667480469 -2.4020156860351562
16.309467315673828 -11.95434284210205 -2.402017593383789
5.779637336730957 -14.812195777893066 -2.252840280532837
5.410323143005371 -12.36439323425293 -1.9122685194015503
5.689691066741943 -12.318357467651367 -1.9225660562515259
6.952137470245361 -14.285407066345215 -2.2510557174682617
7.234964370727539 -14.132854461669922 -2.2496156692504883
7.519257545471191 -13.98365592956543 -2.2496156692504883
7.800522327423096 -13.828737258911133 -2.2496156692504883
8.078566551208496 -13.668169021606445 -2.2496156692504883
9.208864212036133 -14.233376502990723 -2.4020156860351562
9.777077674865723 -13.849373817443848 -2.4020156860351562
10.055011749267578 -13.64882755279541 -2.4020156860351562
10.329001426696777 -13.442706108093262 -2.4020156860351562
11.38143539428711 -12.564099311828613 -2.4020164012908936
11.633069038391113 -12.331374168395996 -2.4020168781280518
11.880172729492188 -12.09361743927002 -2.402017593383789
12.122331619262695 -11.850895881652832 -2.4020183086395264
12.591520309448242 -11.351041793823242 -2.4020206928253174
13.256706237792969 -10.56668472290039 -2.4020214080810547
13.673139572143555 -10.021991729736328 -2.4020211696624756
4.455039978027344 -12.939824104309082 -2.254499673843384
4.714854717254639 -12.844527244567871 -2.254049301147461
4.972654819488525 -12.74404239654541 -2.253605842590332
5.226237773895264 -12.633358001708984 -2.252265214920044
5.410323143005371 -12.364388465881348 -2.2233331203460693
5.689694881439209 -12.318361282348633 -2.235327959060669
5.97561502456665 -12.278834342956543 -2.249626874923706
6.467232704162598 -12.027156829833984 -2.2496259212493896
6.948300838470459 -11.755781173706055 -2.2496249675750732
7.184587478637695 -11.612884521484375 -2.249624490737915
8.4089937210083 -11.911617279052734 -2.4020187854766846
8.64815616607666 -11.739137649536133 -2.4020190238952637
8.88370132446289 -11.561856269836426 -2.402020215988159
9.115918159484863 -11.37985610961914 -2.4020214080810547
9.344128608703613 -11.19318675994873 -2.40202260017395
9.5684814453125 -11.001937866210938 -2.4020228385925293
9.789011001586914 -10.80618953704834 -2.4020228385925293
10.005532264709473 -10.60602855682373 -2.40202260017395
10.217951774597168 -10.401532173156738 -2.40202260017395
10.426213264465332 -10.192768096923828 -2.40202260017395
10.630197525024414 -9.979848861694336 -2.40202260017395
10.829833984375 -9.762845039367676 -2.402022361755371
11.583319664001465 -8.855791091918945 -2.402022123336792
11.760031700134277 -8.619744300842285 -2.402022123336792
4.575204849243164 -11.059622764587402 -2.249630928039551
5.237369060516357 -10.76186466217041 -2.249630928039551
6.089866638183594 -10.303454399108887 -2.249630928039551
7.786247253417969 -10.133478164672852 -2.4020254611968994
8.189638137817383 -9.810330390930176 -2.402024984359741
8.386354446411133 -9.642715454101562 -2.402024984359741
8.769404411315918 -9.295710563659668 -2.402024745941162
9.138114929199219 -8.933505058288574 -2.402024745941162
9.491872787475586 -8.556696891784668 -2.402024507522583
9.830109596252441 -8.165878295898438 -2.402024269104004
9.993231773376465 -7.965422630310059 -2.402024269104004
10.307143211364746 -7.554820537567139 -2.402024030685425
3.6677281856536865 -9.991875648498535 -2.2498791217803955
4.06831169128418 -9.834310531616211 -2.249630928039551
4.492146968841553 -9.725637435913086 -2.2645034790039062
4.744049072265625 -9.748185157775879 -2.291626453399658
5.010799407958984 -9.78814697265625 -2.324370861053467
5.58300256729126 -9.897517204284668 -2.4020309448242188
6.172852516174316 -9.540788650512695 -2.4020309448242188
6.364526271820068 -9.414009094238281 -2.4020309448242188
6.553593635559082 -9.283380508422852 -2.4020309448242188
7.104407787322998 -8.86893081665039 -2.402029275894165
7.457223892211914 -8.574393272399902 -2.4020276069641113
7.963386058807373 -8.106456756591797 -2.4020252227783203
8.12569808959961 -7.943754196166992 -2.402024984359741
8.28466796875 -7.7778167724609375 -2.402024984359741
8.741020202636719 -7.261174201965332 -2.402024745941162
8.886069297790527 -7.082926273345947 -2.402024745941162
9.027484893798828 -6.901777744293213 -2.402024745941162
9.165205001831055 -6.71781587600708 -2.402024745941162
3.5218420028686523 -9.594446182250977 -2.4020309448242188
3.7151427268981934 -9.52126407623291 -2.4020309448242188
3.906923770904541 -9.444189071655273 -2.4020309448242188
4.097105503082275 -9.363250732421875 -2.4020309448242188
5.20034646987915 -8.798473358154297 -2.4020309448242188
5.377208232879639 -8.691514015197754 -2.4020309448242188
5.551869869232178 -8.580994606018066 -2.4020309448242188
5.724261283874512 -8.467010498046875 -2.4020309448242188
6.227105617523193 -8.104302406311035 -2.4020309448242188
6.549721717834473 -7.845894813537598 -2.4020307064056396
6.707042217254639 -7.711827278137207 -2.4020304679870605
7.013389587402344 -7.434311389923096 -2.4020297527313232
7.308265209197998 -7.144631385803223 -2.4020285606384277
7.451243877410889 -6.995422840118408 -2.4020276069641113
7.591176509857178 -6.843203067779541 -2.402026653289795
7.728007793426514 -6.688356876373291 -2.4020254611968994
7.861684322357178 -6.530709266662598 -2.4020252227783203
8.24319839477539 -6.042010307312012 -2.402024984359741
3.3722827434539795 -8.64257526397705 -2.4020309448242188
3.5463647842407227 -8.572611808776855 -2.4020309448242188
3.7189929485321045 -8.499139785766602 -2.4020309448242188
3.890103578567505 -8.422196388244629 -2.4020309448242188
4.880960464477539 -7.889394283294678 -2.4020309448242188
5.03950309753418 -7.7890777587890625 -2.4020309448242188
5.502505779266357 -7.469228744506836 -2.4020309448242188
5.94526481628418 -7.12178897857666 -2.4020309448242188
6.088072299957275 -7.000126838684082 -2.4020309448242188
6.228381156921387 -6.875582695007324 -2.4020309448242188
6.36614465713501 -6.748219966888428 -2.4020309448242188
6.501307010650635 -6.6180853843688965 -2.4020309448242188
6.89061975479126 -6.211759090423584 -2.4020302295684814
7.482458114624023 -5.4844489097595215 -2.4020273685455322
2.923828125 -7.965285301208496 -2.4020309448242188
3.243520498275757 -7.840543270111084 -2.4020309448242188
3.55790638923645 -7.702977657318115 -2.4020309448242188
3.7129478454589844 -7.629451274871826 -2.4020309448242188
3.8664708137512207 -7.552802562713623 -2.4020309448242188
4.018415451049805 -7.473068714141846 -2.4020309448242188
4.168720722198486 -7.390285015106201 -2.4020309448242188
4.609148025512695 -7.1239166259765625 -2.4020309448242188
5.032609939575195 -6.831343173980713 -2.4020309448242188
5.16972541809082 -6.728128910064697 -2.4020309448242188
5.304725170135498 -6.62225866317749 -2.4020309448242188
5.437559604644775 -6.51362943649292 -2.4020309448242188
5.568173885345459 -6.402342319488525 -2.4020309448242188
5.6965012550354 -6.288464069366455 -2.4020309448242188
5.82250452041626 -6.171952247619629 -2.4020309448242188
6.06730842590332 -5.931458473205566 -2.4020309448242188
6.415791034698486 -5.552671909332275 -2.4020309448242188
6.635071754455566 -5.288729190826416 -2.4020307064056396
6.740666389465332 -5.153438568115234 -2.4020304679870605
2.691065549850464 -7.331185340881348 -2.4020309448242188
3.1306285858154297 -7.154529094696045 -2.4020309448242188
3.2746667861938477 -7.089757919311523 -2.4020309448242188
3.5586729049682617 -6.95154333114624 -2.4020309448242188
3.698521614074707 -6.878157615661621 -2.4020309448242188
4.108763217926025 -6.641246318817139 -2.4020309448242188
4.242225170135498 -6.556801795959473 -2.4020309448242188
4.373951435089111 -6.469673156738281 -2.4020309448242188
4.631978511810303 -6.287529945373535 -2.4020309448242188
4.758176326751709 -6.19257116317749 -2.4020309448242188
4.882431507110596 -6.0950798988342285 -2.4020309448242188
5.124902248382568 -5.892640113830566 -2.4020309448242188
5.693560600280762 -5.345261573791504 -2.4020309448242188
5.90504264831543 -5.110626220703125 -2.4020309448242188
6.106868743896484 -4.867674827575684 -2.4020309448242188
6.204054832458496 -4.7432098388671875 -2.4020309448242188
6.29870080947876 -4.616690635681152 -2.4020309448242188
2.352386474609375 -6.832592487335205 -2.4020309448242188
3.0300865173339844 -6.560229778289795 -2.4020309448242188
3.422281503677368 -6.364434719085693 -2.4020309448242188
3.5502843856811523 -6.29392671585083 -2.4020309448242188
3.8018834590911865 -6.145220756530762 -2.4020309448242188
4.047264099121094 -5.986459255218506 -2.4020309448242188
4.16749382019043 -5.903390407562256 -2.4020309448242188
4.286019325256348 -5.81790828704834 -2.4020309448242188
4.402793884277344 -5.730047702789307 -2.4020309448242188
4.742127418518066 -5.452548027038574 -2.4020309448242188
4.958729267120361 -5.256330490112305 -2.4020309448242188
5.167219161987305 -5.051496982574463 -2.4020309448242188
5.367253303527832 -4.83845329284668 -2.4020309448242188
5.464000225067139 -4.728941440582275 -2.4020309448242188
5.558513164520264 -4.6174635887146 -2.4020309448242188
5.740681171417236 -4.388942241668701 -2.4020309448242188
2.314589738845825 -6.305562496185303 -2.4020309448242188
2.4416284561157227 -6.257466793060303 -2.4020309448242188
2.5676684379577637 -6.206812381744385 -2.4020309448242188
2.816546678543091 -6.097909927368164 -2.4020309448242188
2.939282178878784 -6.039706707000732 -2.4020309448242188
3.060818910598755 -5.979033470153809 -2.4020309448242188
3.3000853061676025 -5.850374221801758 -2.4020309448242188
3.417719602584839 -5.782442569732666 -2.4020309448242188
3.5339536666870117 -5.712145805358887 -2.4020309448242188
3.8737974166870117 -5.487360954284668 -2.4020309448242188
3.983970880508423 -5.407902240753174 -2.4020309448242188
4.092514514923096 -5.32623291015625 -2.4020309448242188
4.199384689331055 -5.2423858642578125 -2.4020309448242188
4.407935619354248 -5.068289279937744 -2.4020309448242188
4.707129001617432 -4.791715145111084 -2.4020309448242188
4.803067684173584 -4.695527076721191 -2.4020309448242188
4.897037029266357 -4.597491264343262 -2.4020309448242188
4.989006042480469 -4.497478008270264 -2.4020309448242188
5.078932762145996 -4.395604610443115 -2.4020309448242188
5.252526760101318 -4.186655044555664 -2.4020309448242188
5.336118221282959 -4.079620361328125 -2.4020309448242188
5.417521953582764 -3.97086238861084 -2.4020309448242188
2.3960704803466797 -5.79200553894043 -2.4020309448242188
2.742849111557007 -5.636069297790527 -2.4020309448242188
2.968508243560791 -5.520547866821289 -2.4020309448242188
3.189310312271118 -5.395996570587158 -2.4020309448242188
3.4048962593078613 -5.262619972229004 -2.4020309448242188
3.5106201171875 -5.192689895629883 -2.4020309448242188
3.614908456802368 -5.120636940002441 -2.4020309448242188
3.8190085887908936 -4.970278739929199 -2.4020309448242188
4.113347053527832 -4.729571342468262 -2.4020309448242188
4.208151817321777 -4.645422458648682 -2.4020309448242188
4.301228046417236 -4.559361934661865 -2.4020309448242188
4.655583381652832 -4.196902751922607 -2.4020309448242188
4.739506721496582 -4.1018967628479 -2.4020309448242188
4.901496410369873 -3.907094717025757 -2.4020309448242188
4.979500770568848 -3.80694842338562 -2.4020309448242188
2.022394895553589 -5.509535789489746 -2.4020309448242188
2.133389949798584 -5.467512607574463 -2.4020309448242188
2.4609789848327637 -5.328100681304932 -2.4020309448242188
2.5682213306427 -5.277243614196777 -2.4020309448242188
2.779515266418457 -5.169076919555664 -2.4020309448242188
2.883478879928589 -5.111811637878418 -2.4020309448242188
3.384760618209839 -4.794626235961914 -2.4020309448242188
3.481025218963623 -4.725200176239014 -2.4020309448242188
3.57586669921875 -4.653839588165283 -2.4020309448242188
3.8514697551727295 -4.4284586906433105 -2.4020309448242188
3.9402356147766113 -4.349667072296143 -2.4020309448242188
4.278825759887695 -4.017059326171875 -2.4020309448242188
4.437761306762695 -3.840745210647583 -2.4020309448242188
4.514522552490234 -3.7502200603485107 -2.4020309448242188
4.589436054229736 -3.6581521034240723 -2.4020309448242188
4.662474155426025 -3.564600706100464 -2.4020309448242188
4.733604431152344 -3.4695873260498047 -2.4020309448242188
1.8992260694503784 -5.17399787902832 -2.4020309448242188
2.003465414047241 -5.134533405303955 -2.4020309448242188
2.106887102127075 -5.092968463897705 -2.4020309448242188
2.311100959777832 -5.003610610961914 -2.4020309448242188
2.4118127822875977 -4.955850601196289 -2.4020309448242188
2.5115392208099365 -4.906065464019775 -2.4020309448242188
2.610236644744873 -4.854272842407227 -2.4020309448242188
2.7078685760498047 -4.80049467086792 -2.4020309448242188
2.9939587116241455 -4.627473831176758 -2.4020309448242188
3.086923837661743 -4.56598424911499 -2.4020309448242188
3.1786253452301025 -4.502626419067383 -2.4020309448242188
3.35809063911438 -4.370414733886719 -2.4020309448242188
3.4457836151123047 -4.301612854003906 -2.4020309448242188
3.5320677757263184 -4.231046676635742 -2.4020309448242188
3.700268507003784 -4.084765911102295 -2.4020309448242188
3.8624107837677 -3.9318041801452637 -2.4020309448242188
4.018239498138428 -3.772407054901123 -2.4020309448242188
4.093703746795654 -3.6903791427612305 -2.4020309448242188
4.239581108093262 -3.521824359893799 -2.4020309448242188
1.6892858743667603 -4.906601905822754 -2.4020309448242188
2.0802440643310547 -4.75405216217041 -2.4020309448242188
2.175954580307007 -4.711015701293945 -2.4020309448242188
2.3646702766418457 -4.619174003601074 -2.4020309448242188
2.549520254135132 -4.519776821136475 -2.4020309448242188
2.7301976680755615 -4.41298770904541 -2.4020309448242188
2.8188793659210205 -4.356874465942383 -2.4020309448242188
2.9064085483551025 -4.298979759216309 -2.4020309448242188
3.0778636932373047 -4.177940368652344 -2.4020309448242188
3.161722421646118 -4.1148481369018555 -2.4020309448242188
3.3255248069763184 -3.9836320877075195 -2.4020309448242188
3.4054014682769775 -3.915567636489868 -2.4020309448242188
3.4838902950286865 -3.8459010124206543 -2.4020309448242188
3.6365489959716797 -3.7018821239471436 -2.4020309448242188
3.78326416015625 -3.5518081188201904 -2.4020309448242188
3.854316234588623 -3.474576234817505 -2.4020309448242188
3.9237914085388184 -3.3959224224090576 -2.4020309448242188
4.057901382446289 -3.2344813346862793 -2.4020309448242188
4.122481822967529 -3.15175461769104 -2.4020309448242188
4.185370922088623 -3.0677504539489746 -2.4020309448242188
1.5941064357757568 -4.630140781402588 -2.4020309448242188
1.7800244092941284 -4.56189489364624 -2.4020309448242188
1.8719115257263184 -4.524965286254883 -2.4020309448242188
2.0533506870269775 -4.445573806762695 -2.4020309448242188
2.1428308486938477 -4.403140068054199 -2.4020309448242188
2.319124698638916 -4.312891960144043 -2.4020309448242188
2.405865430831909 -4.265110969543457 -2.4020309448242188
2.491624593734741 -4.21558952331543 -2.4020309448242188
2.576359748840332 -4.164343357086182 -2.4020309448242188
2.660051107406616 -4.111386775970459 -2.4020309448242188
2.8241209983825684 -4.000462532043457 -2.4020309448242188
2.9044408798217773 -3.942535400390625 -2.4020309448242188
2.983574151992798 -3.88299560546875 -2.4020309448242188
3.061485528945923 -3.8218677043914795 -2.4020309448242188
3.2135252952575684 -3.6949450969696045 -2.4020309448242188
3.2875890731811523 -3.629204034805298 -2.4020309448242188
3.3603062629699707 -3.561980724334717 -2.4020309448242188
3.7027060985565186 -3.204580307006836 -2.4020309448242188
3.949547052383423 -2.8948984146118164 -2.4020309448242188
1.5072814226150513 -4.377954006195068 -2.4020309448242188
1.5955028533935547 -4.346577167510986 -2.4020309448242188
1.68307363986969 -4.313425064086914 -2.4020309448242188
1.7699559926986694 -4.278507709503174 -2.4020309448242188
1.9415148496627808 -4.203439235687256 -2.4020309448242188
2.0261192321777344 -4.163318157196045 -2.4020309448242188
2.1098973751068115 -4.121493816375732 -2.4020309448242188
2.192812442779541 -4.077983856201172 -2.4020309448242188
2.274829149246216 -4.032806396484375 -2.4020309448242188
2.355916738510132 -3.9859795570373535 -2.4020309448242188
2.8210692405700684 -3.6715049743652344 -2.4020309448242188
2.8947362899780273 -3.613708972930908 -2.4020309448242188
2.96722149848938 -3.554431676864624 -2.4020309448242188
3.0384960174560547 -3.4936981201171875 -2.4020309448242188
3.177283763885498 -3.3679733276367188 -2.4020309448242188
3.2447385787963867 -3.3030343055725098 -2.4020309448242188
3.3756494522094727 -3.169128894805908 -2.4020309448242188
3.439042806625366 -3.1002185344696045 -2.4020309448242188
3.50103497505188 -3.030038356781006 -2.4020309448242188
1.5112438201904297 -4.117035865783691 -2.4020309448242188
1.594183325767517 -4.085638999938965 -2.4020309448242188
1.7580907344818115 -4.017829895019531 -2.4020309448242188
1.9191186428070068 -3.943453788757324 -2.4020309448242188
1.998472809791565 -3.903838634490967 -2.4020309448242188
2.0770092010498047 -3.86262583732605 -2.4020309448242188
2.1546947956085205 -3.819833993911743 -2.4020309448242188
2.2315001487731934 -3.775480031967163 -2.4020309448242188
2.382341146469116 -3.682158946990967 -2.4020309448242188
2.529283285140991 -3.5828158855438232 -2.4020309448242188
2.672088623046875 -3.477612257003784 -2.4020309448242188
2.8105249404907227 -3.3667173385620117 -2.4020309448242188
2.878033399581909 -3.3091936111450195 -2.4020309448242188
2.944366455078125 -3.2503161430358887 -2.4020309448242188
3.0094897747039795 -3.190110921859741 -2.4020309448242188
3.257422924041748 -2.9365031719207764 -2.4020309448242188
3.316136360168457 -2.8700358867645264 -2.4020309448242188
3.3735034465789795 -2.802377939224243 -2.4020309448242188
3.4294824600219727 -2.7335875034332275 -2.4020309448242188
3.484062433242798 -2.6636738777160645 -2.4020309448242188
3.5372166633605957 -2.5926711559295654 -2.4020309448242188
1.3543713092803955 -3.933821678161621 -2.4020309448242188
1.4336425065994263 -3.9056270122528076 -2.4020309448242188
1.8205736875534058 -3.740959405899048 -2.4020309448242188
1.9703551530838013 -3.664281129837036 -2.4020309448242188
2.1169116497039795 -3.5816125869750977 -2.4020309448242188
2.18890380859375 -3.5380730628967285 -2.4020309448242188
2.399395704269409 -3.398847818374634 -2.4020309448242188
2.5348851680755615 -3.2990331649780273 -2.4020309448242188
2.601076602935791 -3.2470996379852295 -2.4020309448242188
2.666205883026123 -3.193838357925415 -2.4020309448242188
2.730236768722534 -3.139280080795288 -2.4020309448242188
2.793182373046875 -3.0834057331085205 -2.4020309448242188
2.8549559116363525 -3.026298999786377 -2.4020309448242188
2.915562629699707 -2.9679534435272217 -2.4020309448242188
2.974985361099243 -2.908386468887329 -2.4020309448242188
3.033190965652466 -2.8476343154907227 -2.4020309448242188
3.0901598930358887 -2.785707712173462 -2.4020309448242188
3.145853281021118 -2.7226545810699463 -2.4020309448242188
3.3051562309265137 -2.526895046234131 -2.4020309448242188
3.355581045150757 -2.4595389366149902 -2.4020309448242188
