ply
format ascii 1.0
element vertex 233
property float x
property float y
property float z
end_header
-40.76787567138672 -20.41704750061035 -0.2567076086997986
-39.89769744873047 -21.006023406982422 -0.253863662481308
-42.41748046875 -20.175676345825195 -1.3226056098937988
-40.28073501586914 -20.173080444335938 -1.2685033082962036
-39.592376708984375 -20.845272064208984 -1.2599059343338013
-46.60059356689453 -8.469514846801758 -2.4020309448242188
-43.08256912231445 -10.577363967895508 -2.249786853790283
-41.302616119384766 -13.780868530273438 -2.2081496715545654
-40.71183395385742 -15.449016571044922 -2.20832896232605
-29.215999603271484 -12.467171669006348 -1.6109308004379272
-39.702003479003906 -17.904033660888672 -2.208723783493042
-38.13054656982422 -21.076168060302734 -2.209503650665283
-32.34434127807617 -5.201872825622559 -2.4020309448242188
-32.23191452026367 -5.858059406280518 -2.4020309448242188
-32.10626983642578 -6.511841297149658 -2.4020309448242188
-31.967296600341797 -7.162930965423584 -2.4020309448242188
-31.649843215942383 -8.455947875976562 -2.4020309448242188
-28.475900650024414 -11.473076820373535 -2.251011610031128
-27.648500442504883 -12.468470573425293 -2.2238693237304688
-26.18758201599121 -12.456002235412598 -2.1262688636779785
-24.863351821899414 -12.45186996459961 -2.038877248764038
-26.53310203552246 -14.665824890136719 -2.2228729724884033
-24.7780704498291 -3.4700403213500977 -2.4020309448242188
-24.616607666015625 -4.473992824554443 -2.4020309448242188
-24.298133850097656 -5.9655442237854 -2.4020309448242188
-23.39225959777832 -8.876718521118164 -2.4020309448242188
-23.207042694091797 -9.35022258758545 -2.4020309448242188
-22.562747955322266 -9.628077507019043 -2.355113983154297
-21.16116714477539 -10.065206527709961 -2.24967885017395
-20.9530029296875 -10.49351692199707 -2.249760627746582
-20.52359390258789 -11.344148635864258 -2.251328468322754
-20.02608871459961 -2.8045496940612793 -2.4020309448242188
-19.9649600982666 -3.2109243869781494 -2.4020309448242188
-19.89562225341797 -3.615955114364624 -2.4020309448242188
-19.426027297973633 -5.615452766418457 -2.4020309448242188
-19.047935485839844 -6.788654804229736 -2.4020309448242188
-18.906051635742188 -7.174321174621582 -2.4020309448242188
-18.75636100769043 -7.5570220947265625 -2.4020309448242188
-18.260112762451172 -8.685794830322266 -2.4020309448242188
-17.893051147460938 -9.420639038085938 -2.4020309448242188
-17.43759536743164 -9.638404846191406 -2.3666985034942627
-16.788969039916992 -2.3512070178985596 -2.4020309448242188
-16.737714767456055 -2.691892385482788 -2.4020309448242188
-16.6795597076416 -3.031458616256714 -2.4020309448242188
-16.614511489868164 -3.369776487350464 -2.4020309448242188
-16.5426025390625 -3.7067112922668457 -2.4020309448242188
-16.286022186279297 -4.707752704620361 -2.4020309448242188
-15.84997272491455 -6.014627933502197 -2.4020309448242188
-15.724479675292969 -6.335468769073486 -2.4020309448242188
-15.59249210357666 -6.653691291809082 -2.4020309448242188
-15.454063415527344 -6.96917200088501 -2.4020309448242188
-15.15811824798584 -7.591368198394775 -2.4020309448242188
-15.00072193145752 -7.897834777832031 -2.4020309448242188
-14.837132453918457 -8.201032638549805 -2.4020309448242188
-14.439897537231445 -2.0222320556640625 -2.4020309448242188
-14.228006362915039 -3.188077926635742 -2.4020309448242188
-14.160286903381348 -3.476546287536621 -2.4020309448242188
-13.831230163574219 -4.614875316619873 -2.4020309448242188
-13.632286071777344 -5.17307710647583 -2.4020309448242188
-13.524353981018066 -5.4490275382995605 -2.4020309448242188
-13.410831451416016 -5.722727298736572 -2.4020309448242188
-13.167223930358887 -6.262927532196045 -2.4020309448242188
-13.037233352661133 -6.52920389175415 -2.4020309448242188
-12.901865005493164 -6.792792320251465 -2.4020309448242188
-12.65587043762207 -1.7723958492279053 -2.4020309448242188
-12.617288589477539 -2.029212236404419 -2.4020309448242188
-12.573451042175293 -2.285189390182495 -2.4020309448242188
-12.524417877197266 -2.540221691131592 -2.4020309448242188
-12.470202445983887 -2.794206142425537 -2.4020309448242188
-12.410856246948242 -3.0470399856567383 -2.4020309448242188
-12.202136993408203 -3.7975544929504395 -2.4020309448242188
-12.03775691986084 -4.290238380432129 -2.4020309448242188
-11.948090553283691 -4.533970832824707 -2.4020309448242188
-11.753994941711426 -5.015712261199951 -2.4020309448242188
-11.54047679901123 -5.489175319671631 -2.4020309448242188
-11.184636116027832 -6.182138919830322 -2.4020309448242188
-11.253751754760742 -1.576032042503357 -2.4020309448242188
-11.219327926635742 -1.8043932914733887 -2.4020309448242188
-11.136820793151855 -2.258786201477051 -2.4020309448242188
-11.035840034484863 -2.709453582763672 -2.4020309448242188
-10.97850227355957 -2.933149576187134 -2.4020309448242188
-10.916630744934082 -3.15563702583313 -2.4020309448242188
-10.850251197814941 -3.376819372177124 -2.4020309448242188
-10.624342918395996 -4.031644821166992 -2.4020309448242188
-10.540227890014648 -4.246706962585449 -2.4020309448242188
-10.35895824432373 -4.671481609344482 -2.4020309448242188
-10.160587310791016 -5.088544845581055 -2.4020309448242188
-10.055082321166992 -5.293971538543701 -2.4020309448242188
-9.973124504089355 -2.2346811294555664 -2.4020309448242188
-9.925646781921387 -2.436882734298706 -2.4020309448242188
-9.874076843261719 -2.638075113296509 -2.4020309448242188
-9.818427085876465 -2.838183879852295 -2.4020309448242188
-9.758726119995117 -3.037114381790161 -2.4020309448242188
-9.69499397277832 -3.2347941398620605 -2.4020309448242188
-9.627256393432617 -3.4311394691467285 -2.4020309448242188
-9.555543899536133 -3.626065492630005 -2.4020309448242188
-9.479888916015625 -3.8194892406463623 -2.4020309448242188
-9.400318145751953 -4.011341571807861 -2.4020309448242188
-9.229558944702148 -4.389995574951172 -2.4020309448242188
-9.138444900512695 -4.5766425132751465 -2.4020309448242188
-9.043557167053223 -4.761403560638428 -2.4020309448242188
-8.944926261901855 -4.944192409515381 -2.4020309448242188
-9.187542915344238 -1.2866698503494263 -2.4020309448242188
-9.127612113952637 -1.658926010131836 -2.4020309448242188
-9.009634017944336 -2.2119901180267334 -2.4020309448242188
-8.962821960449219 -2.39461612701416 -2.4020309448242188
-8.912309646606445 -2.5762548446655273 -2.4020309448242188
-8.80026626586914 -2.936262369155884 -2.4020309448242188
-8.673693656921387 -3.291426658630371 -2.4020309448242188
-8.605013847351074 -3.4669978618621826 -2.4020309448242188
-8.457030296325684 -3.813786506652832 -2.4020309448242188
-8.377787590026855 -3.984855890274048 -2.4020309448242188
-8.29507827758789 -4.154274940490723 -2.4020309448242188
-8.119423866271973 -4.487905502319336 -2.4020309448242188
-8.377302169799805 -1.347304344177246 -2.4020309448242188
-8.3482027053833 -1.5172622203826904 -2.4020309448242188
-8.27963638305664 -1.8552253246307373 -2.4020309448242188
-8.19742488861084 -2.1901237964630127 -2.4020309448242188
-8.151229858398438 -2.3562512397766113 -2.4020309448242188
-8.101664543151855 -2.5214035511016846 -2.4020309448242188
-7.87017297744751 -3.1709303855895996 -2.4020309448242188
-7.586702823638916 -3.799513578414917 -2.4020309448242188
-7.620527267456055 -1.707536220550537 -2.4020309448242188
-7.584275722503662 -1.8620400428771973 -2.4020309448242188
-7.456723690032959 -2.320680856704712 -2.4020309448242188
-7.4080119132995605 -2.471729278564453 -2.4020309448242188
-7.356257915496826 -2.6217589378356934 -2.4020309448242188
-7.243654727935791 -2.918501615524292 -2.4020309448242188
-6.982751846313477 -3.4970457553863525 -2.4020309448242188
-6.83488655090332 -3.777893543243408 -2.4020309448242188
-7.134526252746582 -1.1474310159683228 -2.4020309448242188
-7.109734535217285 -1.2921725511550903 -2.4020309448242188
-7.051358699798584 -1.5800014734268188 -2.4020309448242188
-6.981410503387451 -1.8652175664901733 -2.4020309448242188
-6.899777889251709 -2.1473517417907715 -2.4020309448242188
-6.756121635437012 -2.5637614727020264 -2.4020309448242188
-6.64636754989624 -2.8361656665802 -2.4020309448242188
-6.461214542388916 -3.235854387283325 -2.4020309448242188
-6.394123554229736 -3.3664867877960205 -2.4020309448242188
-6.324393272399902 -3.4957275390625 -2.4020309448242188
-6.6086955070495605 -1.2011098861694336 -2.4020309448242188
-6.582921981811523 -1.335158348083496 -2.4020309448242188
-6.489356994628906 -1.7337708473205566 -2.4020309448242188
-6.452772617340088 -1.865281581878662 -2.4020309448242188
-6.371644020080566 -2.1259381771087646 -2.4020309448242188
-6.280003070831299 -2.383084774017334 -2.4020309448242188
-6.177980422973633 -2.636293649673462 -2.4020309448242188
-6.06575870513916 -2.8851473331451416 -2.4020309448242188
-6.005873203277588 -3.0078134536743164 -2.4020309448242188
-5.878697872161865 -3.2493717670440674 -2.4020309448242188
-6.20747709274292 -0.8693246245384216 -2.4020309448242188
-6.1885294914245605 -0.9952883720397949 -2.4020309448242188
-6.167028903961182 -1.1208384037017822 -2.4020309448242188
-6.142978191375732 -1.2459280490875244 -2.4020309448242188
-6.116389751434326 -1.3705025911331177 -2.4020309448242188
-6.055630207061768 -1.6179015636444092 -2.4020309448242188
-6.021511554718018 -1.7406234741210938 -2.4020309448242188
-5.945833683013916 -1.983859658241272 -2.4020309448242188
-5.7650980949401855 -2.460106611251831 -2.4020309448242188
-5.713917255401611 -2.5767505168914795 -2.4020309448242188
-5.774397373199463 -1.0494787693023682 -2.4020309448242188
-5.699724197387695 -1.399361252784729 -2.4020309448242188
-5.603831768035889 -1.7440398931503296 -2.4020309448242188
-5.5672760009765625 -1.8575553894042969 -2.4020309448242188
-5.528395175933838 -1.9703054428100586 -2.4020309448242188
-5.487196445465088 -2.082240104675293 -2.4020309448242188
-5.398060321807861 -2.303481340408325 -2.4020309448242188
-5.3501458168029785 -2.4126968383789062 -2.4020309448242188
-5.247677326202393 -2.6281027793884277 -2.4020309448242188
-5.1931891441345215 -2.734199047088623 -2.4020309448242188
-5.1365556716918945 -2.839164972305298 -2.4020309448242188
-5.441635608673096 -0.8751667737960815 -2.4020309448242188
-5.422728538513184 -0.9855642318725586 -2.4020309448242188
-5.401579856872559 -1.0955567359924316 -2.4020309448242188
-5.378202438354492 -1.20509672164917 -2.4020309448242188
-5.2947845458984375 -1.5305474996566772 -2.4020309448242188
-5.262603759765625 -1.6378250122070312 -2.4020309448242188
-5.228224754333496 -1.7444286346435547 -2.4020309448242188
-5.153050899505615 -1.9554287195205688 -2.4020309448242188
-5.11221981048584 -2.05973744392395 -2.4020309448242188
-5.024303913116455 -2.2657623291015625 -2.4020309448242188
-4.9772210121154785 -2.3673930168151855 -2.4020309448242188
-4.928086280822754 -2.4680464267730713 -2.4020309448242188
-4.876916885375977 -2.5676815509796143 -2.4020309448242188
-4.823731422424316 -2.666256904602051 -2.4020309448242188
-5.06370210647583 -1.1346266269683838 -2.4020309448242188
-4.9851603507995605 -1.4410455226898193 -2.4020309448242188
-4.92252779006958 -1.6424185037612915 -2.4020309448242188
-4.851689338684082 -1.8410818576812744 -2.4020309448242188
-4.81326150894165 -1.9392907619476318 -2.4020309448242188
-4.730501651763916 -2.133265733718872 -2.4020309448242188
-4.63991117477417 -2.3237228393554688 -2.4020309448242188
-4.541656017303467 -2.510341167449951 -2.4020309448242188
-4.8179473876953125 -0.8756468296051025 -2.4020309448242188
-4.799159049987793 -0.9733724594116211 -2.4020309448242188
-4.778388023376465 -1.0706961154937744 -2.4020309448242188
-4.755643367767334 -1.1675775051116943 -2.4020309448242188
-4.730935096740723 -1.2639729976654053 -2.4020309448242188
-4.675667762756348 -1.4551632404327393 -2.4020309448242188
-4.612680435180664 -1.6439520120620728 -2.4020309448242188
-4.578320026397705 -1.7373461723327637 -2.4020309448242188
-4.503931999206543 -1.9219415187835693 -2.4020309448242188
-4.422128677368164 -2.103365182876587 -2.4020309448242188
-4.378472805023193 -2.1927924156188965 -2.4020309448242188
-4.285757541656494 -2.368896007537842 -2.4020309448242188
-4.571415424346924 -0.7352114915847778 -2.4020309448242188
-4.555532932281494 -0.8279537558555603 -2.4020309448242188
-4.473259925842285 -1.1951302289962769 -2.4020309448242188
-4.392129898071289 -1.4654607772827148 -2.4020309448242188
-4.258632183074951 -1.817260980606079 -2.4020309448242188
-4.220904350280762 -1.903424620628357 -2.4020309448242188
-4.181272506713867 -1.9888032674789429 -2.4020309448242188
-4.13999605178833 -2.073359727859497 -2.4020309448242188
-4.097007751464844 -2.15706205368042 -2.4020309448242188
-4.052327632904053 -2.2398715019226074 -2.4020309448242188
-4.343255996704102 -0.6082502603530884 -2.4020309448242188
-4.3299994468688965 -0.696384847164154 -2.4020309448242188
-4.298128128051758 -0.8717526197433472 -2.4020309448242188
-4.237025737762451 -1.1320152282714844 -2.4020309448242188
-4.213148593902588 -1.2178820371627808 -2.4020309448242188
-4.187530040740967 -1.3032444715499878 -2.4020309448242188
-4.131114959716797 -1.472322940826416 -2.4020309448242188
-4.06787109375 -1.638966679573059 -2.4020309448242188
-3.9605021476745605 -1.8837738037109375 -2.4020309448242188
-2.238354444503784 -0.31346967816352844 -1.3049248456954956
-4.040449619293213 -0.9919862151145935 -2.4020309448242188
-3.996804714202881 -1.1553442478179932 -2.4020309448242188
-3.9465582370758057 -1.316793441772461 -2.4020309448242188
-3.889794111251831 -1.476069450378418 -2.4020309448242188
-3.826582670211792 -1.6329045295715332 -2.4020309448242188
-3.757111072540283 -1.7870434522628784 -2.4020309448242188
-3.7200028896331787 -1.8630214929580688 -2.4020309448242188
-3.6412487030029297 -2.0126419067382812 -2.4020309448242188
