ply
format ascii 1.0
element vertex 235
property float x
property float y
property float z
end_header
33.11475372314453 -35.40616989135742 8.548097610473633
33.11475372314453 -33.99140167236328 8.36764144897461
33.11475372314453 -31.33106803894043 8.038308143615723
33.11476135253906 -28.86831283569336 7.746286392211914
32.90569305419922 -27.5269718170166 7.5646491050720215
28.90357780456543 -22.24272918701172 6.430871963500977
28.743242263793945 -32.01487731933594 6.591146469116211
29.114608764648438 -28.69236183166504 6.262096405029297
29.114614486694336 -27.54639434814453 6.14014196395874
28.93543815612793 -25.22492218017578 5.8806633949279785
29.1146183013916 -22.405136108398438 5.627993583679199
29.1146183013916 -21.475465774536133 5.542285442352295
28.903564453125 -36.44499206542969 6.0572333335876465
29.003108978271484 -35.07877731323242 5.927123069763184
29.06973648071289 -33.73606491088867 5.799099445343018
28.91133689880371 -32.20210647583008 5.6354804039001465
28.903568267822266 -30.903581619262695 5.510122776031494
29.114608764648438 -29.88536262512207 5.433182716369629
29.114608764648438 -27.5463809967041 5.219343185424805
29.114614486694336 -23.364408493041992 4.861191749572754
29.04887580871582 -22.35453987121582 4.773197650909424
28.903564453125 -36.44498062133789 4.994870662689209
29.003114700317383 -35.078773498535156 4.887582302093506
29.08304214477539 -32.39336013793945 4.67468786239624
28.903568267822266 -30.903594970703125 4.543719291687012
28.37777328491211 -21.83809471130371 3.845107316970825
28.32395362854004 -20.892255783081055 3.7793681621551514
28.31863784790039 -35.707435607910156 3.8579442501068115
28.375234603881836 -34.319358825683594 3.769636869430542
28.377758026123047 -31.607791900634766 3.5958495140075684
28.33084487915039 -30.291229248046875 3.5109941959381104
28.29744529724121 -29.04656219482422 3.4328222274780273
28.377763748168945 -27.966205596923828 3.372758626937866
28.29745101928711 -26.773239135742188 3.2977135181427
28.297454833984375 -23.671987533569336 3.123112201690674
28.37777328491211 -22.773090362548828 3.080141544342041
28.37777328491211 -21.83810043334961 3.0312321186065674
28.318632125854492 -35.707435607910156 2.826042413711548
28.37522315979004 -34.319358825683594 2.761354923248291
28.330839157104492 -30.291229248046875 2.571892738342285
28.29745101928711 -27.887052536010742 2.4636390209198
28.297454833984375 -23.671987533569336 2.287759304046631
28.37777328491211 -22.77309226989746 2.2562828063964844
28.323949813842773 -20.892255783081055 2.182492256164551
28.375213623046875 -34.319358825683594 1.7558847665786743
28.29745101928711 -31.51833724975586 1.6701956987380981
28.29745101928711 -24.66875457763672 1.4802619218826294
28.297454833984375 -23.671987533569336 1.4547367095947266
28.297454833984375 -22.70863914489746 1.4306598901748657
28.297454833984375 -21.776290893554688 1.4079416990280151
28.297454833984375 -20.87270736694336 1.3865025043487549
28.297441482543945 -34.22529220581055 0.7501381039619446
28.29744529724121 -32.839805603027344 0.732254147529602
28.29744529724121 -31.518341064453125 0.7154920697212219
28.29744529724121 -30.255529403686523 0.6997645497322083
28.29745101928711 -27.887046813964844 0.6711018085479736
28.297460556030273 -23.671987533569336 0.6231916546821594
28.297460556030273 -22.70863914489746 0.6128776669502258
29.24944305419922 -35.37672424316406 -0.2584397792816162
29.265926361083984 -33.96376419067383 -0.25242018699645996
28.650115966796875 -28.23459815979004 -0.22647246718406677
28.650115966796875 -27.106918334960938 -0.22206206619739532
28.650115966796875 -26.02184295654297 -0.21790862083435059
28.650115966796875 -24.9761962890625 -0.21399490535259247
28.650121688842773 -23.96700668334961 -0.21030470728874207
28.650121688842773 -21.132848739624023 -0.2004402130842209
28.3546085357666 -34.29441452026367 -1.252969741821289
28.3408203125 -32.890159606933594 -1.2225019931793213
28.65011215209961 -30.632591247558594 -1.1810108423233032
28.650115966796875 -29.408573150634766 -1.156078577041626
28.650115966796875 -28.23459815979004 -1.1326355934143066
28.650115966796875 -27.10692024230957 -1.1105778217315674
28.650115966796875 -24.976186752319336 -1.070231556892395
28.650121688842773 -22.99165153503418 -1.0343692302703857
28.650121688842773 -22.04768180847168 -1.017944574356079
28.650121688842773 -21.132848739624023 -1.0024422407150269
27.56359100341797 -34.75538635253906 -2.2496156692504883
28.294574737548828 -34.22182846069336 -2.2519173622131348
28.294574737548828 -32.83648681640625 -2.1982266902923584
28.650115966796875 -29.4085693359375 -2.082185983657837
28.650115966796875 -28.234601974487305 -2.039963722229004
28.650115966796875 -27.10691261291504 -2.0002353191375732
20.35626983642578 -25.667560577392578 -2.4020156860351562
21.384618759155273 -24.81732177734375 -2.4020156860351562
21.88559341430664 -24.37668228149414 -2.4020156860351562
22.37748908996582 -23.925928115844727 -2.4020156860351562
23.333227157592773 -22.994829177856445 -2.4020156860351562
23.796676635742188 -22.51490020751953 -2.4020156860351562
24.250244140625 -22.025609970092773 -2.4020156860351562
24.66202163696289 -21.49950408935547 -2.398927927017212
24.690975189208984 -18.212507247924805 -2.2496156692504883
15.546745300292969 -19.603145599365234 -2.4020156860351562
15.942741394042969 -19.282470703125 -2.4020156860351562
16.71473503112793 -18.617284774780273 -2.4020156860351562
17.458984375 -17.92117691040039 -2.4020156860351562
18.859426498413086 -16.441003799438477 -2.4020156860351562
19.190343856811523 -16.053512573242188 -2.4020156860351562
12.56517505645752 -15.84363842010498 -2.4020156860351562
12.885221481323242 -15.584464073181152 -2.4020156860351562
14.40273380279541 -14.193856239318848 -2.4020156860351562
14.96875 -13.59559154510498 -2.4020156860351562
11.829768180847168 -12.142932891845703 -2.40201735496521
12.314459800720215 -11.651140213012695 -2.4020190238952637
12.54921817779541 -11.397947311401367 -2.4020204544067383
12.778693199157715 -11.14002513885498 -2.402021646499634
13.002912521362305 -10.877471923828125 -2.4020214080810547
13.435070037841797 -10.338951110839844 -2.4020211696624756
9.06033706665039 -11.424152374267578 -2.4020211696624756
9.291144371032715 -11.23727798461914 -2.402022361755371
10.591452598571777 -10.020957946777344 -2.40202260017395
11.183586120605469 -9.3555269241333 -2.402022123336792
11.37178897857666 -9.125832557678223 -2.402022123336792
8.53744125366211 -9.509196281433105 -2.402024984359741
8.729323387145996 -9.333359718322754 -2.402024984359741
8.917580604553223 -9.153655052185059 -2.402024745941162
9.459875106811523 -8.592055320739746 -2.402024507522583
10.284303665161133 -7.585885047912598 -2.402024030685425
7.24095344543457 -8.757685661315918 -2.402028799057007
7.417803764343262 -8.608522415161133 -2.4020278453826904
7.591574668884277 -8.455668449401855 -2.402026653289795
8.09371566772461 -7.9763383865356445 -2.402024984359741
9.14489459991455 -6.745438575744629 -2.402024745941162
6.350762844085693 -8.007781028747559 -2.4020309448242188
6.512524127960205 -7.876788139343262 -2.4020309448242188
6.671586990356445 -7.742522239685059 -2.4020304679870605
6.827878475189209 -7.605048179626465 -2.4020302295684814
7.13189697265625 -7.320696830749512 -2.402029275894165
7.279506683349609 -7.1739325523376465 -2.4020285606384277
7.424088954925537 -7.024200439453125 -2.4020276069641113
7.703957557678223 -6.7160491943359375 -2.4020259380340576
7.971059322357178 -6.396754741668701 -2.4020252227783203
8.099672317504883 -6.233103275299072 -2.402024984359741
8.224928855895996 -6.066860198974609 -2.402024984359741
5.764666557312012 -7.268819808959961 -2.4020309448242188
5.911502361297607 -7.1498637199401855 -2.4020309448242188
6.055882453918457 -7.027987003326416 -2.4020309448242188
6.197751522064209 -6.9031572341918945 -2.4020309448242188
6.738946437835693 -6.375961780548096 -2.4020304679870605
6.867395877838135 -6.237446308135986 -2.4020302295684814
6.992991924285889 -6.096251487731934 -2.4020297527313232
7.235439300537109 -5.806374549865723 -2.402028799057007
7.35218620300293 -5.657868385314941 -2.4020280838012695
7.465883731842041 -5.507009983062744 -2.4020276069641113
5.40667724609375 -6.539285182952881 -2.4020309448242188
5.538736343383789 -6.427825927734375 -2.4020309448242188
5.795894622802734 -6.196948528289795 -2.4020309448242188
5.920889854431152 -6.077658653259277 -2.4020309448242188
6.04343843460083 -5.955787658691406 -2.4020309448242188
6.16346549987793 -5.831483840942383 -2.4020309448242188
6.280943393707275 -5.704726219177246 -2.4020309448242188
6.395817756652832 -5.575654029846191 -2.4020309448242188
6.508040428161621 -5.444227695465088 -2.4020309448242188
6.617569446563721 -5.31056022644043 -2.4020307064056396
6.724339485168457 -5.17471170425415 -2.4020304679870605
4.976265907287598 -6.018709659576416 -2.4020309448242188
5.449539661407471 -5.593843936920166 -2.4020309448242188
5.886666297912598 -5.1318206787109375 -2.4020309448242188
5.989954471588135 -5.010873317718506 -2.4020309448242188
6.189033031463623 -4.762739658355713 -2.4020309448242188
6.284746170043945 -4.635644912719727 -2.4020309448242188
4.60459566116333 -5.569186210632324 -2.4020309448242188
4.717059135437012 -5.474226474761963 -2.4020309448242188
4.82756233215332 -5.37705135345459 -2.4020309448242188
5.042518138885498 -5.176008701324463 -2.4020309448242188
5.446993350982666 -4.748500823974609 -2.4020309448242188
5.635844707489014 -4.522768974304199 -2.4020309448242188
4.280093669891357 -5.176701545715332 -2.4020309448242188
4.384632587432861 -5.088461875915527 -2.4020309448242188
4.687155723571777 -4.8112382888793945 -2.4020309448242188
4.879188060760498 -4.616379261016846 -2.4020309448242188
4.972189903259277 -4.516076564788818 -2.4020309448242188
5.063128471374512 -4.413862228393555 -2.4020309448242188
5.151966571807861 -4.3098015785217285 -2.4020309448242188
5.323198318481445 -4.096464157104492 -2.4020309448242188
5.405517578125 -3.987215995788574 -2.4020309448242188
3.894846200942993 -4.911075592041016 -2.4020309448242188
4.091602802276611 -4.748396873474121 -2.4020309448242188
4.373908519744873 -4.489699840545654 -2.4020309448242188
4.639892578125 -4.214245319366455 -2.4020309448242188
4.724753379821777 -4.1188788414001465 -2.4020309448242188
4.807658672332764 -4.021812438964844 -2.4020309448242188
4.888564109802246 -3.9229965209960938 -2.4020309448242188
4.967442512512207 -3.822695255279541 -2.4020309448242188
3.7397656440734863 -4.5231852531433105 -2.4020309448242188
3.831105947494507 -4.446084499359131 -2.4020309448242188
3.9208555221557617 -4.367142200469971 -2.4020309448242188
4.180206298828125 -4.119579792022705 -2.4020309448242188
4.344491958618164 -3.945941686630249 -2.4020309448242188
4.423948764801025 -3.8566479682922363 -2.4020309448242188
4.651186466217041 -3.5793185234069824 -2.4020309448242188
3.4247753620147705 -4.318356990814209 -2.4020309448242188
3.682070255279541 -4.101176738739014 -2.4020309448242188
3.764826536178589 -4.025341033935547 -2.4020309448242188
3.8460216522216797 -3.947838068008423 -2.4020309448242188
4.079903602600098 -3.7056281566619873 -2.4020309448242188
4.154526233673096 -3.6217708587646484 -2.4020309448242188
4.298563003540039 -3.4495818614959717 -2.4020309448242188
4.367922306060791 -3.3613319396972656 -2.4020309448242188
4.435471057891846 -3.2716822624206543 -2.4020309448242188
3.4667539596557617 -3.8613524436950684 -2.4020309448242188
3.5446715354919434 -3.789951801300049 -2.4020309448242188
3.696068048477173 -3.642458438873291 -2.4020309448242188
3.769477367401123 -3.5664329528808594 -2.4020309448242188
3.9115796089172363 -3.409982204437256 -2.4020309448242188
3.9802160263061523 -3.32961368560791 -2.4020309448242188
4.047197341918945 -3.247866153717041 -2.4020309448242188
4.176095962524414 -3.0803654193878174 -2.4020309448242188
3.042820930480957 -3.836744546890259 -2.4020309448242188
3.1203246116638184 -3.7739813327789307 -2.4020309448242188
3.1965367794036865 -3.7096517086029053 -2.4020309448242188
3.344947338104248 -3.5764071941375732 -2.4020309448242188
3.4878125190734863 -3.437228202819824 -2.4020309448242188
3.557084798812866 -3.365487575531006 -2.4020309448242188
3.7559497356414795 -3.142010450363159 -2.4020309448242188
3.819157600402832 -3.0648646354675293 -2.4020309448242188
3.880779981613159 -2.986454486846924 -2.4020309448242188
3.9407947063446045 -2.9068024158477783 -2.4020309448242188
2.877089738845825 -3.6277740001678467 -2.4020309448242188
2.950373411178589 -3.5684258937835693 -2.4020309448242188
3.0224316120147705 -3.50760555267334 -2.4020309448242188
3.2978429794311523 -3.2500157356262207 -2.4020309448242188
3.363344669342041 -3.1821835041046143 -2.4020309448242188
3.427452325820923 -3.1130290031433105 -2.4020309448242188
2.7945616245269775 -3.379979133605957 -2.4020309448242188
2.929885149002075 -3.2633745670318604 -2.4020309448242188
3.0603418350219727 -3.1413605213165283 -2.4020309448242188
3.246441602706909 -2.948638439178467 -2.4020309448242188
3.36382794380188 -2.813983917236328 -2.4020309448242188
3.4204344749450684 -2.744901418685913 -2.4020309448242188
2.585209846496582 -3.259746551513672 -2.4020309448242188
2.841911554336548 -3.038550853729248 -2.4020309448242188
2.9031944274902344 -2.9800517559051514 -2.4020309448242188
2.9632811546325684 -2.920314073562622 -2.4020309448242188
3.0221362113952637 -2.859361171722412 -2.4020309448242188
3.348146915435791 -2.4696526527404785 -2.4020309448242188
