ply
format ascii 1.0
element vertex 383
property float x
property float y
property float z
end_header
-19.915475845336914 13.199929237365723 4.212937355041504
-22.816024780273438 13.199922561645508 4.64784049987793
-26.522253036499023 14.634544372558594 5.34129524230957
-27.6832275390625 14.55092716217041 5.514525413513184
-29.742210388183594 14.125096321105957 5.805731296539307
-34.82810974121094 13.19990348815918 6.567402362823486
-17.720836639404297 13.364070892333984 3.4001781940460205
-18.261919021606445 13.199931144714355 3.45192813873291
-19.915475845336914 13.199929237365723 3.6602368354797363
-20.820194244384766 13.199926376342773 3.7765417098999023
-21.784706115722656 13.19992446899414 3.902132987976074
-23.922279357910156 13.199920654296875 4.185636043548584
-26.968534469604492 13.484614372253418 4.619102478027344
-31.124711990356445 13.263187408447266 5.182999134063721
-32.96000671386719 13.262238502502441 5.442714214324951
-37.07974624633789 13.19987964630127 6.029604434967041
-42.454315185546875 13.199869155883789 6.810872554779053
-17.775821685791016 13.405536651611328 2.8992435932159424
-18.346954345703125 13.261396408081055 2.947927236557007
-19.15384864807129 13.261808395385742 3.0337414741516113
-20.919227600097656 13.262712478637695 3.2254655361175537
-21.889141082763672 13.263206481933594 3.3328568935394287
-22.81601905822754 13.199921607971191 3.4325201511383057
-26.968528747558594 13.484621047973633 3.9264049530029297
-27.794151306152344 13.199930191040039 4.006810665130615
-32.805110931396484 13.199910163879395 4.604762077331543
-37.254180908203125 13.261974334716797 5.149492263793945
-39.793731689453125 13.263272285461426 5.46222448348999
-17.775814056396484 13.405539512634277 2.390753984451294
-18.346952438354492 13.261396408081055 2.430898427963257
-19.153844833374023 13.261808395385742 2.5016610622406006
-20.009496688842773 13.262246131896973 2.5777599811553955
-20.91922378540039 13.262712478637695 2.6597607135772705
-29.101078033447266 14.550921440124512 3.493791341781616
-32.80510711669922 13.199910163879395 3.797145366668701
-34.82810974121094 13.199901580810547 3.999498128890991
-39.603515625 13.199874877929688 4.48268985748291
-17.72083282470703 13.3640718460083 1.8788856267929077
-18.26190757751465 13.199931144714355 1.907480239868164
-20.8201904296875 13.199926376342773 2.086855173110962
-22.816015243530273 13.199922561645508 2.2313809394836426
-27.6832218170166 14.55092716217041 2.6474688053131104
-29.74220085144043 14.12509536743164 2.7872722148895264
-29.742198944091797 13.392946243286133 2.761251211166382
-32.96000289916992 13.262238502502441 3.0075573921203613
-35.41569519042969 13.422595977783203 3.206136465072632
-42.45431137084961 13.199869155883789 3.7635796070098877
-17.720829010009766 13.364072799682617 1.3763291835784912
-19.06447410583496 13.199930191040039 1.4379068613052368
-19.915485382080078 13.199929237365723 1.4815986156463623
-20.820194244384766 13.199926376342773 1.5286750793457031
-22.816022872924805 13.199922561645508 1.6345441341400146
-25.11292839050293 13.199917793273926 1.759276270866394
-30.976234436035156 13.199917793273926 2.0879762172698975
-32.80510330200195 13.199910163879395 2.192758083343506
-35.41569900512695 13.422595024108887 2.3485755920410156
-37.254180908203125 13.261974334716797 2.4521560668945312
-20.525970458984375 14.836419105529785 0.9986518621444702
-21.338342666625977 14.774317741394043 1.023388147354126
-22.31658172607422 14.791373252868652 1.0557011365890503
-24.477140426635742 14.831339836120605 1.1285111904144287
-25.2647705078125 14.616610527038574 1.1509217023849487
-25.555936813354492 14.10134506225586 1.1509217023849487
-25.836593627929688 13.580292701721191 1.1509217023849487
-27.794151306152344 13.199930191040039 1.2132670879364014
-29.313554763793945 13.19992446899414 1.2676459550857544
-30.976234436035156 13.199917793273926 1.3276982307434082
-32.80510711669922 13.199910163879395 1.394327163696289
-34.82810974121094 13.19990348815918 1.4686323404312134
-37.079742431640625 13.19987964630127 1.5519721508026123
-42.454315185546875 13.199869155883789 1.7530637979507446
-20.525970458984375 14.836418151855469 0.42781051993370056
-21.33353042602539 14.77098274230957 0.4383082389831543
-23.002153396606445 15.245771408081055 0.46614301204681396
-24.081737518310547 15.267731666564941 0.48164716362953186
-25.236093521118164 15.291213035583496 0.49843060970306396
-26.522254943847656 14.634544372558594 0.5116962790489197
-30.471071243286133 15.235936164855957 0.5754673480987549
-31.59500503540039 15.005023002624512 0.5908122062683105
-36.4892578125 16.43115234375 0.6759763956069946
-37.25216293334961 15.874274253845215 0.6840049624443054
-37.740875244140625 15.185927391052246 0.6871827840805054
-43.951560974121094 14.649076461791992 0.7825691103935242
-23.002153396606445 15.245771408081055 -0.15537047386169434
-24.081737518310547 15.267731666564941 -0.16053801774978638
-25.23609733581543 15.291213035583496 -0.16613204777240753
-30.471086502075195 15.235936164855957 -0.19180968403816223
-31.59500503540039 15.005023956298828 -0.19693756103515625
-36.4892578125 16.43115234375 -0.22530639171600342
-37.74087905883789 15.185932159423828 -0.2290191650390625
-38.973297119140625 14.770933151245117 -0.23465865850448608
-43.951560974121094 14.649076461791992 -0.2608374059200287
-20.09917640686035 15.157692909240723 -0.7088446021080017
-21.333526611328125 14.77098274230957 -0.7306390404701233
-23.002164840698242 15.245771408081055 -0.7770388722419739
-24.081737518310547 15.267731666564941 -0.8028834462165833
-26.01365089416504 15.049870491027832 -0.8462409973144531
-26.522254943847656 14.634544372558594 -0.8529443144798279
-31.59500503540039 15.005022048950195 -0.9848756194114685
-37.25215530395508 15.874274253845215 -1.1402039527893066
-37.740882873535156 15.185933113098145 -1.1454840898513794
-38.973289489746094 14.770933151245117 -1.1735740900039673
-43.95153045654297 14.649079322814941 -1.3045437335968018
-23.00215721130371 15.245771408081055 -1.3995064496994019
-26.01365089416504 15.0498685836792 -1.5241472721099854
-26.522254943847656 14.634544372558594 -1.5362199544906616
-30.471071243286133 15.235936164855957 -1.7277270555496216
-31.59500503540039 15.005023956298828 -1.7738361358642578
-36.4892578125 16.431150436401367 -2.0294876098632812
-37.25215530395508 15.874274253845215 -2.053595542907715
-38.98647689819336 14.77592658996582 -2.114409923553467
-40.948204040527344 14.57700252532959 -2.2043182849884033
-25.334247589111328 8.443922996520996 -1.354286789894104
-42.80262756347656 9.586685180664062 -2.2244839668273926
-20.09917640686035 15.157689094543457 -1.845814824104309
-21.333524703979492 14.77098274230957 -1.9025671482086182
-23.002155303955078 15.245771408081055 -2.023390531539917
-23.361122131347656 14.81086254119873 -2.028127670288086
-25.676837921142578 14.855008125305176 -2.1750504970550537
-26.773832321166992 14.072935104370117 -2.217780590057373
-27.05051612854004 13.525609016418457 -2.217522621154785
-27.570680618286133 12.415122985839844 -2.217045545578003
-27.81396484375 11.852375984191895 -2.216822624206543
-20.8719425201416 8.398322105407715 -1.649617075920105
-22.323225021362305 8.460537910461426 -1.7504030466079712
-23.817426681518555 8.478681564331055 -1.8537017107009888
-29.50285530090332 8.520979881286621 -2.251629114151001
-29.652286529541016 7.916448593139648 -2.2503185272216797
-19.31689453125 12.803145408630371 -2.224874496459961
-19.815916061401367 12.006988525390625 -2.224412202835083
-14.66260814666748 8.48287296295166 -1.6262880563735962
-15.375934600830078 8.484195709228516 -1.6859773397445679
-20.73353385925293 10.366984367370605 -2.2254724502563477
-17.816911697387695 8.461566925048828 -1.8936092853546143
-20.8719425201416 8.398322105407715 -2.1599366664886475
-22.087692260742188 7.862915992736816 -2.2508864402770996
-22.37677764892578 6.957380294799805 -2.2497267723083496
-22.512332916259766 6.50201416015625 -2.2496395111083984
-24.414955139160156 5.468321323394775 -2.4020309448242188
-15.42485523223877 10.679920196533203 -2.22857928276062
-15.658051490783691 10.378116607666016 -2.2314043045043945
-16.399438858032227 9.487692832946777 -2.250539541244507
-16.593769073486328 9.156173706054688 -2.251262664794922
-17.279998779296875 7.78120231628418 -2.2511274814605713
-17.70967674255371 6.711999893188477 -2.2496819496154785
-17.841739654541016 6.351416110992432 -2.249630928039551
-18.79510498046875 6.264426231384277 -2.3533377647399902
-19.309696197509766 6.00376558303833 -2.4020309448242188
-12.682364463806152 9.564335823059082 -2.250670909881592
-13.066201210021973 9.046823501586914 -2.251793384552002
-13.250324249267578 8.782279014587402 -2.252368211746216
-13.429140090942383 8.514025688171387 -2.2529513835906982
-13.756861686706543 7.958859920501709 -2.251901149749756
-13.910921096801758 7.675818920135498 -2.2511754035949707
-14.059113502502441 7.389786243438721 -2.2504425048828125
-14.477252960205078 6.519114017486572 -2.2496466636657715
-14.715206146240234 6.270596027374268 -2.266399383544922
-15.539764404296875 6.2527923583984375 -2.373377799987793
-15.852450370788574 6.008100986480713 -2.4020309448242188
-15.970894813537598 5.685460090637207 -2.4020309448242188
-16.08299446105957 5.360476016998291 -2.4020309448242188
-16.18837547302246 5.033285617828369 -2.4020309448242188
-16.28709602355957 4.704028129577637 -2.4020309448242188
-16.464420318603516 4.039841651916504 -2.4020309448242188
-16.54294204711914 3.705193281173706 -2.4020309448242188
-11.080315589904785 8.00898265838623 -2.2522754669189453
-11.237470626831055 7.780648231506348 -2.2516870498657227
-11.389915466308594 7.5492072105407715 -2.2510910034179688
-11.537540435791016 7.314759731292725 -2.25048828125
-11.680313110351562 7.0774102210998535 -2.249878406524658
-11.956521034240723 6.597404479980469 -2.2496626377105713
-12.087711334228516 6.353535175323486 -2.249630928039551
-12.51578140258789 6.258054256439209 -2.3052191734313965
-13.295055389404297 5.986778259277344 -2.4020309448242188
-13.413670539855957 5.715988636016846 -2.4020309448242188
-13.634417533874512 5.167463779449463 -2.4020309448242188
-13.736384391784668 4.889964580535889 -2.4020309448242188
-13.832707405090332 4.610449314117432 -2.4020309448242188
-13.923340797424316 4.329041481018066 -2.4020309448242188
-14.08740234375 3.760998487472534 -2.4020309448242188
-14.160761833190918 3.4745984077453613 -2.4020309448242188
-14.22829818725586 3.186772346496582 -2.4020309448242188
-9.559137344360352 7.208972454071045 -2.25040602684021
-9.70114803314209 7.0121049880981445 -2.2498979568481445
-10.108345985412598 6.408615589141846 -2.249630928039551
-10.32995319366455 6.259210109710693 -2.270254373550415
-10.797149658203125 6.24657678604126 -2.3446106910705566
-11.31197452545166 5.94582986831665 -2.4020309448242188
-11.430192947387695 5.715251445770264 -2.4020309448242188
-11.652559280395508 5.247140407562256 -2.4020309448242188
-12.039316177368164 4.28583288192749 -2.4020309448242188
-12.34697437286377 3.29634690284729 -2.4020309448242188
-12.470479011535645 2.7930634021759033 -2.4020309448242188
-8.497335433959961 6.408077239990234 -2.249630928039551
-8.662837028503418 6.261603832244873 -2.2594170570373535
-9.02225112915039 6.246881008148193 -2.319648027420044
-9.407981872558594 6.235568046569824 -2.3858022689819336
-9.597311973571777 6.084643840789795 -2.4020309448242188
-9.718732833862305 5.888805389404297 -2.4020309448242188
-10.0587739944458 5.287081718444824 -2.4020309448242188
-10.264788627624512 4.8749284744262695 -2.4020309448242188
-10.361515998840332 4.665803909301758 -2.4020309448242188
-10.453985214233398 4.454762935638428 -2.4020309448242188
-10.625998497009277 4.0272698402404785 -2.4020309448242188
-10.85117244720459 3.373844623565674 -2.4020309448242188
-10.917346954345703 3.153141975402832 -2.4020309448242188
-11.088842391967773 2.483614683151245 -2.4020309448242188
-8.16010570526123 6.15386962890625 -2.4020309448242188
-8.283153533935547 5.987163066864014 -2.4020309448242188
-8.402836799621582 5.817990779876709 -2.4020309448242188
-8.519062995910645 5.64642333984375 -2.4020309448242188
-8.631776809692383 5.472537040710449 -2.4020309448242188
-9.0468111038208 4.755207538604736 -2.4020309448242188
-9.141361236572266 4.570802688598633 -2.4020309448242188
-9.232162475585938 4.384514808654785 -2.4020309448242188
-9.402331352233887 4.006618022918701 -2.4020309448242188
-9.557037353515625 3.6221301555633545 -2.4020309448242188
-9.628514289855957 3.427617073059082 -2.4020309448242188
-9.696028709411621 3.2316911220550537 -2.4020309448242188
-9.759556770324707 3.034438371658325 -2.4020309448242188
-9.819074630737305 2.835937976837158 -2.4020309448242188
-9.925956726074219 2.435515880584717 -2.4020309448242188
-9.973310470581055 2.2337653636932373 -2.4020309448242188
-7.406985282897949 5.585946083068848 -2.4020309448242188
-7.518725872039795 5.434625148773193 -2.4020309448242188
-7.6275315284729 5.281065464019775 -2.4020309448242188
-7.835203647613525 4.967491149902344 -2.4020309448242188
-7.934309959411621 4.807608604431152 -2.4020309448242188
-8.030158042907715 4.645747661590576 -2.4020309448242188
-8.211906433105469 4.316363334655762 -2.4020309448242188
-8.380154609680176 3.979881525039673 -2.4020309448242188
-8.459118843078613 3.809150218963623 -2.4020309448242188
-8.534615516662598 3.636859655380249 -2.4020309448242188
-8.67504596710205 3.287855863571167 -2.4020309448242188
-8.801210403442383 2.933448314666748 -2.4020309448242188
-8.912898063659668 2.574216365814209 -2.4020309448242188
-9.009954452514648 2.21075177192688 -2.4020309448242188
-9.052905082702637 2.0276172161102295 -2.4020309448242188
-6.774456024169922 5.108924865722656 -2.4020309448242188
-6.876658916473389 4.970528602600098 -2.4020309448242188
-6.976020336151123 4.830082893371582 -2.4020309448242188
-7.072509765625 4.687644004821777 -2.4020309448242188
-7.429050922393799 4.0992279052734375 -2.4020309448242188
-7.589135646820068 3.7946691513061523 -2.4020309448242188
-7.664506435394287 3.6400115489959717 -2.4020309448242188
-7.80579137802124 3.3262853622436523 -2.4020309448242188
-7.934228897094727 3.007084846496582 -2.4020309448242188
-7.993559837341309 2.8455986976623535 -2.4020309448242188
-8.15177059173584 2.3543894290924072 -2.4020309448242188
-8.240535736083984 2.0219616889953613 -2.4020309448242188
-6.235162258148193 4.702217102050781 -2.4020309448242188
-6.595627307891846 4.181605339050293 -2.4020309448242188
-6.679056167602539 4.047016620635986 -2.4020309448242188
-6.759737968444824 3.9107627868652344 -2.4020309448242188
-6.837642192840576 3.7728991508483887 -2.4020309448242188
-6.9127326011657715 3.633488655090332 -2.4020309448242188
-6.984984397888184 3.492582321166992 -2.4020309448242188
-7.120839595794678 3.206521511077881 -2.4020309448242188
-7.244985580444336 2.9151909351348877 -2.4020309448242188
-7.357215404510498 2.619067430496216 -2.4020309448242188
-7.457343101501465 2.318636178970337 -2.4020309448242188
-7.502799987792969 2.1669554710388184 -2.4020309448242188
-7.620682716369629 1.7068367004394531 -2.4020309448242188
-5.769460201263428 4.35101318359375 -2.4020309448242188
-6.023299217224121 3.992230176925659 -2.4020309448242188
-6.180202484130859 3.7447478771209717 -2.4020309448242188
-6.463279724121094 3.2317254543304443 -2.4020309448242188
-6.588990211486816 2.9670300483703613 -2.4020309448242188
-6.80771541595459 2.4234519004821777 -2.4020309448242188
-6.900340557098389 2.1454579830169678 -2.4020309448242188
-6.942447185516357 2.005113124847412 -2.4020309448242188
-7.051501274108887 1.5793546438217163 -2.4020309448242188
-5.4437713623046875 3.9348223209381104 -2.4020309448242188
-5.522429466247559 3.823643207550049 -2.4020309448242188
-5.672911167144775 3.5966057777404785 -2.4020309448242188
-5.814058780670166 3.3636529445648193 -2.4020309448242188
-5.945650577545166 3.125169038772583 -2.4020309448242188
-6.007792949676514 3.003976345062256 -2.4020309448242188
-6.124643325805664 2.7579345703125 -2.4020309448242188
-6.179304122924805 2.633190870285034 -2.4020309448242188
-6.231420040130615 2.507359743118286 -2.4020309448242188
-6.37232780456543 2.1238999366760254 -2.4020309448242188
-6.414074420928955 1.9942628145217896 -2.4020309448242188
-6.453195571899414 1.8638068437576294 -2.4020309448242188
-6.489656448364258 1.7325825691223145 -2.4020309448242188
-6.523449420928955 1.600645899772644 -2.4020309448242188
-5.00446891784668 3.77409291267395 -2.4020309448242188
-5.425502300262451 3.138855457305908 -2.4020309448242188
-5.606288909912109 2.8032171726226807 -2.4020309448242188
-5.715328216552734 2.5736186504364014 -2.4020309448242188
-5.90504264831543 2.1021158695220947 -2.4020309448242188
-5.946463584899902 1.9819597005844116 -2.4020309448242188
-5.985421180725098 1.8609849214553833 -2.4020309448242188
-6.021920680999756 1.7392469644546509 -2.4020309448242188
-6.05594539642334 1.6167924404144287 -2.4020309448242188
-6.116514682769775 1.369941234588623 -2.4020309448242188
-4.685855388641357 3.5338127613067627 -2.4020309448242188
-4.756538391113281 3.438084125518799 -2.4020309448242188
-4.825268268585205 3.3409368991851807 -2.4020309448242188
-5.019447326660156 3.0414154529571533 -2.4020309448242188
-5.080082416534424 2.9390177726745605 -2.4020309448242188
-5.138628959655762 2.83541202545166 -2.4020309448242188
-5.301499366760254 2.5177741050720215 -2.4020309448242188
-5.3517255783081055 2.4097843170166016 -2.4020309448242188
-5.399169921875 2.300766706466675 -2.4020309448242188
-5.488055229187012 2.0799808502197266 -2.4020309448242188
-5.529096603393555 1.9682835340499878 -2.4020309448242188
-5.638528823852539 1.6285160779953003 -2.4020309448242188
-5.699914932250977 1.3985780477523804 -2.4020309448242188
-4.46685791015625 3.22869873046875 -2.4020309448242188
-4.531402587890625 3.137468099594116 -2.4020309448242188
-4.594083309173584 3.044948101043701 -2.4020309448242188
-4.7137556076049805 2.856189012527466 -2.4020309448242188
-4.770698070526123 2.7600274085998535 -2.4020309448242188
-5.025540828704834 2.2630085945129395 -2.4020309448242188
-5.113157749176025 2.057400941848755 -2.4020309448242188
-5.153824329376221 1.953307032585144 -2.4020309448242188
-5.1923675537109375 1.8484116792678833 -2.4020309448242188
-5.228780269622803 1.7427561283111572 -2.4020309448242188
-5.263039588928223 1.636380672454834 -2.4020309448242188
-5.295134544372559 1.5293363332748413 -2.4020309448242188
-5.32505464553833 1.4216614961624146 -2.4020309448242188
-5.352783679962158 1.3134013414382935 -2.4020309448242188
-4.20565128326416 3.039895534515381 -2.4020309448242188
-4.266418933868408 2.9539995193481445 -2.4020309448242188
-4.4381103515625 2.68916916847229 -2.4020309448242188
-4.491724967956543 2.598630428314209 -2.4020309448242188
-4.543488502502441 2.5070228576660156 -2.4020309448242188
-4.5933837890625 2.414386749267578 -2.4020309448242188
-4.64139461517334 2.320755958557129 -2.4020309448242188
-4.731665134429932 2.1306750774383545 -2.4020309448242188
-4.773898601531982 2.034302234649658 -2.4020309448242188
-4.814159870147705 1.9370908737182617 -2.4020309448242188
-4.888735294342041 1.7403221130371094 -2.4020309448242188
-4.955273151397705 1.5406900644302368 -2.4020309448242188
-5.063806056976318 1.1341614723205566 -2.4020309448242188
-3.9097063541412354 2.9484851360321045 -2.4020309448242188
-3.968681573867798 2.8686132431030273 -2.4020309448242188
-4.188043594360352 2.537647247314453 -2.4020309448242188
-4.238636493682861 2.4522101879119873 -2.4020309448242188
-4.2874860763549805 2.3657641410827637 -2.4020309448242188
-4.334572792053223 2.278348207473755 -2.4020309448242188
-4.37986946105957 2.1899945735931396 -2.4020309448242188
-4.504907131195068 1.919679045677185 -2.4020309448242188
-4.542906284332275 1.827945351600647 -2.4020309448242188
-4.579033851623535 1.735460638999939 -2.4020309448242188
-4.6456298828125 1.5483921766281128 -2.4020309448242188
-4.704585075378418 1.358774185180664 -2.4020309448242188
-4.778486251831055 1.0702574253082275 -2.4020309448242188
-3.75252366065979 2.712369918823242 -2.4020309448242188
-3.8067474365234375 2.635730028152466 -2.4020309448242188
-3.9599387645721436 2.3994312286376953 -2.4020309448242188
-4.053896427154541 2.236905574798584 -2.4020309448242188
-4.141316890716553 2.0707130432128906 -2.4020309448242188
-4.182452201843262 1.9863202571868896 -2.4020309448242188
-4.221864700317383 1.9011110067367554 -2.4020309448242188
-4.25954532623291 1.8151218891143799 -2.4020309448242188
-4.3296332359313965 1.6409367322921753 -2.4020309448242188
-4.362010478973389 1.5528156757354736 -2.4020309448242188
-4.421380043029785 1.3746931552886963 -2.4020309448242188
-3.6057121753692627 2.4965357780456543 -2.4020309448242188
-3.655590057373047 2.42291522026062 -2.4020309448242188
-3.922617197036743 1.9613590240478516 -2.4020309448242188
-3.998910427093506 1.800713062286377 -2.4020309448242188
-4.034598350524902 1.7192643880844116 -2.4020309448242188
-4.068627834320068 1.637108325958252 -2.4020309448242188
-4.131653785705566 1.470812201499939 -2.4020309448242188
-4.160627365112305 1.3867396116256714 -2.4020309448242188
-4.213425636291504 1.2169169187545776 -2.4020309448242188
-4.259298801422119 1.045095682144165 -2.4020309448242188
-4.279611110687256 0.9585227966308594 -2.4020309448242188
-3.321730375289917 2.505067825317383 -2.4020309448242188
-3.420560121536255 2.368340492248535 -2.4020309448242188
-3.513765811920166 2.2277162075042725 -2.4020309448242188
-3.6011924743652344 2.0834271907806396 -2.4020309448242188
-3.6426963806152344 2.0099809169769287 -2.4020309448242188
-3.68269944190979 1.9357109069824219 -2.4020309448242188
-3.7935686111450195 1.7082481384277344 -2.4020309448242188
-3.890399694442749 1.4744666814804077 -2.4020309448242188
-3.91949462890625 1.3952863216400146 -2.4020309448242188
-3.94698166847229 1.3155320882797241 -2.4020309448242188
-3.9970691204071045 1.1544303894042969 -2.4020309448242188
-4.019655704498291 1.0731525421142578 -2.4020309448242188
