ply
format ascii 1.0
element vertex 319
property float x
property float y
property float z
end_header
33.29405212402344 -10.06600284576416 6.133081912994385
33.33420944213867 -8.661158561706543 6.072883129119873
33.33420944213867 -7.963760852813721 6.043130397796631
33.29404830932617 -7.264123439788818 6.008744239807129
33.33420181274414 -5.233364105224609 5.949714183807373
33.33420181274414 -4.5626115798950195 5.932526588439941
33.334197998046875 -3.895463228225708 5.917714595794678
33.33421325683594 -1.9102845191955566 5.887364864349365
33.33420944213867 0.7181437611579895 5.879083156585693
33.33420181274414 3.35552978515625 5.9074225425720215
33.33420181274414 4.020142555236816 5.920307636260986
33.33421325683594 -10.078156471252441 5.334904670715332
33.33420944213867 -9.365737915039062 5.304347038269043
33.29404830932617 -7.954161643981934 5.24399995803833
33.29404830932617 -7.26412296295166 5.220448970794678
33.33420181274414 -6.587926864624023 5.205387592315674
33.33420181274414 -5.908282279968262 5.186205863952637
33.334197998046875 -3.2313787937164307 5.130550384521484
33.33421325683594 -1.9102888107299805 5.114993572235107
33.33421325683594 -1.2522345781326294 5.11021614074707
33.29405212402344 -0.594432532787323 5.101276874542236
33.33420944213867 0.7181437611579895 5.107800006866455
33.33420944213867 1.3753678798675537 5.110959529876709
33.33420181274414 3.355532169342041 5.132421970367432
33.29405212402344 -10.066018104553223 4.529399394989014
33.29405212402344 -8.650726318359375 4.479537487030029
33.29404830932617 -7.954161643981934 4.457591533660889
33.29404830932617 -6.579991340637207 4.419438362121582
33.29404830932617 -5.901163578033447 4.403154373168945
33.29404067993164 -5.227059364318848 4.38868522644043
33.29404067993164 -4.557112216949463 4.376003265380859
33.29404067993164 -3.8907690048217773 4.365082740783691
33.29404067993164 -3.227487802505493 4.35590124130249
33.2940559387207 -1.9079896211624146 4.342693328857422
33.29405212402344 -0.594432532787323 4.336270809173584
33.29405212402344 0.06139694154262543 4.335587024688721
33.29405212402344 1.373708963394165 4.339268684387207
33.29404830932617 3.351483106613159 4.357490062713623
36.48776626586914 -11.031577110290527 4.093278884887695
36.48777389526367 -10.251758575439453 4.069833755493164
36.48777389526367 -9.480525970458984 4.0482177734375
36.48777389526367 -7.960914611816406 4.010293960571289
36.48777770996094 -7.211158752441406 3.9939074516296387
36.4877815246582 -4.263975620269775 3.9447851181030273
36.4877815246582 -3.5370678901672363 3.936488628387451
36.487789154052734 -2.812932014465332 3.92974853515625
36.48776626586914 -2.0909931659698486 3.924548864364624
36.48776626586914 -0.6514356732368469 3.9187450408935547
36.48664474487305 0.7860725522041321 3.9189085960388184
36.48609161376953 1.5054304599761963 3.921274423599243
36.48777770996094 2.948381185531616 3.930891752243042
42.75373458862305 -12.012280464172363 -2.252180814743042
42.953147888183594 -11.160417556762695 -2.2506678104400635
43.556480407714844 -10.405904769897461 -2.271099090576172
46.465267181396484 -9.183034896850586 -2.4020309448242188
46.7906494140625 -7.346028804779053 -2.4020309448242188
46.926483154296875 -6.423030853271484 -2.4020309448242188
47.04386520385742 -5.497569561004639 -2.4020309448242188
47.14301681518555 -4.569974422454834 -2.4020309448242188
47.22388458251953 -3.6406071186065674 -2.4020309448242188
47.28642654418945 -2.7098307609558105 -2.4020309448242188
47.36392593383789 0.08736312389373779 -2.4020309448242188
47.3530158996582 1.0201753377914429 -2.4020309448242188
47.21013259887695 3.8147947788238525 -2.4020309448242188
31.53874969482422 -8.861273765563965 -2.4020309448242188
31.7071475982666 -8.238404273986816 -2.4020309448242188
31.8632755279541 -7.612318992614746 -2.4020309448242188
32.00701904296875 -6.983295917510986 -2.4020309448242188
32.13834762573242 -6.351562976837158 -2.4020309448242188
32.2572021484375 -5.717377185821533 -2.4020309448242188
32.363548278808594 -5.080962181091309 -2.4020309448242188
32.538543701171875 -3.8024699687957764 -2.4020309448242188
32.73687744140625 -1.2297790050506592 -2.4020309448242188
32.7547492980957 -0.584790050983429 -2.4020309448242188
32.759910583496094 0.060425564646720886 -2.4020309448242188
32.75236129760742 0.7056184411048889 -2.4020309448242188
32.73212432861328 1.3505375385284424 -2.4020309448242188
32.69916915893555 1.9949326515197754 -2.4020309448242188
32.595237731933594 3.2811529636383057 -2.4020309448242188
24.087026596069336 -6.767594337463379 -2.40201735496521
24.21564483642578 -6.2918925285339355 -2.40201735496521
24.33486557006836 -5.813745975494385 -2.40201735496521
24.444643020629883 -5.333340167999268 -2.40201735496521
24.635744094848633 -4.36652135848999 -2.40201735496521
24.71693992614746 -3.880469799041748 -2.402017116546631
24.78857421875 -3.392918586730957 -2.402017116546631
24.850587844848633 -2.904050588607788 -2.402017116546631
24.90299415588379 -2.4140589237213135 -2.402017116546631
24.945680618286133 -1.9231256246566772 -2.402017116546631
24.97871971130371 -1.4314489364624023 -2.402017116546631
25.013893127441406 0.5389003157615662 -2.402017116546631
24.99842643737793 1.0314429998397827 -2.40201735496521
24.9732666015625 1.5235849618911743 -2.40201735496521
24.93841552734375 2.015137195587158 -2.40201735496521
24.839704513549805 2.995706081390381 -2.40201735496521
19.35611343383789 -5.852057456970215 -2.4020190238952637
19.667917251586914 -4.698782444000244 -2.4020190238952637
19.75664520263672 -4.3105149269104 -2.4020190238952637
19.911075592041016 -3.529109477996826 -2.4020190238952637
20.084741592407227 -2.3471121788024902 -2.4020190238952637
20.1270694732666 -1.951088547706604 -2.4020190238952637
20.207162857055664 -0.7590935826301575 -2.4020190238952637
20.221376419067383 0.03729858249425888 -2.4020190238952637
20.21672821044922 0.4355500638484955 -2.4020190238952637
20.119735717773438 2.025324583053589 -2.4020187854766846
20.075939178466797 2.4211888313293457 -2.4020187854766846
16.227293014526367 -4.906100749969482 -2.4020204544067383
16.320770263671875 -4.585554122924805 -2.4020204544067383
16.407915115356445 -4.263228416442871 -2.4020204544067383
16.48869514465332 -3.939248561859131 -2.4020204544067383
16.63104248046875 -3.2868309020996094 -2.4020204544067383
16.692548751831055 -2.958645820617676 -2.4020204544067383
16.796154022216797 -2.2989273071289062 -2.4020209312438965
16.873626708984375 -1.6357042789459229 -2.4020204544067383
16.902572631835938 -1.3030630350112915 -2.4020204544067383
16.940776824951172 -0.636389434337616 -2.4020204544067383
16.950023651123047 -0.30261778831481934 -2.4020204544067383
16.95269775390625 0.0312693789601326 -2.4020204544067383
16.948793411254883 0.36514541506767273 -2.4020204544067383
16.9212646484375 1.032343864440918 -2.4020204544067383
13.956826210021973 -4.219653129577637 -2.402022123336792
14.037219047546387 -3.9439587593078613 -2.402022123336792
14.3040771484375 -2.8269457817077637 -2.402021884918213
14.356982231140137 -2.544680118560791 -2.402021884918213
14.404315948486328 -2.261427879333496 -2.402021646499634
14.446059226989746 -1.9772934913635254 -2.402021646499634
14.48220157623291 -1.6923949718475342 -2.402021646499634
14.512723922729492 -1.4068413972854614 -2.402021646499634
14.556869506835938 -0.8342059254646301 -2.402021646499634
14.57843017578125 -0.26027771830558777 -2.402021646499634
14.580727577209473 0.026891326531767845 -2.402021646499634
14.553693771362305 0.8879035711288452 -2.402021646499634
14.507433891296387 1.4603685140609741 -2.402021646499634
12.302997589111328 -3.4567041397094727 -2.4020228385925293
12.36868667602539 -3.2137231826782227 -2.4020228385925293
12.429584503173828 -2.969498634338379 -2.4020228385925293
12.583251953125 -2.2302980422973633 -2.40202260017395
12.661322593688965 -1.733010172843933 -2.40202260017395
12.71975040435791 -1.2330362796783447 -2.40202260017395
12.758441925048828 -0.7311445474624634 -2.40202260017395
12.777338981628418 -0.22811904549598694 -2.40202260017395
12.776411056518555 0.2752552628517151 -2.40202260017395
12.768510818481445 0.5268329977989197 -2.40202260017395
10.998347282409668 -2.8576736450195312 -2.4020235538482666
11.147910118103027 -2.2031874656677246 -2.4020233154296875
11.226030349731445 -1.7624469995498657 -2.4020233154296875
11.286727905273438 -1.3189697265625 -2.4020233154296875
11.31052017211914 -1.0964241027832031 -2.4020233154296875
11.329916954040527 -0.873450756072998 -2.4020233154296875
11.344923973083496 -0.6501386761665344 -2.4020233154296875
11.3555269241333 -0.4265759289264679 -2.4020233154296875
11.363517761230469 0.02095901407301426 -2.4020233154296875
11.3608980178833 0.24475814402103424 -2.4020233154296875
11.326621055603027 0.9152433276176453 -2.4020233154296875
9.783034324645996 -2.9577715396881104 -2.402024269104004
9.940629959106445 -2.3748772144317627 -2.402024030685425
9.98547077178955 -2.1786348819732666 -2.402024030685425
10.063528060913086 -1.783694863319397 -2.402024030685425
10.09670352935791 -1.5851472616195679 -2.402024030685425
10.125964164733887 -1.3859857320785522 -2.4020237922668457
10.190141677856445 -0.7855840921401978 -2.4020237922668457
10.20363712310791 -0.5847375392913818 -2.4020237922668457
10.213173866271973 -0.38366439938545227 -2.4020237922668457
10.21875 -0.18244247138500214 -2.4020237922668457
10.218008041381836 0.2201368659734726 -2.4020237922668457
10.211688995361328 0.42133742570877075 -2.4020237922668457
10.168986320495605 1.0236467123031616 -2.4020237922668457
10.146852493286133 1.223725438117981 -2.4020237922668457
8.880183219909668 -2.6848056316375732 -2.402024745941162
8.97902774810791 -2.332995653152466 -2.402024507522583
9.023234367370605 -2.155697822570801 -2.402024507522583
9.10113525390625 -1.7986772060394287 -2.402024507522583
9.13478946685791 -1.6190776824951172 -2.402024507522583
9.164912223815918 -1.4388576745986938 -2.402024507522583
9.19146728515625 -1.258070468902588 -2.402024507522583
9.214460372924805 -1.076802372932434 -2.402024269104004
9.23388671875 -0.8951165676116943 -2.402024269104004
9.261972427368164 -0.5307685732841492 -2.402024269104004
9.277155876159668 0.017116393893957138 -2.402024269104004
9.275014877319336 0.19982191920280457 -2.402024269104004
9.269279479980469 0.3824540674686432 -2.402024269104004
9.247026443481445 0.747201681137085 -2.402024269104004
9.230517387390137 0.9291770458221436 -2.402024269104004
8.121845245361328 -2.455528497695923 -2.402024984359741
8.168642044067383 -2.295097589492798 -2.402024984359741
8.289912223815918 -1.8086978197097778 -2.402024984359741
8.40655517578125 -1.150636911392212 -2.402024745941162
8.427580833435059 -0.9848470687866211 -2.402024745941162
8.445348739624023 -0.8186758160591125 -2.402024745941162
8.459826469421387 -0.6521859765052795 -2.402024745941162
8.484914779663086 0.01565505936741829 -2.402024745941162
8.4829683303833 0.1827622950077057 -2.402024745941162
8.477714538574219 0.3497944474220276 -2.402024745941162
7.475297451019287 -2.260054349899292 -2.4020273685455322
7.518359184265137 -2.1123909950256348 -2.402027130126953
7.595712661743164 -1.8146624565124512 -2.402026653289795
7.629980087280273 -1.6647124290466309 -2.402026414871216
7.689621448516846 -1.3630790710449219 -2.4020259380340576
7.714970588684082 -1.2112230062484741 -2.4020256996154785
7.737329006195068 -1.05904221534729 -2.4020254611968994
7.756684303283691 -0.9064500331878662 -2.4020254611968994
7.796679496765137 -0.44684919714927673 -2.402024984359741
7.8082275390625 -0.13940642774105072 -2.402024984359741
7.809455394744873 0.0144046014174819 -2.402024984359741
7.807658672332764 0.16820815205574036 -2.402024984359741
7.784099102020264 0.6302675008773804 -2.402024984359741
7.77020263671875 0.7821763157844543 -2.4020252227783203
7.753288269042969 0.9350587129592896 -2.4020254611968994
6.993973255157471 -1.8172407150268555 -2.4020297527313232
7.060111999511719 -1.5403786897659302 -2.402029514312744
7.115300178527832 -1.2611397504806519 -2.402029275894165
7.138757228851318 -1.1207597255706787 -2.402029275894165
7.177357196807861 -0.8387489318847656 -2.402029037475586
7.192482948303223 -0.697090744972229 -2.402028799057007
7.204819202423096 -0.5554388165473938 -2.402028799057007
7.221105575561523 -0.27137237787246704 -2.402028799057007
7.225047588348389 -0.12918731570243835 -2.402028799057007
7.226186275482178 0.013170775957405567 -2.402028799057007
7.220054626464844 0.2977122366428375 -2.402028799057007
7.212788105010986 0.43989670276641846 -2.402028799057007
7.18986177444458 0.7236637473106384 -2.402028799057007
7.174211502075195 0.865221381187439 -2.402029037475586
6.429522514343262 -1.943878173828125 -2.4020309448242188
6.613864421844482 -1.1721566915512085 -2.4020307064056396
6.67155122756958 -0.7796410918235779 -2.4020304679870605
6.712216854095459 -0.252144455909729 -2.4020304679870605
6.715879917144775 -0.11993392556905746 -2.4020304679870605
6.711238861083984 0.2768571376800537 -2.4020304679870605
6.704484939575195 0.40906721353530884 -2.4020304679870605
6.695127964019775 0.540996253490448 -2.4020304679870605
6.683175086975098 0.6727519035339355 -2.4020304679870605
6.668627738952637 0.8042463660240173 -2.4020304679870605
5.999834060668945 -1.8139944076538086 -2.4020309448242188
6.034395694732666 -1.6954238414764404 -2.4020309448242188
6.066617488861084 -1.5762743949890137 -2.4020309448242188
6.192205905914307 -0.9721841216087341 -2.4020309448242188
6.210151195526123 -0.8500558137893677 -2.4020309448242188
6.263635158538818 -0.23529677093029022 -2.4020309448242188
6.267053127288818 -0.11188949644565582 -2.4020309448242188
6.268039226531982 0.011561126448214054 -2.4020309448242188
6.262720584869385 0.2584013342857361 -2.4020309448242188
6.247686862945557 0.5048420429229736 -2.4020309448242188
6.236535549163818 0.6277302503585815 -2.4020309448242188
5.617848873138428 -1.6984795331954956 -2.4020309448242188
5.650209903717041 -1.5875076055526733 -2.4020309448242188
5.680380821228027 -1.475919485092163 -2.4020309448242188
5.708348274230957 -1.3637585639953613 -2.4020309448242188
5.757625579833984 -1.1378445625305176 -2.4020309448242188
5.778919696807861 -1.0242397785186768 -2.4020309448242188
5.797971248626709 -0.9101836681365967 -2.4020309448242188
5.868056297302246 -0.10476623475551605 -2.4020309448242188
5.868981838226318 0.010825195349752903 -2.4020309448242188
5.86762809753418 0.126412495970726 -2.4020309448242188
5.858099460601807 0.3573945462703705 -2.4020309448242188
5.849923133850098 0.4727003276348114 -2.4020309448242188
5.839479923248291 0.5878223776817322 -2.4020309448242188
5.334437370300293 -1.3860337734222412 -2.4020309448242188
5.406977653503418 -1.0685932636260986 -2.4020309448242188
5.44486665725708 -0.854824960231781 -2.4020309448242188
5.485844612121582 -0.5317898392677307 -2.4020309448242188
5.502533912658691 -0.3153001368045807 -2.4020309448242188
5.507675647735596 -0.20690184831619263 -2.4020309448242188
5.510682106018066 -0.09834960848093033 -2.4020309448242188
5.511552810668945 0.010165557265281677 -2.4020309448242188
5.506875038146973 0.2271910011768341 -2.4020309448242188
5.501330375671387 0.3356672525405884 -2.4020309448242188
5.483845233917236 0.5520234704017639 -2.4020309448242188
5.47191047668457 0.6599208116531372 -2.4020309448242188
5.069992542266846 -1.1062954664230347 -2.4020309448242188
5.090794563293457 -1.0061054229736328 -2.4020309448242188
5.1413254737854 -0.7037158012390137 -2.4020309448242188
5.173909664154053 -0.3988697826862335 -2.4020309448242188
5.18560791015625 -0.19480040669441223 -2.4020309448242188
5.188435077667236 -0.09263244271278381 -2.4020309448242188
5.184849739074707 0.21392837166786194 -2.4020309448242188
5.172402381896973 0.41795334219932556 -2.4020309448242188
5.163167476654053 0.5197429060935974 -2.4020309448242188
5.151928424835205 0.6213297843933105 -2.4020309448242188
4.714331150054932 -1.3245400190353394 -2.4020309448242188
4.739502906799316 -1.2314536571502686 -2.4020309448242188
4.762836933135986 -1.1378706693649292 -2.4020309448242188
4.851637840270996 -0.6640644669532776 -2.4020309448242188
4.863774299621582 -0.5683830380439758 -2.4020309448242188
4.888851165771484 -0.28016096353530884 -2.4020309448242188
4.893421649932861 -0.1838221698999405 -2.4020309448242188
4.895734786987305 0.10544417798519135 -2.4020309448242188
4.892708778381348 0.20187422633171082 -2.4020309448242188
4.88096284866333 0.3944084048271179 -2.4020309448242188
4.872249603271484 0.4904578924179077 -2.4020309448242188
4.861644268035889 0.5863218307495117 -2.4020309448242188
4.481360912322998 -1.1643810272216797 -2.4020309448242188
4.503422737121582 -1.075895071029663 -2.4020309448242188
4.542303562164307 -0.897705078125 -2.4020309448242188
4.559101581573486 -0.8080706596374512 -2.4020309448242188
4.587387561798096 -0.6278957724571228 -2.4020309448242188
4.622576713562012 -0.26490432024002075 -2.4020309448242188
4.62942361831665 -0.08265166729688644 -2.4020309448242188
4.621566295623779 0.2819560170173645 -2.4020309448242188
4.615115642547607 0.37292250990867615 -2.4020309448242188
4.606875896453857 0.46374496817588806 -2.4020309448242188
4.59684944152832 0.5543873310089111 -2.4020309448242188
4.222155570983887 -1.1862752437591553 -2.4020309448242188
4.244699478149414 -1.1028902530670166 -2.4020309448242188
4.265597820281982 -1.0190773010253906 -2.4020309448242188
4.284840106964111 -0.934868574142456 -2.4020309448242188
4.355997085571289 -0.5090417265892029 -2.4020309448242188
4.38563346862793 0.008094634860754013 -2.4020309448242188
4.384622573852539 0.09446883946657181 -2.4020309448242188
4.377501010894775 0.26706892251968384 -2.4020309448242188
4.371390342712402 0.3532285988330841 -2.4020309448242188
4.363587379455566 0.43925824761390686 -2.4020309448242188
4.354087829589844 0.5251115560531616 -2.4020309448242188
4.026738166809082 -1.0462570190429688 -2.4020309448242188
4.064815521240234 -0.8868640065193176 -2.4020309448242188
4.110096454620361 -0.6452713012695312 -2.4020309448242188
4.159777641296387 -0.07426620274782181 -2.4020309448242188
4.152717113494873 0.2533531188964844 -2.4020309448242188
4.146921157836914 0.33509382605552673 -2.4020309448242188
4.130508899688721 0.4981495440006256 -2.4020309448242188
