ply
format ascii 1.0
element vertex 394
property float x
property float y
property float z
end_header
31.306346893310547 17.34096336364746 6.310427188873291
31.095321655273438 18.913036346435547 6.417481422424316
32.93381118774414 20.9588565826416 6.883330345153809
32.93381881713867 21.910717010498047 6.974880218505859
32.93381881713867 22.888648986816406 7.071845531463623
32.72279357910156 24.77083396911621 7.236675262451172
32.933834075927734 27.10212516784668 7.520633220672607
32.933837890625 28.24281883239746 7.650016784667969
32.933837890625 29.423933029174805 7.787195682525635
32.93384552001953 31.920578002929688 8.087163925170898
31.306346893310547 16.51947021484375 5.422692775726318
31.306346893310547 17.340970993041992 5.482555866241455
31.306352615356445 18.181156158447266 5.546065330505371
31.20957374572754 18.982528686523438 5.596052169799805
31.30635643005371 20.82797622680664 5.760380744934082
31.30636215209961 21.757587432861328 5.84046745300293
31.306365966796875 22.71380615234375 5.925289154052734
31.306371688842773 24.71417999267578 6.110286235809326
31.039091110229492 26.61795425415039 6.2640228271484375
31.03909683227539 27.731124877929688 6.376348972320557
32.93384552001953 33.24360656738281 7.16873836517334
32.738250732421875 35.84623718261719 7.437027454376221
31.095312118530273 15.609457969665527 4.5308074951171875
31.306346893310547 17.34096336364746 4.660370826721191
31.306352615356445 18.181156158447266 4.714357852935791
31.095321655273438 19.788848876953125 4.79970645904541
31.30636215209961 21.757579803466797 4.964609146118164
31.306365966796875 23.69862174987793 5.113076210021973
31.30637550354004 25.762847900390625 5.279670238494873
31.30637550354004 26.84716796875 5.370499610900879
31.095346450805664 27.781373977661133 5.429975509643555
31.252010345458984 29.08353614807129 5.559287071228027
31.09535026550293 30.138629913330078 5.639115333557129
31.095365524291992 35.467342376708984 6.142287254333496
31.0396671295166 38.446533203125 6.434538841247559
30.48918342590332 15.30518913269043 3.663336753845215
30.56950569152832 17.75322914123535 3.7960197925567627
30.489192962646484 19.40311050415039 3.880735397338867
30.542030334472656 21.22638702392578 3.993929386138916
31.306371688842773 24.71417999267578 4.283010959625244
31.30637550354004 25.762845993041992 4.353682994842529
31.30637550354004 26.847164154052734 4.428582668304443
31.095346450805664 27.781375885009766 4.477607250213623
31.252010345458984 29.08353614807129 4.584258556365967
31.306386947631836 30.34317970275879 4.681645393371582
31.111644744873047 32.70633316040039 4.847230911254883
31.306406021118164 37.205467224121094 5.221379280090332
30.569501876831055 16.130659103393555 2.9259660243988037
30.569501876831055 16.932817459106445 2.958266496658325
30.56950569152832 17.753232955932617 2.992535352706909
30.56951141357422 18.593219757080078 3.028870105743408
30.569515228271484 21.245485305786133 3.151387929916382
30.51145362854004 23.096872329711914 3.23946475982666
30.489208221435547 24.06909942626953 3.2883148193359375
30.569536209106445 27.31160545349121 3.470165967941284
30.569536209106445 28.44841957092285 3.53501033782959
30.56954002380371 29.62900161743164 3.603837251663208
30.56954574584961 30.857051849365234 3.6769468784332275
31.095365524291992 35.46733856201172 3.9929325580596924
30.48918342590332 15.305190086364746 2.1154837608337402
30.569501876831055 16.130659103393555 2.1433446407318115
30.569501876831055 16.932819366455078 2.1670053005218506
30.56950569152832 17.753238677978516 2.192108392715454
30.56950569152832 18.59322166442871 2.218724250793457
30.489192962646484 19.403106689453125 2.2410287857055664
30.56951141357422 20.337759017944336 2.2768173217773438
30.569515228271484 21.245487213134766 2.308472156524658
30.56535530090332 23.137678146362305 2.3771822452545166
30.489208221435547 24.0690860748291 2.40877366065979
30.489213943481445 26.14639663696289 2.490649938583374
30.569536209106445 28.44841766357422 2.589484691619873
30.56954002380371 29.629011154174805 2.6399035453796387
32.05300521850586 38.092735290527344 3.0871238708496094
30.754032135009766 38.09273910522461 3.035889148712158
30.48918342590332 15.30518913269043 1.345194697380066
30.489198684692383 20.28432273864746 1.4439746141433716
30.489198684692383 21.18967056274414 1.464050531387329
30.48920249938965 22.120922088623047 1.485312819480896
30.489208221435547 24.069091796875 1.5316870212554932
30.489213943481445 25.090383529663086 1.5569604635238647
30.489213943481445 26.146398544311523 1.583746314048767
30.48922348022461 29.55116081237793 1.6742464303970337
30.56954574584961 30.857059478759766 1.7127110958099365
30.754032135009766 38.09273910522461 1.9304559230804443
30.48918914794922 16.888330459594727 0.5887469053268433
30.48918914794922 17.70659065246582 0.595566987991333
30.48918914794922 18.544370651245117 0.6027984619140625
30.489192962646484 19.40311050415039 0.6104620099067688
30.48920249938965 22.12092399597168 0.6362899541854858
30.489208221435547 23.080034255981445 0.6459372043609619
30.489208221435547 24.069093704223633 0.6561560034751892
30.489213943481445 25.09038543701172 0.6669833064079285
30.48921775817871 26.146398544311523 0.6784576177597046
30.48921775817871 27.239850997924805 0.6906237602233887
30.489227294921875 30.7759952545166 0.7317773103713989
30.7529296875 38.09136199951172 0.8269543051719666
30.489179611206055 15.305191040039062 -0.19207458198070526
31.157480239868164 17.258508682250977 -0.20053648948669434
31.15748405456543 18.094701766967773 -0.20285949110984802
31.15748405456543 18.950847625732422 -0.20532271265983582
31.157499313354492 22.605792999267578 -0.21673034131526947
31.15750503540039 25.640342712402344 -0.2271839827299118
31.157508850097656 26.71950340270996 -0.23109252750873566
30.48921775817871 27.239850997924805 -0.23019668459892273
30.50557518005371 29.56700897216797 -0.23918655514717102
32.051849365234375 38.09135818481445 -0.28028395771980286
30.7529296875 38.09136199951172 -0.27563217282295227
30.50557518005371 39.39521789550781 -0.2805265784263611
30.48918342590332 15.305191040039062 -0.9606043696403503
30.48918914794922 16.088281631469727 -0.9706933498382568
31.157480239868164 17.25850486755371 -1.0029242038726807
31.157489776611328 19.828407287597656 -1.0399154424667358
31.157489776611328 20.72893714904785 -1.0537469387054443
31.157493591308594 21.65412712097168 -1.068397045135498
31.15750503540039 24.596662521362305 -1.1177544593811035
31.15750503540039 25.640338897705078 -1.1361987590789795
31.157508850097656 26.719499588012695 -1.155745506286621
31.4769287109375 29.292842864990234 -1.210740327835083
31.4769287109375 30.50847816467285 -1.2343151569366455
32.051841735839844 38.09135818481445 -1.401755690574646
30.7529239654541 38.09136199951172 -1.3784922361373901
30.48918342590332 15.30518627166748 -1.7301217317581177
31.15748405456543 18.950849533081055 -1.8494535684585571
31.157489776611328 19.828407287597656 -1.8729671239852905
31.157499313354492 22.605792999267578 -1.95220947265625
31.157499313354492 24.596662521362305 -2.013162136077881
30.50557518005371 30.79248046875 -2.198197364807129
29.951313018798828 32.79473114013672 -2.2524077892303467
29.276411056518555 33.39265060424805 -2.252180576324463
27.891447067260742 34.547027587890625 -2.2517545223236084
27.446386337280273 13.777745246887207 -2.2517545223236084
27.161022186279297 14.332101821899414 -2.2517545223236084
26.86446189880371 14.88055419921875 -2.2517545223236084
26.55683135986328 15.42287826538086 -2.2517545223236084
25.90886116027832 16.488222122192383 -2.2517545223236084
24.81119155883789 19.586694717407227 -2.3177614212036133
24.803905487060547 20.411794662475586 -2.355313777923584
24.00306510925293 22.337554931640625 -2.4041545391082764
23.544647216796875 22.82024383544922 -2.4041545391082764
22.59886360168457 23.757213592529297 -2.4041545391082764
22.11191177368164 24.211090087890625 -2.4041545391082764
21.6158390045166 24.655004501342773 -2.4041545391082764
21.11085319519043 25.08875274658203 -2.4041545391082764
20.074996948242188 25.925065994262695 -2.4041545391082764
22.38039207458496 11.234676361083984 -2.4041545391082764
22.147706985473633 11.686712265014648 -2.4041545391082764
21.905885696411133 12.133933067321777 -2.4041545391082764
21.655025482177734 12.576150894165039 -2.4041545391082764
20.56346321105957 14.291388511657715 -2.4041545391082764
20.269100189208984 14.705900192260742 -2.4041545391082764
19.966379165649414 15.114352226257324 -2.4041545391082764
19.33637237548828 15.912409782409668 -2.4041545391082764
17.9818058013916 17.428558349609375 -2.4041545391082764
17.25948143005371 18.144147872924805 -2.4041545391082764
16.50871467590332 18.829818725585938 -2.4041545391082764
16.123050689697266 19.161117553710938 -2.4041545391082764
15.730714797973633 19.484464645385742 -2.4041545391082764
15.331915855407715 19.799800872802734 -2.4041545391082764
14.926820755004883 20.107004165649414 -2.4041545391082764
17.900211334228516 9.445426940917969 -2.40415620803833
17.50200843811035 10.164289474487305 -2.4041547775268555
17.074968338012695 10.8663911819458 -2.4041545391082764
16.850849151611328 11.210793495178223 -2.4041545391082764
16.619787216186523 11.550573348999023 -2.4041545391082764
16.381874084472656 11.88559341430664 -2.4041545391082764
15.88589096069336 12.54079818725586 -2.4041545391082764
15.628022193908691 12.8607177734375 -2.4041545391082764
14.816201210021973 13.788152694702148 -2.4041545391082764
14.244267463684082 14.378243446350098 -2.4041545391082764
13.94943618774414 14.664446830749512 -2.4041545391082764
13.648869514465332 14.944612503051758 -2.4041545391082764
13.030949592590332 15.486364364624023 -2.4041545391082764
12.7138671875 15.747719764709473 -2.4041545391082764
12.06412124633789 16.25084686279297 -2.4041545391082764
15.16439437866211 7.612339496612549 -2.404158115386963
15.006728172302246 7.918625354766846 -2.404157876968384
14.496891975402832 8.817410469055176 -2.4041576385498047
14.314899444580078 9.109899520874023 -2.4041576385498047
13.528703689575195 10.241095542907715 -2.4041545391082764
12.42123031616211 11.559365272521973 -2.4041545391082764
12.184005737304688 11.809144020080566 -2.4041545391082764
11.44258975982666 12.528886795043945 -2.4041545391082764
11.185880661010742 12.7586030960083 -2.4041545391082764
10.658727645874023 13.20217514038086 -2.4041545391082764
10.114015579223633 13.623970985412598 -2.4041545391082764
12.907045364379883 6.810679912567139 -2.404161214828491
12.766119956970215 7.071308612823486 -2.404161214828491
12.619901657104492 7.329019546508789 -2.4041600227355957
12.150400161743164 8.08360481262207 -2.4041590690612793
11.635809898376465 8.808197021484375 -2.4041566848754883
11.45458984375 9.042594909667969 -2.4041554927825928
11.268630027770996 9.273269653320312 -2.4041550159454346
11.07806396484375 9.500130653381348 -2.4041545391082764
10.882917404174805 9.723076820373535 -2.4041545391082764
10.68328857421875 9.942008972167969 -2.4041545391082764
10.479260444641113 10.15683650970459 -2.4041545391082764
10.270893096923828 10.367490768432617 -2.4041545391082764
9.841574668884277 10.775875091552734 -2.4041545391082764
8.586272239685059 10.63516616821289 -2.2517545223236084
11.312451362609863 5.969257831573486 -2.4041619300842285
11.18893051147461 6.197682857513428 -2.4041621685028076
11.060800552368164 6.423557758331299 -2.4041621685028076
10.928122520446777 6.646786212921143 -2.4041621685028076
10.790925025939941 6.867269515991211 -2.4041621685028076
10.503239631652832 7.299657344818115 -2.4041614532470703
10.198278427124023 7.719995021820068 -2.4041600227355957
10.039450645446777 7.925439357757568 -2.4041597843170166
9.709440231323242 8.32645034790039 -2.4041574001312256
9.53839111328125 8.521841049194336 -2.40415620803833
7.713176250457764 9.166544914245605 -2.251755714416504
7.525475978851318 9.321245193481445 -2.251755475997925
7.334693431854248 9.47210693359375 -2.2517552375793457
10.059127807617188 5.307915687561035 -2.404162645339966
9.949298858642578 5.5110368728637695 -2.404162645339966
9.469440460205078 6.299976825714111 -2.404162883758545
9.339594841003418 6.4909186363220215 -2.404162883758545
8.633732795715332 7.4039626121521 -2.4041621685028076
7.342000484466553 7.718470096588135 -2.2517638206481934
6.349765300750732 8.553377151489258 -2.2517645359039307
8.739824295043945 5.315803527832031 -2.404163360595703
8.516828536987305 5.666207313537598 -2.404163360595703
8.279794692993164 6.007266521453857 -2.404163360595703
8.029115676879883 6.33842658996582 -2.4041635990142822
6.461191177368164 7.074583053588867 -2.2517688274383545
6.168676853179932 7.331037521362305 -2.2517693042755127
6.018575191497803 7.454761028289795 -2.2517693042755127
5.710996150970459 7.692936420440674 -2.251769781112671
8.212250709533691 4.333372116088867 -2.4041635990142822
8.12258243560791 4.499200820922852 -2.4041635990142822
7.933247089385986 4.825228691101074 -2.4041638374328613
7.7308349609375 5.143289566040039 -2.4041643142700195
7.624833583831787 5.299179553985596 -2.404165029525757
7.51568603515625 5.452880859375 -2.4041659832000732
7.288136959075928 5.753475189208984 -2.4041671752929688
7.048577785491943 6.04459285736084 -2.4041683673858643
6.797391414642334 6.325742244720459 -2.4041690826416016
6.5350022315979 6.59646463394165 -2.4041693210601807
5.978003025054932 6.545520305633545 -2.295192241668701
5.733329772949219 6.539432048797607 -2.251769781112671
5.599391937255859 6.654473304748535 -2.251769781112671
7.589879989624023 3.8100242614746094 -2.404165506362915
7.07066011428833 4.704078197479248 -2.404168128967285
6.973711967468262 4.8465471267700195 -2.4041686058044434
6.771218299865723 5.12574577331543 -2.4041690826416016
6.333096981048584 5.658151626586914 -2.404169797897339
5.976937294006348 6.033150672912598 -2.404169797897339
5.598622798919678 6.385783672332764 -2.404169797897339
5.074931621551514 6.285938739776611 -2.2870688438415527
4.869936466217041 6.289088726043701 -2.251769781112671
6.985673904418945 3.506626605987549 -2.4041686058044434
6.913042068481445 3.6478166580200195 -2.4041688442230225
6.837560653686523 3.7874090671539307 -2.4041688442230225
6.678179740905762 4.061855316162109 -2.4041693210601807
6.507789134979248 4.3296027183532715 -2.4041695594787598
6.418551921844482 4.460826396942139 -2.404169797897339
6.326671123504639 4.590209484100342 -2.404169797897339
6.135121822357178 4.843247413635254 -2.404169797897339
5.828930377960205 5.207716941833496 -2.404169797897339
5.722007751464844 5.325032711029053 -2.404169797897339
5.612728118896484 5.440040588378906 -2.404169797897339
5.50112771987915 5.5528693199157715 -2.404169797897339
5.387265682220459 5.663401126861572 -2.404169797897339
5.271182537078857 5.77160120010376 -2.404169797897339
4.910086631774902 6.081758975982666 -2.404169797897339
4.785610198974609 6.180187225341797 -2.404169797897339
6.463922023773193 3.2448081970214844 -2.404169797897339
6.39671516418457 3.3753654956817627 -2.404169797897339
6.101818561553955 3.88315486907959 -2.404169797897339
5.854136943817139 4.247369289398193 -2.404169797897339
5.393574237823486 4.818757057189941 -2.404169797897339
5.294637203216553 4.9272589683532715 -2.404169797897339
5.193518161773682 5.033729076385498 -2.404169797897339
5.090256214141846 5.138130187988281 -2.404169797897339
4.984896183013916 5.240407466888428 -2.404169797897339
4.87748384475708 5.340524673461914 -2.404169797897339
4.428176403045654 5.718595504760742 -2.404169797897339
5.945919036865234 3.1374926567077637 -2.404169797897339
5.813653469085693 3.376277446746826 -2.404169797897339
5.671802997589111 3.6094970703125 -2.404169797897339
5.597359657287598 3.7238965034484863 -2.404169797897339
5.520605564117432 3.8367602825164795 -2.404169797897339
5.276825904846191 4.165684223175049 -2.404169797897339
5.191170692443848 4.2719526290893555 -2.404169797897339
4.827515602111816 4.678985118865967 -2.404169797897339
4.731529235839844 4.776029586791992 -2.404169797897339
4.432040691375732 5.055181980133057 -2.404169797897339
4.328498363494873 5.144115924835205 -2.404169797897339
4.116108417510986 5.315588474273682 -2.404169797897339
4.007348537445068 5.398054122924805 -2.404169797897339
5.606844425201416 2.814565896987915 -2.404169797897339
5.487966060638428 3.0398662090301514 -2.404169797897339
5.360042572021484 3.2601263523101807 -2.404169797897339
5.15165901184082 3.580347776412964 -2.404169797897339
5.002072811126709 3.786525249481201 -2.404169797897339
4.924170970916748 3.8872900009155273 -2.404169797897339
4.844241619110107 3.986456871032715 -2.404169797897339
4.67841911315918 4.1798200607299805 -2.404169797897339
4.415316104888916 4.456843376159668 -2.404169797897339
4.039219856262207 4.800330638885498 -2.404169797897339
3.940934896469116 4.881343841552734 -2.404169797897339
5.249878883361816 2.6353747844696045 -2.404169797897339
5.195295333862305 2.741410493850708 -2.404169797897339
5.079726219177246 2.9500505924224854 -2.404169797897339
4.890736103057861 3.2537841796875 -2.404169797897339
4.823672771453857 3.3524022102355957 -2.404169797897339
4.683609485626221 3.5454492568969727 -2.404169797897339
4.61067008972168 3.6398003101348877 -2.404169797897339
4.535828590393066 3.732656717300415 -2.404169797897339
4.300206184387207 4.001830577850342 -2.404169797897339
4.218080997467041 4.0883026123046875 -2.404169797897339
4.134212493896484 4.173095226287842 -2.404169797897339
3.9614036083221436 4.33747673034668 -2.404169797897339
3.8725316524505615 4.4170050621032715 -2.404169797897339
3.690032958984375 4.570567607879639 -2.404169797897339
3.5964841842651367 4.644537448883057 -2.404169797897339
4.930154800415039 2.474848985671997 -2.404169797897339
4.529904842376709 3.148235321044922 -2.404169797897339
4.465059757232666 3.239546537399292 -2.404169797897339
4.329871654510498 3.418131113052368 -2.404169797897339
4.259588718414307 3.505328893661499 -2.404169797897339
4.18754768371582 3.591083288192749 -2.404169797897339
4.03831672668457 3.7581138610839844 -2.404169797897339
3.961193799972534 3.839319944381714 -2.404169797897339
3.882432699203491 3.918947696685791 -2.404169797897339
3.802075147628784 3.9969565868377686 -2.404169797897339
3.5517284870147705 4.220978260040283 -2.404169797897339
3.2882091999053955 4.429345607757568 -2.404169797897339
4.641852855682373 2.330152988433838 -2.404169797897339
4.593593597412109 2.4239091873168945 -2.404169797897339
4.543436050415039 2.516664743423462 -2.404169797897339
4.49140739440918 2.608384370803833 -2.404169797897339
4.437528133392334 2.699028253555298 -2.404169797897339
4.381820201873779 2.788557767868042 -2.404169797897339
4.076675891876221 3.2182488441467285 -2.404169797897339
3.8732190132141113 3.4604344367980957 -2.404169797897339
3.729555606842041 3.6148087978363037 -2.404169797897339
3.655400276184082 3.68977952003479 -2.404169797897339
3.502606153488159 3.835123300552368 -2.404169797897339
3.344031810760498 3.9741485118865967 -2.404169797897339
2.1354894638061523 2.7577948570251465 -1.6145159006118774
2.026989698410034 2.730433225631714 -1.574076771736145
4.287435054779053 2.3748621940612793 -2.404169797897339
4.238339900970459 2.461413621902466 -2.404169797897339
4.187496185302734 2.5469517707824707 -2.404169797897339
4.134926795959473 2.631439208984375 -2.404169797897339
4.080653190612793 2.714839458465576 -2.404169797897339
4.024698257446289 2.797123432159424 -2.404169797897339
3.9670848846435547 2.878251314163208 -2.404169797897339
3.9078357219696045 2.9581940174102783 -2.404169797897339
3.7845299243927 3.1143901348114014 -2.404169797897339
3.5879368782043457 3.338981866836548 -2.404169797897339
3.4494359493255615 3.481879711151123 -2.404169797897339
3.3052525520324707 3.6190338134765625 -2.404169797897339
3.2310986518859863 3.685389280319214 -2.404169797897339
2.143798828125 2.5477545261383057 -1.6332974433898926
2.0285351276397705 2.512596607208252 -1.5840259790420532
1.9391649961471558 2.5042591094970703 -1.5536260604858398
1.8608617782592773 2.5066511631011963 -1.5313527584075928
4.098668098449707 2.1627509593963623 -2.404169797897339
4.053916931152344 2.245513439178467 -2.404169797897339
4.00749397277832 2.3273508548736572 -2.404169797897339
3.9594199657440186 2.408229112625122 -2.404169797897339
3.90971302986145 2.488114833831787 -2.404169797897339
3.8054893016815186 2.6447746753692627 -2.404169797897339
3.7510130405426025 2.721484422683716 -2.404169797897339
3.69499135017395 2.797072649002075 -2.404169797897339
3.5178794860839844 3.0168004035949707 -2.404169797897339
3.455909252166748 3.087597608566284 -2.404169797897339
3.3277244567871094 3.2253406047821045 -2.404169797897339
3.194051504135132 3.357769012451172 -2.404169797897339
2.138444662094116 2.341456174850464 -1.6450588703155518
2.024080753326416 2.3086655139923096 -1.59281587600708
1.8676317930221558 2.31329607963562 -1.5423883199691772
3.923004150390625 1.9693000316619873 -2.404169797897339
3.8822178840637207 2.048536539077759 -2.404169797897339
3.839830160140991 2.1269280910491943 -2.404169797897339
3.795858144760132 2.204444169998169 -2.404169797897339
3.604520082473755 2.505103826522827 -2.404169797897339
3.5529210567474365 2.5777618885040283 -2.404169797897339
3.3321008682250977 2.857483386993408 -2.404169797897339
2.010882616043091 2.2017838954925537 -1.6331759691238403
1.7665514945983887 2.1880955696105957 -1.540251612663269
1.6405858993530273 2.2099318504333496 -1.5074609518051147
3.6426548957824707 2.0177106857299805 -2.404169797897339
3.557746410369873 2.163919687271118 -2.404169797897339
3.513082265853882 2.235700845718384 -2.404169797897339
3.2684361934661865 2.580200672149658 -2.404169797897339
3.215379476547241 2.646021604537964 -2.404169797897339
3.1609997749328613 2.7107532024383545 -2.404169797897339
2.990135431289673 2.898137092590332 -2.404169797897339
2.0289721488952637 2.1329710483551025 -1.6996368169784546
1.9264367818832397 2.1093215942382812 -1.6492818593978882
1.7031725645065308 2.109592914581299 -1.565373182296753
1.6365904808044434 2.113510847091675 -1.5433034896850586
