ply
format ascii 1.0
element vertex 451
property float x
property float y
property float z
end_header
33.03537368774414 -34.540164947509766 8.427538871765137
33.11475372314453 -30.66482162475586 7.958027362823486
33.11476135253906 -29.443803787231445 7.813340663909912
33.11476135253906 -28.26589012145996 7.676901817321777
18.074506759643555 -13.623929023742676 3.990994691848755
29.1146183013916 -20.1529598236084 6.2435736656188965
29.619081497192383 -19.628429412841797 6.265353202819824
5.497617244720459 -12.330524444580078 2.0682239532470703
28.743242263793945 -31.29544448852539 6.509552478790283
29.114608764648438 -29.23394203186035 6.320608615875244
28.943763732910156 -27.910341262817383 6.159727096557617
29.114614486694336 -23.850988388061523 5.765751361846924
29.1146183013916 -21.94557762145996 5.585336685180664
29.1146183013916 -20.152963638305664 5.424471855163574
29.619081497192383 -19.628429412841797 5.443394184112549
29.11458969116211 -38.956024169921875 6.333113193511963
29.114593505859375 -35.837860107421875 6.012779235839844
28.903564453125 -32.77617645263672 5.69065523147583
29.114599227905273 -31.699771881103516 5.604846000671387
29.114608764648438 -30.44081687927246 5.485223770141602
29.114608764648438 -29.23394775390625 5.372748374938965
29.114608764648438 -26.960615158081055 5.167216777801514
29.114614486694336 -25.887086868286133 5.073269367218018
29.114614486694336 -24.85146713256836 4.984678745269775
29.1146183013916 -23.85099220275879 4.901097774505615
29.1146183013916 -21.945575714111328 4.747739791870117
29.1146183013916 -20.15296173095703 4.61099910736084
29.619081497192383 -19.628427505493164 4.627083778381348
5.49761962890625 -12.330522537231445 1.4497663974761963
29.11458969116211 -38.95603561401367 5.222366809844971
29.114593505859375 -37.356483459472656 5.085823059082031
29.114593505859375 -35.837860107421875 4.95821475982666
29.114599227905273 -33.01546859741211 4.7268476486206055
29.114608764648438 -30.440807342529297 4.5231852531433105
29.114608764648438 -29.23394012451172 4.430435657501221
28.943769454956055 -27.910341262817383 4.317666053771973
29.114608764648438 -26.96061897277832 4.260953426361084
28.37777328491211 -23.24736213684082 3.9392242431640625
28.297454833984375 -22.240875244140625 3.8648521900177
28.377777099609375 -20.503786087036133 3.7594401836395264
29.15955924987793 -19.323896408081055 3.7563555240631104
5.49761962890625 -12.330523490905762 1.1428660154342651
28.974966049194336 -40.44961929321289 4.212035655975342
29.11458969116211 -38.95603561401367 4.116974353790283
28.903564453125 -37.085723876953125 3.9802708625793457
28.37775421142578 -34.93086242675781 3.809810161590576
28.377758026123047 -32.179901123046875 3.6320316791534424
28.377763748168945 -30.89751434326172 3.551337242126465
28.29745101928711 -27.28709602355957 3.3277599811553955
28.36136245727539 -26.26309585571289 3.2721526622772217
28.297454833984375 -22.240880966186523 3.046797513961792
28.37777328491211 -21.390174865722656 3.0082573890686035
29.159549713134766 -19.323896408081055 2.9612650871276855
28.377763748168945 -30.897506713867188 2.6014440059661865
28.377763748168945 -29.67039680480957 2.545921802520752
28.377763748168945 -28.494075775146484 2.4937164783477783
28.37777328491211 -24.22251319885254 2.313598394393921
28.37777328491211 -23.247360229492188 2.2748048305511475
28.29745101928711 -22.240869522094727 2.23185658454895
28.37777328491211 -21.390172958374023 2.203625202178955
28.37777328491211 -20.503786087036133 2.1709840297698975
28.297460556030273 -19.58732795715332 2.1341004371643066
28.297441482543945 -33.42766571044922 1.72694993019104
28.29744529724121 -30.810062408447266 1.6495198011398315
28.29745101928711 -29.586421966552734 1.6143128871917725
28.29745101928711 -27.2871036529541 1.550062656402588
28.29745101928711 -26.20391082763672 1.5207239389419556
28.29745101928711 -25.16051483154297 1.4930750131607056
28.297454833984375 -24.15395736694336 1.467002034187317
28.297454833984375 -21.329633712768555 1.397270917892456
28.297460556030273 -19.58732795715332 1.3570280075073242
29.159549713134766 -19.323896408081055 1.3793485164642334
28.297441482543945 -34.83200454711914 0.7580656409263611
28.29745101928711 -30.810075759887695 0.7066343426704407
28.29745101928711 -29.586421966552734 0.6915531754493713
28.29745101928711 -28.41343879699707 0.6773725748062134
28.29745101928711 -27.287099838256836 0.6640275716781616
28.29745101928711 -26.20391082763672 0.6514604091644287
28.297454833984375 -25.160518646240234 0.6396158933639526
28.297454833984375 -24.15396499633789 0.6284464597702026
28.297454833984375 -23.181570053100586 0.617908775806427
28.297460556030273 -22.240875244140625 0.6079636812210083
28.297460556030273 -20.44575309753418 0.5897080898284912
28.297460556030273 -19.58732795715332 0.5813337564468384
5.497617244720459 -12.330524444580078 -0.0760316476225853
28.65011215209961 -31.194047927856445 -0.23846358060836792
28.65011215209961 -29.955158233642578 -0.23337416350841522
28.650115966796875 -28.767547607421875 -0.22858871519565582
28.650115966796875 -27.627174377441406 -0.2240852266550064
28.650115966796875 -25.474088668823242 -0.2158471643924713
28.650121688842773 -23.470478057861328 -0.2085220217704773
28.650121688842773 -21.595455169677734 -0.2019970715045929
28.297460556030273 -19.58733558654785 -0.19376464188098907
5.497618198394775 -12.330523490905762 -0.38010740280151367
29.265926361083984 -34.571754455566406 -1.2754253149032593
28.29744529724121 -32.08883285522461 -1.2046908140182495
28.650115966796875 -27.627172470092773 -1.1206964254379272
28.297460556030273 -20.445751190185547 -0.9830143451690674
28.297460556030273 -19.587324142456055 -0.9690563678741455
29.159549713134766 -19.323896408081055 -0.984995424747467
5.497617244720459 -12.330524444580078 -0.6846804618835449
21.020244598388672 -42.44375228881836 -2.4020156860351562
23.55459976196289 -41.09136962890625 -2.4020156860351562
25.132892608642578 -40.004024505615234 -2.3959429264068604
25.097169876098633 -36.576229095458984 -2.2496156692504883
25.83154296875 -36.06132888793945 -2.2496156692504883
26.55533790588379 -35.531700134277344 -2.2496156692504883
27.2683048248291 -34.9875373840332 -2.2496156692504883
27.97010612487793 -34.4290771484375 -2.2496156692504883
28.65011215209961 -31.19404411315918 -2.1479742527008057
28.650115966796875 -27.627166748046875 -2.0184595584869385
28.650115966796875 -26.530487060546875 -1.9802581071853638
28.650115966796875 -25.47409439086914 -1.944254994392395
28.650121688842773 -24.454986572265625 -1.9103039503097534
28.650121688842773 -23.470476150512695 -1.8782720565795898
28.650121688842773 -22.518068313598633 -1.848041296005249
28.650121688842773 -21.5954532623291 -1.8194997310638428
5.497615814208984 -12.330525398254395 -0.9898585081100464
14.538942337036133 -29.35679054260254 -2.4020156860351562
15.129508972167969 -29.05682945251465 -2.4020156860351562
15.713900566101074 -28.74500274658203 -2.4020156860351562
16.2918701171875 -28.421409606933594 -2.4020156860351562
17.984853744506836 -27.381505966186523 -2.4020156860351562
18.534774780273438 -27.012287139892578 -2.4020156860351562
19.07712173461914 -26.63203239440918 -2.4020156860351562
19.611671447753906 -26.240890502929688 -2.4020156860351562
20.13819122314453 -25.83901596069336 -2.4020156860351562
20.6564884185791 -25.42658233642578 -2.4020156860351562
21.66757583618164 -24.5706729888916 -2.4020156860351562
22.159915924072266 -24.127573013305664 -2.4020156860351562
23.117225646972656 -23.211977005004883 -2.4020156860351562
24.03673553466797 -22.258392333984375 -2.4020156860351562
24.66002082824707 -21.04914665222168 -2.3772478103637695
24.656112670898438 -20.19854164123535 -2.3370161056518555
24.64943504333496 -18.579877853393555 -2.263275623321533
24.869653701782227 -17.96906280517578 -2.2496719360351562
25.231550216674805 -17.465129852294922 -2.2500009536743164
5.497617244720459 -12.330524444580078 -1.2960667610168457
12.00121784210205 -21.953487396240234 -2.4020156860351562
13.310009002685547 -21.185575485229492 -2.4020156860351562
15.776037216186523 -19.41910171508789 -2.4020156860351562
16.165433883666992 -19.096166610717773 -2.4020156860351562
16.548229217529297 -18.76546287536621 -2.4020156860351562
16.924253463745117 -18.427000045776367 -2.4020156860351562
17.293338775634766 -18.081066131591797 -2.4020156860351562
17.655363082885742 -17.727733612060547 -2.4020156860351562
18.01019287109375 -17.36713981628418 -2.4020156860351562
18.357629776000977 -16.999469757080078 -2.4020156860351562
19.029884338378906 -16.243404388427734 -2.4020156860351562
19.354412078857422 -15.855329513549805 -2.4020156860351562
20.855878829956055 -13.821033477783203 -2.4020156860351562
5.497615814208984 -12.330525398254395 -1.6036968231201172
8.061925888061523 -17.14146614074707 -2.250121831893921
8.405426979064941 -16.972097396850586 -2.2497410774230957
9.69960880279541 -17.74323272705078 -2.4020156860351562
10.409006118774414 -17.336580276489258 -2.4020156860351562
10.757394790649414 -17.122587203979492 -2.4020156860351562
12.10555362701416 -16.197526931762695 -2.4020156860351562
12.430561065673828 -15.94946575164795 -2.4020156860351562
12.750493049621582 -15.69488525390625 -2.4020156860351562
13.06520938873291 -15.433886528015137 -2.4020156860351562
13.976701736450195 -14.613465309143066 -2.4020156860351562
14.556218147277832 -14.036458015441895 -2.4020156860351562
15.111677169799805 -13.43651294708252 -2.4020156860351562
15.38029956817627 -13.128231048583984 -2.4020156860351562
15.64263916015625 -12.814581871032715 -2.4020159244537354
16.147899627685547 -12.171711921691895 -2.402017116546631
16.85607147216797 -11.170440673828125 -2.40201997756958
5.49761962890625 -12.330522537231445 -1.9128655195236206
7.046329021453857 -14.227840423583984 -2.2496156692504883
7.332554817199707 -14.082468032836914 -2.2496156692504883
7.61577844619751 -13.931337356567383 -2.2496156692504883
7.895898342132568 -13.77450942993164 -2.2496156692504883
8.172765731811523 -13.612053871154785 -2.2496156692504883
8.44687271118164 -13.444915771484375 -2.2497637271881104
9.591444969177246 -13.978460311889648 -2.4020156860351562
10.42110538482666 -13.371305465698242 -2.4020156860351562
11.212719917297363 -12.714966773986816 -2.4020161628723145
11.717538833618164 -12.25127124786377 -2.402017116546631
11.962834358215332 -12.011862754821777 -2.402017831802368
12.203269004821777 -11.767539978027344 -2.4020185470581055
12.668957710266113 -11.264588356018066 -2.4020211696624756
13.93914794921875 -9.648589134216309 -2.4020211696624756
14.13137435913086 -9.364791870117188 -2.4020211696624756
5.497617244720459 -12.330524444580078 -2.224055767059326
5.811809062957764 -12.357210159301758 -2.249627113342285
6.060461521148682 -12.23717975616455 -2.249626636505127
6.306632041931152 -12.112144470214844 -2.2496261596679688
7.02928352355957 -11.707545280456543 -2.2496249675750732
7.496857643127441 -11.41378116607666 -2.249624013900757
8.490857124328613 -11.853400230407715 -2.4020187854766846
8.728800773620605 -11.679316520690918 -2.402019500732422
8.963119506835938 -11.500452995300293 -2.4020204544067383
9.193944931030273 -11.31689453125 -2.402021646499634
9.643830299377441 -10.935949325561523 -2.4020228385925293
10.289040565490723 -10.331216812133789 -2.40202260017395
10.698298454284668 -9.906805038452148 -2.402022361755371
10.896413803100586 -9.688483238220215 -2.402022361755371
11.090067863464355 -9.466193199157715 -2.402022361755371
11.279193878173828 -9.240032196044922 -2.402022123336792
11.46370792388916 -9.010096549987793 -2.402022123336792
11.818591117858887 -8.539280891418457 -2.402022123336792
11.98882007598877 -8.29858684539795 -2.402021884918213
5.311730861663818 -10.725360870361328 -2.249630928039551
7.230319499969482 -10.537349700927734 -2.4020285606384277
7.855795860290527 -10.079656600952148 -2.4020254611968994
8.0579833984375 -9.918760299682617 -2.4020252227783203
8.256875038146973 -9.753806114196777 -2.402024984359741
8.452397346496582 -9.584877967834473 -2.402024984359741
8.644453048706055 -9.412019729614258 -2.402024984359741
9.017889976501465 -9.054850578308105 -2.402024745941162
9.37658405303955 -8.68287181854248 -2.402024507522583
9.719953536987305 -8.296692848205566 -2.402024269104004
9.88571548461914 -8.098474502563477 -2.402024269104004
10.358469009399414 -7.484296798706055 -2.402024030685425
10.507668495178223 -7.273338317871094 -2.4020237922668457
10.652578353881836 -7.059412479400635 -2.4020237922668457
4.337540149688721 -9.728609085083008 -2.2515695095062256
4.576712608337402 -9.731122970581055 -2.273106575012207
4.833202838897705 -9.759130477905273 -2.302009344100952
5.398654460906982 -9.8756103515625 -2.3790628910064697
5.651257038116455 -9.858705520629883 -2.4020309448242188
6.238514423370361 -9.497983932495117 -2.4020309448242188
6.429265975952148 -9.369912147521973 -2.4020309448242188
6.617392539978027 -9.23801040649414 -2.4020307064056396
6.802812576293945 -9.10232925415039 -2.4020302295684814
6.985452651977539 -8.962928771972656 -2.4020297527313232
7.16523551940918 -8.819863319396973 -2.402029037475586
7.342092037200928 -8.673186302185059 -2.4020280838012695
7.515949726104736 -8.522980690002441 -2.402027130126953
8.018789291381836 -8.05165958404541 -2.4020252227783203
8.492138862609863 -7.550735950469971 -2.402024984359741
9.074403762817383 -6.839970588684082 -2.402024745941162
9.210844993591309 -6.65510368347168 -2.402024507522583
9.343510627746582 -6.467519283294678 -2.402024507522583
4.720110893249512 -9.065170288085938 -2.4020309448242188
5.082744121551514 -8.86693000793457 -2.4020309448242188
5.260980129241943 -8.762354850769043 -2.4020309448242188
5.437064170837402 -8.654195785522461 -2.4020309448242188
5.782490253448486 -8.427312850952148 -2.4020309448242188
6.118458271026611 -8.186647415161133 -2.4020309448242188
6.603489875793457 -7.800685405731201 -2.4020307064056396
6.759860515594482 -7.665571212768555 -2.4020304679870605
7.212116718292236 -7.241366863250732 -2.402028799057007
7.498981952667236 -6.944251537322998 -2.402027130126953
7.637844085693359 -6.791178226470947 -2.402026414871216
7.773583889007568 -6.635306358337402 -2.4020252227783203
8.03548812866211 -6.315629005432129 -2.402024984359741
8.28424072265625 -5.9856133460998535 -2.402024984359741
3.7777976989746094 -8.473167419433594 -2.4020309448242188
4.117264270782471 -8.313517570495605 -2.4020309448242188
4.284505367279053 -8.228567123413086 -2.4020309448242188
4.44999885559082 -8.140260696411133 -2.4020309448242188
4.93528938293457 -7.855387210845947 -2.4020309448242188
5.093110084533691 -7.754135608673096 -2.4020309448242188
5.402429103851318 -7.541894435882568 -2.4020309448242188
5.5538010597229 -7.431122303009033 -2.4020309448242188
5.849688529968262 -7.200522422790527 -2.4020309448242188
5.994071960449219 -7.080784797668457 -2.4020309448242188
6.546539306640625 -6.573371410369873 -2.4020307064056396
6.678103923797607 -6.439664840698242 -2.4020304679870605
6.806928634643555 -6.303329944610596 -2.4020302295684814
7.176525592803955 -5.879064083099365 -2.402029037475586
7.628026962280273 -5.2801666259765625 -2.402026414871216
7.733217716217041 -5.124910354614258 -2.4020254611968994
3.7656664848327637 -7.603570938110352 -2.4020309448242188
4.219686031341553 -7.361304759979248 -2.4020309448242188
4.367654800415039 -7.274486541748047 -2.4020309448242188
4.513835430145264 -7.184686183929443 -2.4020309448242188
4.658173561096191 -7.091958045959473 -2.4020309448242188
4.800605297088623 -6.9963250160217285 -2.4020309448242188
4.941077709197998 -6.897815227508545 -2.4020309448242188
5.350147724151611 -6.585624694824219 -2.4020309448242188
5.482199668884277 -6.476112365722656 -2.4020309448242188
5.612023830413818 -6.3639421463012695 -2.4020309448242188
5.739542007446289 -6.249238967895508 -2.4020309448242188
5.8647141456604 -6.1318583488464355 -2.4020309448242188
5.987483978271484 -6.012033462524414 -2.4020309448242188
6.225643157958984 -5.765013694763184 -2.4020309448242188
6.340927600860596 -5.637999534606934 -2.4020309448242188
6.453624248504639 -5.508643627166748 -2.4020309448242188
6.671053409576416 -5.243175029754639 -2.4020304679870605
6.976628303527832 -4.829141616821289 -2.4020297527313232
7.072840213775635 -4.687136173248291 -2.402029275894165
3.1801280975341797 -7.132664203643799 -2.4020309448242188
3.3236875534057617 -7.0669097900390625 -2.4020309448242188
3.7459826469421387 -6.852422714233398 -2.4020309448242188
4.154500484466553 -6.612732410430908 -2.4020309448242188
4.287348747253418 -6.527384281158447 -2.4020309448242188
4.418441295623779 -6.439368724822998 -2.4020309448242188
4.547730445861816 -6.3487229347229 -2.4020309448242188
5.282629489898682 -5.751650333404541 -2.4020309448242188
5.397835731506348 -5.643714427947998 -2.4020309448242188
5.510837078094482 -5.533450603485107 -2.4020309448242188
5.836143493652344 -5.189174652099609 -2.4020309448242188
5.939870357513428 -5.070157527923584 -2.4020309448242188
6.139987468719482 -4.825852394104004 -2.4020309448242188
3.0754454135894775 -6.539087772369385 -2.4020309448242188
3.2070250511169434 -6.47557258605957 -2.4020309448242188
3.466198682785034 -6.340622901916504 -2.4020309448242188
3.719705820083618 -6.195306301116943 -2.4020309448242188
3.844205141067505 -6.118833541870117 -2.4020309448242188
4.088433742523193 -5.958418369293213 -2.4020309448242188
4.208065032958984 -5.874540328979492 -2.4020309448242188
4.325976371765137 -5.7882609367370605 -2.4020309448242188
4.556446552276611 -5.608649730682373 -2.4020309448242188
4.668912410736084 -5.515376567840576 -2.4020309448242188
4.88807487487793 -5.3221001625061035 -2.4020309448242188
4.99467658996582 -5.222175598144531 -2.4020309448242188
5.099238395690918 -5.120134353637695 -2.4020309448242188
5.201716423034668 -5.015969276428223 -2.4020309448242188
5.496222972869873 -4.691429138183594 -2.4020309448242188
5.681398868560791 -4.465434551239014 -2.4020309448242188
5.857277870178223 -4.232059001922607 -2.4020309448242188
5.94164514541626 -4.112814426422119 -2.4020309448242188
6.023583889007568 -3.991809368133545 -2.4020309448242188
2.858708381652832 -6.078258991241455 -2.4020309448242188
3.5732922554016113 -5.687620639801025 -2.4020309448242188
3.8003110885620117 -5.538509845733643 -2.4020309448242188
4.021109580993652 -5.380341053009033 -2.4020309448242188
4.235340595245361 -5.213380813598633 -2.4020309448242188
4.442647457122803 -5.037889003753662 -2.4020309448242188
4.642685413360596 -4.854165554046631 -2.4020309448242188
5.019675254821777 -4.46321964263916 -2.4020309448242188
5.108889102935791 -4.360766887664795 -2.4020309448242188
5.1960129737854 -4.256605625152588 -2.4020309448242188
5.363853454589844 -4.043084144592285 -2.4020309448242188
5.444497108459473 -3.933809518814087 -2.4020309448242188
2.667658567428589 -5.672043323516846 -2.4020309448242188
2.7817931175231934 -5.616949558258057 -2.4020309448242188
3.1171863079071045 -5.4379801750183105 -2.4020309448242188
3.2264952659606934 -5.373844623565674 -2.4020309448242188
3.334487199783325 -5.307512283325195 -2.4020309448242188
3.441113233566284 -5.239009857177734 -2.4020309448242188
3.7523765563964844 -5.020772457122803 -2.4020309448242188
4.049842357635498 -4.784063816070557 -2.4020309448242188
4.239943981170654 -4.616422176361084 -2.4020309448242188
4.599040508270264 -4.258790016174316 -2.4020309448242188
4.684207439422607 -4.164936542510986 -2.4020309448242188
4.767457008361816 -4.0693888664245605 -2.4020309448242188
5.080636978149414 -3.6709136962890625 -2.4020309448242188
5.153817176818848 -3.567427396774292 -2.4020309448242188
2.3899316787719727 -5.360343933105469 -2.4020309448242188
2.710489511489868 -5.205604076385498 -2.4020309448242188
3.0210766792297363 -5.03171443939209 -2.4020309448242188
3.1221923828125 -4.969605445861816 -2.4020309448242188
3.2220311164855957 -4.905464172363281 -2.4020309448242188
3.3205504417419434 -4.839317321777344 -2.4020309448242188
3.6078076362609863 -4.629122734069824 -2.4020309448242188
3.792004346847534 -4.479482173919678 -2.4020309448242188
3.970003604888916 -4.322513103485107 -2.4020309448242188
4.224738597869873 -4.073896884918213 -2.4020309448242188
4.385981559753418 -3.8997721672058105 -2.4020309448242188
4.540058612823486 -3.7192606925964355 -2.4020309448242188
4.614328384399414 -3.62671160697937 -2.4020309448242188
2.545414924621582 -4.888574600219727 -2.4020309448242188
2.643732786178589 -4.836111545562744 -2.4020309448242188
3.025804281234741 -4.606713771820068 -2.4020309448242188
3.118323802947998 -4.5445966720581055 -2.4020309448242188
3.2095677852630615 -4.480621337890625 -2.4020309448242188
3.3880858421325684 -4.347202777862549 -2.4020309448242188
3.475285530090332 -4.27781343460083 -2.4020309448242188
3.561065673828125 -4.20667028427124 -2.4020309448242188
3.8095312118530273 -3.983060121536255 -2.4020309448242188
3.9674460887908936 -3.8257904052734375 -2.4020309448242188
4.043982028961182 -3.7447962760925293 -2.4020309448242188
4.192072868347168 -3.5782437324523926 -2.4020309448242188
4.401281833648682 -3.3175201416015625 -2.4020309448242188
4.467455863952637 -3.227871894836426 -2.4020309448242188
2.208531379699707 -4.695828914642334 -2.4020309448242188
2.3030200004577637 -4.650222301483154 -2.4020309448242188
2.489138126373291 -4.553310871124268 -2.4020309448242188
2.5806884765625 -4.502053737640381 -2.4020309448242188
2.7605884075164795 -4.394039630889893 -2.4020309448242188
3.0218822956085205 -4.218608379364014 -2.4020309448242188
3.106555223464966 -4.156650066375732 -2.4020309448242188
3.2720603942871094 -4.027660846710205 -2.4020309448242188
3.352825880050659 -3.9606809616088867 -2.4020309448242188
3.5102109909057617 -3.821895122528076 -2.4020309448242188
3.6618492603302 -3.6768577098846436 -2.4020309448242188
3.7354419231414795 -3.60206937789917 -2.4020309448242188
3.807502269744873 -3.5258119106292725 -2.4020309448242188
4.014243125915527 -3.288508892059326 -2.4020309448242188
4.079909801483154 -3.2066760063171387 -2.4020309448242188
4.143908500671387 -3.12353253364563 -2.4020309448242188
4.206213474273682 -3.0391342639923096 -2.4020309448242188
4.266799449920654 -2.9534554481506348 -2.4020309448242188
1.9940698146820068 -4.472476482391357 -2.4020309448242188
2.0840904712677 -4.431245803833008 -2.4020309448242188
2.3488855361938477 -4.296755313873291 -2.4020309448242188
2.605039119720459 -4.146464824676514 -2.4020309448242188
2.6883459091186523 -4.092940807342529 -2.4020309448242188
3.010223388671875 -3.862372636795044 -2.4020309448242188
3.087697744369507 -3.8007218837738037 -2.4020309448242188
3.1639111042022705 -3.7375171184539795 -2.4020309448242188
3.3124279975891113 -3.606548309326172 -2.4020309448242188
3.3846654891967773 -3.5388407707214355 -2.4020309448242188
3.4555234909057617 -3.4696874618530273 -2.4020309448242188
3.6595029830932617 -3.2538280487060547 -2.4020309448242188
3.724543333053589 -3.1791698932647705 -2.4020309448242188
3.850026845932007 -3.025995969772339 -2.4020309448242188
1.885463833808899 -4.228877067565918 -2.4020309448242188
1.9705785512924194 -4.189891338348389 -2.4020309448242188
2.3026416301727295 -4.016992092132568 -2.4020309448242188
2.463157892227173 -3.920616388320923 -2.4020309448242188
2.696298837661743 -3.7640862464904785 -2.4020309448242188
2.991581916809082 -3.5339536666870117 -2.4020309448242188
3.0624279975891113 -3.4727354049682617 -2.4020309448242188
3.132014036178589 -3.410111427307129 -2.4020309448242188
3.2673144340515137 -3.280707359313965 -2.4020309448242188
3.332977294921875 -3.213975429534912 -2.4020309448242188
3.460184335708618 -3.076603889465332 -2.4020309448242188
3.5817394256591797 -2.9341986179351807 -2.4020309448242188
3.640331983566284 -2.86118221282959 -2.4020309448242188
3.7530248165130615 -2.711672306060791 -2.4020309448242188
3.8070836067199707 -2.6352410316467285 -2.4020309448242188
1.8665099143981934 -3.9686248302459717 -2.4020309448242188
1.9463671445846558 -3.9300765991210938 -2.4020309448242188
2.0254297256469727 -3.889920473098755 -2.4020309448242188
2.1036620140075684 -3.8481743335723877 -2.4020309448242188
2.4076831340789795 -3.665639638900757 -2.4020309448242188
2.553906202316284 -3.565305709838867 -2.4020309448242188
2.625467538833618 -3.512941598892212 -2.4020309448242188
2.695955753326416 -3.4591424465179443 -2.4020309448242188
2.7653417587280273 -3.40392804145813 -2.4020309448242188
2.8335986137390137 -3.3473217487335205 -2.4020309448242188
2.9666099548339844 -3.2300267219543457 -2.4020309448242188
3.0313072204589844 -3.1693882942199707 -2.4020309448242188
3.094766855239868 -3.107452392578125 -2.4020309448242188
3.277447462081909 -2.914137601852417 -2.4020309448242188
3.5021703243255615 -2.639821767807007 -2.4020309448242188
3.606030225753784 -2.496073007583618 -2.4020309448242188
1.7706676721572876 -3.764836311340332 -2.4020309448242188
1.8464244604110718 -3.728268623352051 -2.4020309448242188
1.921423316001892 -3.690173864364624 -2.4020309448242188
1.9956408739089966 -3.650571823120117 -2.4020309448242188
2.1416015625 -3.5669004917144775 -2.4020309448242188
2.213277578353882 -3.5228774547576904 -2.4020309448242188
2.284045457839966 -3.477415084838867 -2.4020309448242188
2.353888988494873 -3.430518627166748 -2.4020309448242188
2.422764778137207 -3.382230758666992 -2.4020309448242188
2.623331308364868 -3.229149103164673 -2.4020309448242188
2.6880908012390137 -3.1754400730133057 -2.4020309448242188
2.7517430782318115 -3.1204447746276855 -2.4020309448242188
2.9358410835266113 -2.94789719581604 -2.4020309448242188
3.1644139289855957 -2.7010650634765625 -2.4020309448242188
3.2710325717926025 -2.570918321609497 -2.4020309448242188
3.322333812713623 -2.5042669773101807 -2.4020309448242188
3.3722898960113525 -2.4365792274475098 -2.4020309448242188
3.4208617210388184 -2.3679003715515137 -2.4020309448242188
3.4680371284484863 -2.298253059387207 -2.4020309448242188
