ply
format ascii 1.0
element vertex 274
property float x
property float y
property float z
end_header
-20.177658081054688 -42.684226989746094 -1.3294165134429932
-4.183433532714844 -20.49710464477539 -0.5890510678291321
-3.758038282394409 -20.499237060546875 -0.58683180809021
-3.336090087890625 -20.50396728515625 -0.5849377512931824
-2.9161217212677 -20.50464630126953 -0.5831744074821472
-2.4986987113952637 -20.50686264038086 -0.5816981196403503
-4.3659772872924805 -42.98273468017578 -1.2165250778198242
-3.4856529235839844 -42.82889175415039 -1.2099529504776
-2.6232824325561523 -42.820594787597656 -1.207992672920227
-0.9150658845901489 -43.2725830078125 -1.21873140335083
-18.780677795410156 -39.72898483276367 -2.2286057472229004
-10.956564903259277 -25.80358123779297 -1.421693205833435
-9.166038513183594 -25.79047966003418 -1.388094186782837
-7.471089839935303 -25.843473434448242 -1.364301085472107
-6.926985263824463 -25.893550872802734 -1.3593499660491943
-5.0250468254089355 -20.412460327148438 -1.066109538078308
-3.293485641479492 -20.242074966430664 -1.040061116218567
-2.8802506923675537 -20.252445220947266 -1.0374228954315186
-2.4684252738952637 -20.25840950012207 -1.0349891185760498
-2.058117628097534 -20.262025833129883 -1.032861351966858
-1.6502392292022705 -20.27674102783203 -1.0317202806472778
-0.8820043802261353 -21.41405487060547 -1.0869190692901611
-0.9364038109779358 -44.2813720703125 -2.2461998462677
-0.04972900450229645 -44.30718994140625 -2.2470085620880127
-12.472103118896484 -27.811527252197266 -2.2348639965057373
-10.958971977233887 -25.809255599975586 -2.0559213161468506
-10.338720321655273 -25.77079200744629 -2.0359580516815186
-9.742938995361328 -25.766889572143555 -2.019831895828247
-9.1566162109375 -25.763961791992188 -2.0048277378082275
-7.893826007843018 -29.50765609741211 -2.2396457195281982
-4.102853298187256 -20.102275848388672 -1.5043282508850098
-3.686500072479248 -20.1090087890625 -1.4990078210830688
-3.275616407394409 -20.132280349731445 -1.4955532550811768
-2.453233480453491 -20.13372039794922 -1.4871660470962524
-1.6562817096710205 -20.351001739501953 -1.4971129894256592
-1.246920108795166 -20.353824615478516 -1.495184302330017
-0.8264965415000916 -20.066486358642578 -1.4725655317306519
-8.681599617004395 -21.640178680419922 -2.238518714904785
-7.810947895050049 -21.9776611328125 -2.2392613887786865
-7.37064790725708 -22.133392333984375 -2.239642381668091
-6.926478862762451 -22.27781105041504 -2.2397727966308594
-6.480965614318848 -22.418514251708984 -2.240422248840332
-5.126340389251709 -22.779447555541992 -2.241635322570801
-4.10444450378418 -20.110084533691406 -1.9704715013504028
-3.677408456802368 -20.059415817260742 -1.9578993320465088
-2.043581485748291 -20.11891746520996 -1.9414561986923218
-1.634377360343933 -20.081872940063477 -1.9343352317810059
-7.026302337646484 -17.51408576965332 -2.241600275039673
-6.675148010253906 -17.653587341308594 -2.241898775100708
-5.96473503112793 -17.911544799804688 -2.242511034011841
-3.8532049655914307 -12.393147468566895 -1.5416455268859863
-4.880878925323486 -18.245052337646484 -2.2434659004211426
-4.515297889709473 -18.341787338256836 -2.243793487548828
-4.1478095054626465 -18.431238174438477 -2.2441256046295166
-3.0353362560272217 -18.655467987060547 -2.245147466659546
-2.6616601943969727 -18.715404510498047 -2.2454957962036133
-1.910921573638916 -18.812883377075195 -2.246204137802124
-1.534151554107666 -18.850385665893555 -2.24656343460083
-1.1566540002822876 -18.880367279052734 -2.2469263076782227
-0.40004515647888184 -18.917720794677734 -2.247661590576172
-0.021241454407572746 -18.925071716308594 -2.2480335235595703
-6.765383720397949 -14.311626434326172 -2.2429614067077637
-6.188422679901123 -14.57421588897705 -2.2434582710266113
-5.896059036254883 -14.696795463562012 -2.2437045574188232
-5.601276874542236 -14.813542366027832 -2.243955135345459
-4.703593730926514 -15.12829303741455 -2.244732618331909
-4.095200538635254 -15.30813217163086 -2.2452712059020996
-3.7883763313293457 -15.388933181762695 -2.245546340942383
-3.1700944900512695 -15.532135963439941 -2.246107578277588
-1.9183776378631592 -15.744110107421875 -2.2472712993621826
-0.9702233672142029 -15.837247848510742 -2.248176336288452
-0.3355468809604645 -15.867745399475098 -2.248793363571167
-4.820497512817383 -12.748661994934082 -2.245327949523926
-4.307190895080566 -12.934134483337402 -2.245800018310547
-3.853332996368408 -12.39357852935791 -2.138115882873535
-3.524184465408325 -13.17364501953125 -2.246530771255493
-3.2601091861724854 -13.243029594421387 -2.2467803955078125
-2.7279698848724365 -13.365933418273926 -2.2472872734069824
-2.460125684738159 -13.41940689086914 -2.247544765472412
-2.015589475631714 -12.388012886047363 -2.0676279067993164
-1.9213842153549194 -13.510173797607422 -2.2480504512786865
-1.6507201194763184 -13.547464370727539 -2.248305082321167
-0.2887060344219208 -13.652562141418457 -2.24961519241333
-4.90159797668457 -10.930062294006348 -2.251546859741211
-4.013246536254883 -11.292068481445312 -2.252528429031372
-3.558663845062256 -11.445826530456543 -2.2529516220092773
-3.0981364250183105 -11.581039428710938 -2.253328561782837
-2.1623241901397705 -11.794981002807617 -2.2539420127868652
-1.6882762908935547 -11.872218132019043 -2.253966808319092
-0.732037365436554 -11.95153522491455 -2.2506330013275146
-0.4927917420864105 -11.961729049682617 -2.2502429485321045
-0.01372558530420065 -11.972265243530273 -2.2503175735473633
-4.355233192443848 -9.710832595825195 -2.249630928039551
-3.7640881538391113 -9.954812049865723 -2.2496495246887207
-3.3626232147216797 -10.097636222839355 -2.2496767044067383
-2.9560344219207764 -10.225312232971191 -2.249932050704956
-2.7509191036224365 -10.283181190490723 -2.250093936920166
-2.3373827934265137 -10.38641357421875 -2.250386953353882
-1.9199475049972534 -10.47282600402832 -2.2506377696990967
-1.499294400215149 -10.542266845703125 -2.2508461475372314
-1.076147437095642 -10.594614028930664 -2.251011848449707
-0.2251635640859604 -10.647703170776367 -2.251214027404785
-4.1821417808532715 -9.325611114501953 -2.4020309448242188
-3.9945085048675537 -9.407463073730469 -2.4020309448242188
-3.8054094314575195 -9.485547065734863 -2.4020309448242188
-3.614748954772949 -9.559831619262695 -2.4020309448242188
-3.422640323638916 -9.630280494689941 -2.4020309448242188
-3.0068626403808594 -9.671018600463867 -2.3802361488342285
-2.588731527328491 -9.676848411560059 -2.3542559146881104
-1.9765245914459229 -9.684141159057617 -2.3229169845581055
-1.7757360935211182 -9.686203956604004 -2.3144187927246094
-0.7889465093612671 -9.693900108337402 -2.2858223915100098
-0.5939342975616455 -9.694934844970703 -2.282804250717163
-0.3993505835533142 -9.69580364227295 -2.2806684970855713
-3.7961266040802 -8.46497631072998 -2.4020309448242188
-3.6258983612060547 -8.539277076721191 -2.4020309448242188
-3.1068170070648193 -8.741531372070312 -2.4020309448242188
-2.754343271255493 -8.858890533447266 -2.4020309448242188
-2.3975110054016113 -8.962044715881348 -2.4020309448242188
-1.8552197217941284 -9.089799880981445 -2.4020309448242188
-1.6728698015213013 -9.12511920928955 -2.4020309448242188
-0.567303478717804 -9.25983715057373 -2.4020309448242188
-0.19614745676517487 -9.275123596191406 -2.4020309448242188
-0.010395507328212261 -9.277192115783691 -2.4020309448242188
-3.4719512462615967 -7.742099285125732 -2.4020309448242188
-3.000958204269409 -7.936548709869385 -2.4020309448242188
-2.841468334197998 -7.995037078857422 -2.4020309448242188
-2.3564257621765137 -8.15118408203125 -2.4020309448242188
-1.862886905670166 -8.277935028076172 -2.4020309448242188
-1.6967906951904297 -8.313570976257324 -2.4020309448242188
-1.5300121307373047 -8.345865249633789 -2.4020309448242188
-1.1946898698806763 -8.400431632995605 -2.4020309448242188
-0.8574486970901489 -8.44152545928955 -2.4020309448242188
-0.6882787942886353 -8.456991195678711 -2.4020309448242188
-0.34918212890625 -8.477763175964355 -2.4020309448242188
-3.337571859359741 -7.06036376953125 -2.4020309448242188
-3.1955578327178955 -7.125767707824707 -2.4020309448242188
-2.907742738723755 -7.247975826263428 -2.4020309448242188
-2.168835401535034 -7.502285480499268 -2.4020309448242188
-1.8667712211608887 -7.583091735839844 -2.4020309448242188
-1.7145861387252808 -7.618945121765137 -2.4020309448242188
-1.561712622642517 -7.651742935180664 -2.4020309448242188
-1.254150390625 -7.708125591278076 -2.4020309448242188
-0.4775317311286926 -7.7948737144470215 -2.4020309448242188
-3.0882866382598877 -6.533030986785889 -2.4020309448242188
-2.956876039505005 -6.593547821044922 -2.4020309448242188
-2.8242876529693604 -6.651422500610352 -2.4020309448242188
-2.4199328422546387 -6.808962821960449 -2.4020309448242188
-2.2831335067749023 -6.856044292449951 -2.4020309448242188
-2.1454222202301025 -6.9003777503967285 -2.4020309448242188
-1.5865246057510376 -7.049890518188477 -2.4020309448242188
-1.445068359375 -7.080242156982422 -2.4020309448242188
-0.8740258812904358 -7.17315149307251 -2.4020309448242188
-0.7302441000938416 -7.189213275909424 -2.4020309448242188
-0.5861730575561523 -7.202391147613525 -2.4020309448242188
-0.15277709066867828 -7.224588871002197 -2.4020309448242188
-0.00811035092920065 -7.226201057434082 -2.4020309448242188
-2.8706560134887695 -6.0726318359375 -2.4020309448242188
-2.7485034465789795 -6.128880977630615 -2.4020309448242188
-2.6252551078796387 -6.18267822265625 -2.4020309448242188
-2.5009520053863525 -6.233994483947754 -2.4020309448242188
-2.3756494522094727 -6.282813549041748 -2.4020309448242188
-2.2493896484375 -6.329113483428955 -2.4020309448242188
-2.122232675552368 -6.37287712097168 -2.4020309448242188
-1.9942272901535034 -6.41408634185791 -2.4020309448242188
-1.8654186725616455 -6.452724933624268 -2.4020309448242188
-1.7358641624450684 -6.488776683807373 -2.4020309448242188
-1.6056139469146729 -6.522227764129639 -2.4020309448242188
-1.343231201171875 -6.58127498626709 -2.4020309448242188
-1.211208462715149 -6.606847286224365 -2.4020309448242188
-1.0786962509155273 -6.629770755767822 -2.4020309448242188
-0.9457531571388245 -6.650038242340088 -2.4020309448242188
-0.6787829399108887 -6.682567119598389 -2.4020309448242188
-0.5448632836341858 -6.694817543029785 -2.4020309448242188
-0.41072508692741394 -6.70438289642334 -2.4020309448242188
-0.2764245569705963 -6.711262226104736 -2.4020309448242188
-0.14200927317142487 -6.715450763702393 -2.4020309448242188
-2.678807258605957 -5.6667914390563965 -2.4020309448242188
-2.449808359146118 -5.769484043121338 -2.4020309448242188
-2.3338146209716797 -5.817370891571045 -2.4020309448242188
-1.980406403541565 -5.946972370147705 -2.4020309448242188
-1.7407445907592773 -6.021484375 -2.4020309448242188
-1.4983092546463013 -6.086341381072998 -2.4020309448242188
-1.2534606456756592 -6.141442775726318 -2.4020309448242188
-0.758135974407196 -6.2220354080200195 -2.4020309448242188
-0.5084484815597534 -6.247395992279053 -2.4020309448242188
-0.13251830637454987 -6.266650676727295 -2.4020309448242188
-2.293835401535034 -5.402163982391357 -2.4020309448242188
-2.1852269172668457 -5.447002410888672 -2.4020309448242188
-1.8543249368667603 -5.56835412979126 -2.4020309448242188
-1.7424743175506592 -5.604360103607178 -2.4020309448242188
-1.6299206018447876 -5.638120651245117 -2.4020309448242188
-1.516719937324524 -5.669621467590332 -2.4020309448242188
-1.4029161930084229 -5.698849201202393 -2.4020309448242188
-1.1736645698547363 -5.750442981719971 -2.4020309448242188
-0.9425085186958313 -5.792815208435059 -2.4020309448242188
-0.4760778844356537 -5.849651336669922 -2.4020309448242188
-0.24152831733226776 -5.864019870758057 -2.4020309448242188
-0.12408080697059631 -5.867679119110107 -2.4020309448242188
-2.355499267578125 -4.9828667640686035 -2.4020309448242188
-2.2552709579467773 -5.029022216796875 -2.4020309448242188
-2.154136896133423 -5.073164463043213 -2.4020309448242188
-1.8457287549972534 -5.193322658538818 -2.4020309448242188
-1.7413891553878784 -5.2292327880859375 -2.4020309448242188
-1.5306494235992432 -5.294750690460205 -2.4020309448242188
-1.4243590831756592 -5.3243327140808105 -2.4020309448242188
-1.3174731731414795 -5.351781368255615 -2.4020309448242188
-1.2100707292556763 -5.377083778381348 -2.4020309448242188
-1.1022485494613647 -5.4002366065979 -2.4020309448242188
-0.8851232528686523 -5.440025329589844 -2.4020309448242188
-0.6665905714035034 -5.471094131469727 -2.4020309448242188
-0.5569714307785034 -5.483346462249756 -2.4020309448242188
-0.11651611328125 -5.510328769683838 -2.4020309448242188
-0.006185302510857582 -5.511557579040527 -2.4020309448242188
-2.0281713008880615 -4.7765021324157715 -2.4020309448242188
-1.7377978563308716 -4.8896331787109375 -2.4020309448242188
-1.639559268951416 -4.923442363739014 -2.4020309448242188
-1.139312744140625 -5.062650680541992 -2.4020309448242188
-0.9357311725616455 -5.104198932647705 -2.4020309448242188
-0.833358108997345 -5.121909141540527 -2.4020309448242188
-0.7306530475616455 -5.137568473815918 -2.4020309448242188
-0.5244006514549255 -5.162697792053223 -2.4020309448242188
-0.4209387004375458 -5.172161102294922 -2.4020309448242188
-0.1097094714641571 -5.188103675842285 -2.4020309448242188
-1.9138952493667603 -4.507370471954346 -2.4020309448242188
-1.8232775926589966 -4.544782638549805 -2.4020309448242188
-1.6398828029632568 -4.614128112792969 -2.4020309448242188
-1.547210693359375 -4.646048069000244 -2.4020309448242188
-1.453857421875 -4.676075458526611 -2.4020309448242188
-1.359951138496399 -4.7042436599731445 -2.4020309448242188
-0.9792602062225342 -4.79796028137207 -2.4020309448242188
-0.88301020860672 -4.816603660583496 -2.4020309448242188
-0.7864050269126892 -4.833316326141357 -2.4020309448242188
-0.49485594034194946 -4.871805191040039 -2.4020309448242188
-0.397224098443985 -4.880736351013184 -2.4020309448242188
-0.2994335889816284 -4.887711048126221 -2.4020309448242188
-0.20152343809604645 -4.892725944519043 -2.4020309448242188
-0.005496826022863388 -4.8968706130981445 -2.4020309448242188
-1.8946093320846558 -4.224788188934326 -2.4020309448242188
-1.6375927925109863 -4.330897331237793 -2.4020309448242188
-1.550563931465149 -4.362812519073486 -2.4020309448242188
-1.4629101753234863 -4.392980098724365 -2.4020309448242188
-1.3746715784072876 -4.42138671875 -2.4020309448242188
-1.2858800888061523 -4.448020935058594 -2.4020309448242188
-1.1965868473052979 -4.472878932952881 -2.4020309448242188
-1.1067882776260376 -4.495931148529053 -2.4020309448242188
-1.0165600776672363 -4.51718807220459 -2.4020309448242188
-0.467902809381485 -4.606456756591797 -2.4020309448242188
-0.3755883574485779 -4.614901065826416 -2.4020309448242188
-0.28312498331069946 -4.621494770050049 -2.4020309448242188
-1.6329259872436523 -4.070308208465576 -2.4020309448242188
-1.4686791896820068 -4.132413387298584 -2.4020309448242188
-1.385653018951416 -4.160987377166748 -2.4020309448242188
-0.9628759622573853 -4.278635025024414 -2.4020309448242188
-0.7043041586875916 -4.32871675491333 -2.4020309448242188
-0.5304540991783142 -4.353442668914795 -2.4020309448242188
-0.44319334626197815 -4.363189697265625 -2.4020309448242188
-0.26817259192466736 -4.377433776855469 -2.4020309448242188
-0.09271972626447678 -4.384659767150879 -2.4020309448242188
-1.7780652046203613 -3.7613513469696045 -2.4020309448242188
-1.6260485649108887 -3.8295066356658936 -2.4020309448242188
-1.549074649810791 -3.861297607421875 -2.4020309448242188
-1.2352136373519897 -3.972846031188965 -2.4020309448242188
-1.1554027795791626 -3.9967687129974365 -2.4020309448242188
-0.9945092797279358 -4.039828300476074 -2.4020309448242188
-0.9134325981140137 -4.058928966522217 -2.4020309448242188
-0.7502148151397705 -4.092241287231445 -2.4020309448242188
-0.6681408286094666 -4.106439590454102 -2.4020309448242188
-0.5032482743263245 -4.129912376403809 -2.4020309448242188
-0.4204345643520355 -4.139141082763672 -2.4020309448242188
-0.2544006407260895 -4.15265417098999 -2.4020309448242188
-0.17121581733226776 -4.156913757324219 -2.4020309448242188
-0.08795898407697678 -4.159511089324951 -2.4020309448242188
-0.004669189453125 -4.160438060760498 -2.4020309448242188
