ply
format ascii 1.0
element vertex 400
property float x
property float y
property float z
end_header
29.1146183013916 -20.573331832885742 6.286055564880371
28.98287010192871 -19.628427505493164 6.172152519226074
31.089872360229492 -19.299108505249023 6.452301979064941
29.96302604675293 -17.784578323364258 6.143857479095459
30.551786422729492 -17.322364807128906 6.192756175994873
31.212533950805664 -16.88625144958496 6.257413864135742
31.301176071166992 -16.138444900512695 6.209645748138428
33.3342170715332 -13.185352325439453 6.320831775665283
33.29405212402344 -10.195735931396484 6.139740943908691
33.29405212402344 -9.476250648498535 6.103799819946289
33.33420944213867 -7.372513294219971 6.019758701324463
29.1146183013916 -20.57332992553711 5.461380958557129
21.871196746826172 -13.5765962600708 3.9436023235321045
29.606815338134766 -17.573148727416992 5.274379730224609
31.296581268310547 -17.744653701782227 5.511483669281006
31.19354820251465 -16.8759765625 5.433189392089844
31.76413917541504 -16.377140045166016 5.474790096282959
33.334224700927734 -15.542234420776367 5.634413719177246
33.31386184692383 -14.734001159667969 5.580367088317871
33.3342170715332 -13.95770263671875 5.53620719909668
33.3342170715332 -13.185359001159668 5.491593360900879
33.33421325683594 -12.425065994262695 5.449830055236816
33.33421325683594 -11.675956726074219 5.410816669464111
33.315673828125 -10.202352523803711 5.337724685668945
33.33420944213867 -9.487679481506348 5.3094305992126465
33.33350372314453 -7.37235689163208 5.229910373687744
33.33420181274414 -6.680531978607178 5.208156585693359
33.33420181274414 -5.994051456451416 5.188515663146973
33.33420181274414 -5.312458515167236 5.171058177947998
28.982860565185547 -19.628427505493164 4.558252334594727
30.261215209960938 -19.628429412841797 4.6970133781433105
29.659252166748047 -17.60426902770996 4.491355895996094
31.393583297729492 -16.984195709228516 4.648025989532471
31.778348922729492 -16.384469985961914 4.655853748321533
33.334224700927734 -15.542241096496582 4.789455890655518
33.31386184692383 -14.734001159667969 4.743509292602539
33.33421325683594 -12.42506217956543 4.632553577423096
33.33421325683594 -11.675959587097168 4.599390983581543
33.33421325683594 -10.93720817565918 4.568492412567139
33.29405212402344 -10.195731163024902 4.534316539764404
33.29405212402344 -9.476248741149902 4.507772922515869
33.29405212402344 -8.06086540222168 4.460841178894043
33.29404830932617 -7.363631248474121 4.440352916717529
33.29404830932617 -6.6724853515625 4.421789646148682
33.29404830932617 -5.986828327178955 4.405114650726318
28.5331974029541 -19.323896408081055 3.7004754543304443
30.12187957763672 -18.698223114013672 3.8070592880249023
29.93528175354004 -17.768108367919922 3.73809814453125
30.863544464111328 -17.499122619628906 3.809826612472534
26.163469314575195 -13.48951244354248 3.1609222888946533
32.38992691040039 -15.101940155029297 3.837566375732422
32.38992691040039 -14.325343132019043 3.803077220916748
33.2940559387207 -13.16946792602539 3.844700813293457
36.48776626586914 -11.971894264221191 4.123632907867432
36.48776626586914 -11.173736572265625 4.097721576690674
36.48777389526367 -8.83408260345459 4.031322002410889
36.48777770996094 -7.3125224113464355 3.9960289001464844
36.48777770996094 -5.8150248527526855 3.967566967010498
36.4877815246582 -5.073663711547852 3.955820322036743
28.377777099609375 -20.052658081054688 2.941495895385742
29.778202056884766 -17.67487144470215 2.9314117431640625
31.729549407958984 -16.35930824279785 3.0219879150390625
32.38992691040039 -15.10193920135498 3.025287389755249
34.25880813598633 -13.551054000854492 3.1187357902526855
29.791717529296875 -19.323898315429688 2.2019855976104736
31.197021484375 -17.688194274902344 2.223851442337036
32.38992691040039 -16.699790954589844 2.2597551345825195
32.38992691040039 -15.101937294006348 2.216099262237549
34.25880432128906 -13.551054000854492 2.2845535278320312
38.45827865600586 -13.470742225646973 2.526893138885498
41.30070877075195 -13.551055908203125 2.6954028606414795
28.297460556030273 -19.99589729309082 1.3662611246109009
29.791723251342773 -19.323898315429688 1.400194764137268
31.129804611206055 -19.32390022277832 1.444745659828186
31.827186584472656 -17.218780517578125 1.426866888999939
32.38992691040039 -15.101943016052246 1.4091694355010986
32.38992691040039 -13.562284469604492 1.3846086263656616
34.055755615234375 -13.47074031829834 1.4440876245498657
38.45827865600586 -13.470742225646973 1.6067835092544556
28.5331974029541 -19.323896408081055 0.5821064710617065
29.79170799255371 -19.323896408081055 0.5998268127441406
32.38992691040039 -19.22506332397461 0.6362419128417969
31.152000427246094 -17.662675857543945 0.6049088835716248
32.38992691040039 -15.893071174621582 0.6094388961791992
32.38992691040039 -14.325345039367676 0.5982465744018555
32.38992691040039 -13.562286376953125 0.5931480526924133
34.055755615234375 -13.470742225646973 0.6186302304267883
29.79171371459961 -19.323896408081055 -0.19992811977863312
31.12980842590332 -19.32390022277832 -0.20628951489925385
32.38992691040039 -18.36455535888672 -0.2096351534128189
32.38992691040039 -17.52322769165039 -0.20733870565891266
32.38992691040039 -16.699790954589844 -0.20517440140247345
32.38992691040039 -15.893074989318848 -0.20313246548175812
32.38992691040039 -14.325345039367676 -0.19940169155597687
35.74529266357422 -14.139033317565918 -0.21642501652240753
38.987831115722656 -13.656228065490723 -0.23258498311042786
41.22276306152344 -13.525483131408691 -0.24426589906215668
29.791717529296875 -19.323896408081055 -0.9998818635940552
31.12980842590332 -19.32390022277832 -1.0316959619522095
32.38992691040039 -19.225065231323242 -1.0605841875076294
32.38992691040039 -16.699792861938477 -1.0261149406433105
32.38992691040039 -15.893075942993164 -1.0159052610397339
32.38992691040039 -13.562284469604492 -0.9887477159500122
41.22276306152344 -13.525482177734375 -1.221623182296753
28.533193588256836 -19.323896408081055 -1.7476612329483032
29.79171371459961 -19.323898315429688 -1.8008631467819214
32.38992691040039 -19.225065231323242 -1.9101938009262085
31.367826461791992 -16.970264434814453 -1.8086810111999512
32.38992691040039 -16.699792861938477 -1.8481101989746094
32.38992691040039 -15.893073081970215 -1.829722285270691
32.38992691040039 -15.10194206237793 -1.8124059438705444
32.38992691040039 -14.325347900390625 -1.796118140220642
35.74528884887695 -14.139033317565918 -1.9494602680206299
37.93254852294922 -14.139033317565918 -2.053011655807495
38.987831115722656 -13.656228065490723 -2.0950233936309814
41.22276306152344 -13.525483131408691 -2.2002367973327637
42.49625015258789 -13.013751029968262 -2.2539594173431396
42.717735290527344 -12.158430099487305 -2.2524404525756836
46.44055938720703 -9.307168006896973 -2.4020309448242188
46.91265106201172 -6.523256778717041 -2.4020309448242188
25.409082412719727 -17.20810890197754 -2.250094413757324
25.74803352355957 -16.70103645324707 -2.2502686977386475
26.39666175842285 -15.667760848999023 -2.250718355178833
26.70536231994629 -15.141510009765625 -2.250932455062866
26.985212326049805 -14.59923267364502 -2.2496156692504883
27.544078826904297 -13.515315055847168 -2.2496161460876465
27.80725860595703 -12.965240478515625 -2.2496187686920166
28.530574798583984 -11.28518295288086 -2.2496299743652344
29.853710174560547 -10.456830024719238 -2.319333076477051
31.680564880371094 -8.340089797973633 -2.4020309448242188
31.986976623535156 -7.074528694152832 -2.4020309448242188
32.35169982910156 -5.155864715576172 -2.4020309448242188
32.44777297973633 -4.511900424957275 -2.4020309448242188
20.71596336364746 -14.029732704162598 -2.4020156860351562
21.257137298583984 -13.195412635803223 -2.4020159244537354
22.005615234375 -11.905257225036621 -2.4020164012908936
22.23773956298828 -11.46556568145752 -2.402017593383789
23.078256607055664 -9.663310050964355 -2.402017593383789
23.772777557373047 -7.800016403198242 -2.40201735496521
23.923095703125 -7.326026916503906 -2.40201735496521
24.195329666137695 -6.36955451965332 -2.40201735496521
24.317134857177734 -5.887442111968994 -2.40201735496521
24.624752044677734 -4.4279327392578125 -2.40201735496521
24.781267166137695 -3.4458601474761963 -2.402017116546631
16.514432907104492 -11.6696138381958 -2.4020187854766846
16.743043899536133 -11.339118003845215 -2.402019739151001
16.96510887145996 -11.004134178161621 -2.40201997756958
17.180448532104492 -10.664801597595215 -2.40201997756958
17.389005661010742 -10.321255683898926 -2.40201997756958
17.785430908203125 -9.6220703125 -2.402019739151001
18.32720184326172 -8.545136451721191 -2.402019500732422
19.084550857543945 -6.684725761413574 -2.4020192623138428
19.653593063354492 -4.758349418640137 -2.4020190238952637
19.74427604675293 -4.366824626922607 -2.4020190238952637
19.827157974243164 -3.9735658168792725 -2.4020190238952637
19.9022159576416 -3.578747510910034 -2.4020190238952637
14.036632537841797 -9.506206512451172 -2.4020211696624756
14.74724292755127 -8.361443519592285 -2.4020209312438965
14.910500526428223 -8.0667085647583 -2.4020209312438965
15.067877769470215 -7.768784523010254 -2.4020209312438965
15.364696502685547 -7.163858413696289 -2.4020206928253174
15.637246131896973 -6.547616481781006 -2.4020206928253174
15.999629020690918 -5.6041741371154785 -2.4020204544067383
16.209693908691406 -4.963934421539307 -2.4020204544067383
16.30514144897461 -4.640809535980225 -2.4020204544067383
16.394149780273438 -4.315851211547852 -2.4020204544067383
16.55270767211914 -3.66094970703125 -2.4020204544067383
16.68511962890625 -3.0002593994140625 -2.4020204544067383
16.791351318359375 -2.3346593379974365 -2.4020209312438965
11.907794952392578 -8.414434432983398 -2.402022123336792
12.072672843933105 -8.17612361907959 -2.402021884918213
12.683852195739746 -7.191534996032715 -2.402021646499634
12.824267387390137 -6.938038349151611 -2.402021646499634
12.959623336791992 -6.68179988861084 -2.402021646499634
13.089853286743164 -6.42292594909668 -2.402021646499634
13.334748268127441 -5.897676467895508 -2.402021646499634
13.449336051940918 -5.631496429443359 -2.402022123336792
13.66250991821289 -5.092575550079346 -2.402022123336792
13.76101303100586 -4.8200531005859375 -2.402022123336792
13.941691398620605 -4.269394397735596 -2.402022123336792
14.023778915405273 -3.9914817810058594 -2.402022123336792
14.100337028503418 -3.7119908332824707 -2.402022123336792
14.171318054199219 -3.431029796600342 -2.402021884918213
14.296479225158691 -2.865159749984741 -2.402021884918213
14.441801071166992 -2.0081470012664795 -2.402021646499634
10.721484184265137 -6.954301834106445 -2.4020237922668457
10.85757064819336 -6.739857196807861 -2.4020237922668457
10.989370346069336 -6.522745609283447 -2.4020235538482666
11.239909172058105 -6.0808844566345215 -2.4020235538482666
11.358534812927246 -5.856296062469482 -2.4020233154296875
11.47268009185791 -5.629408359527588 -2.4020233154296875
11.787738800048828 -4.935751438140869 -2.4020233154296875
11.883501052856445 -4.7005133628845215 -2.4020230770111084
11.974570274353027 -4.4634199142456055 -2.4020230770111084
12.06091022491455 -4.224559307098389 -2.4020230770111084
12.142484664916992 -3.9840312004089355 -2.4020228385925293
12.21926498413086 -3.741931676864624 -2.4020228385925293
12.35831069946289 -3.25339412689209 -2.4020228385925293
12.477836608886719 -2.7597103118896484 -2.4020228385925293
12.530219078063965 -2.5111823081970215 -2.4020228385925293
12.577651023864746 -2.2616677284240723 -2.40202260017395
12.620112419128418 -2.0112571716308594 -2.40202260017395
12.6575927734375 -1.760054588317871 -2.40202260017395
9.408862113952637 -6.372076511383057 -2.402024507522583
9.654650688171387 -5.993140697479248 -2.402024269104004
9.8851900100708 -5.604735374450684 -2.402024269104004
9.994624137878418 -5.40717077255249 -2.402024269104004
10.201608657836914 -5.00571870803833 -2.402024030685425
10.392470359802246 -4.596357345581055 -2.4020237922668457
10.481764793395996 -4.388913631439209 -2.4020237922668457
10.72467041015625 -3.756517171859741 -2.4020237922668457
10.79720687866211 -3.54263973236084 -2.4020237922668457
10.865478515625 -3.3273589611053467 -2.4020235538482666
10.929460525512695 -3.110769271850586 -2.4020235538482666
10.989126205444336 -2.8929460048675537 -2.4020235538482666
11.044445991516113 -2.6739797592163086 -2.4020235538482666
11.141982078552246 -2.232968807220459 -2.4020233154296875
11.184160232543945 -2.011094093322754 -2.4020233154296875
11.25524616241455 -1.5650533437728882 -2.4020233154296875
8.4623384475708 -5.731057643890381 -2.402024984359741
8.574564933776855 -5.561751365661621 -2.402024745941162
8.788810729980469 -5.216610431671143 -2.402024745941162
9.175338745117188 -4.502150535583496 -2.402024507522583
9.347002029418945 -4.133969306945801 -2.402024507522583
9.427313804626465 -3.9473965167999268 -2.402024269104004
9.576733589172363 -3.569643497467041 -2.402024269104004
9.645783424377441 -3.3786137104034424 -2.402024269104004
9.829970359802246 -2.7978322505950928 -2.402024269104004
9.88362979888916 -2.6019275188446045 -2.402024030685425
9.933385848999023 -2.404981851577759 -2.402024030685425
10.021113395690918 -2.0083351135253906 -2.402024030685425
10.122981071472168 -1.407612919807434 -2.4020237922668457
7.681379318237305 -5.201976299285889 -2.4020259380340576
7.783236980438232 -5.048752784729004 -2.4020252227783203
7.882038593292236 -4.892792224884033 -2.4020252227783203
8.070243835449219 -4.575701713562012 -2.402024984359741
8.159591674804688 -4.414407730102539 -2.402024984359741
8.484392166137695 -3.7524590492248535 -2.402024745941162
8.626811027526855 -3.4123342037200928 -2.402024745941162
8.755598068237305 -3.0668184757232666 -2.402024745941162
8.922792434692383 -2.539632797241211 -2.402024745941162
8.97149658203125 -2.3617939949035645 -2.402024507522583
9.096291542053223 -1.8229845762252808 -2.402024507522583
9.130724906921387 -1.6418508291244507 -2.402024507522583
9.188756942749023 -1.2777047157287598 -2.402024507522583
7.025429725646973 -4.7579193115234375 -2.4020297527313232
7.208947658538818 -4.474824905395508 -2.402028799057007
7.381083965301514 -4.184953689575195 -2.4020280838012695
7.617343425750732 -3.737696409225464 -2.402026414871216
7.826535701751709 -3.2771246433258057 -2.402024984359741
7.890119552612305 -3.1209356784820557 -2.402024984359741
7.950575828552246 -2.963510036468506 -2.402024984359741
8.062067985534668 -2.6452293395996094 -2.402024984359741
8.113039016723633 -2.484477996826172 -2.402024984359741
8.24666976928711 -1.996610164642334 -2.402024984359741
8.319501876831055 -1.6673098802566528 -2.402024984359741
8.351000785827637 -1.5016388893127441 -2.402024745941162
8.404071807861328 -1.168594241142273 -2.402024745941162
6.715612411499023 -3.9859886169433594 -2.4020304679870605
6.793500900268555 -3.8518028259277344 -2.4020302295684814
6.868709564208984 -3.7160165309906006 -2.4020302295684814
7.010956764221191 -3.440134286880493 -2.4020297527313232
7.07793664932251 -3.300083637237549 -2.402029275894165
7.142126083374023 -3.1588287353515625 -2.402029275894165
7.262011528015137 -2.8725922107696533 -2.4020285606384277
7.370424747467041 -2.5816569328308105 -2.4020280838012695
7.467191219329834 -2.286695718765259 -2.4020273685455322
7.552157878875732 -1.9875478744506836 -2.402026891708374
7.625205039978027 -1.686460018157959 -2.402026414871216
7.657214164733887 -1.534584641456604 -2.4020261764526367
7.686196327209473 -1.3821901082992554 -2.4020259380340576
5.901491641998291 -4.170230388641357 -2.4020309448242188
6.139500617980957 -3.8111255168914795 -2.4020309448242188
6.286103248596191 -3.5641143321990967 -2.4020309448242188
6.35569429397583 -3.4384713172912598 -2.4020309448242188
6.487316608428955 -3.1831603050231934 -2.4020309448242188
6.719624042510986 -2.657939910888672 -2.4020304679870605
6.771119117736816 -2.5238828659057617 -2.4020302295684814
6.866066932678223 -2.25280499458313 -2.4020302295684814
6.950165748596191 -1.9782336950302124 -2.4020297527313232
6.988107681274414 -1.8396506309509277 -2.4020297527313232
7.085310935974121 -1.4199694395065308 -2.402029275894165
7.136142253875732 -1.1372816562652588 -2.402029275894165
6.087749004364014 -2.838395357131958 -2.4020309448242188
6.339318752288818 -2.2204556465148926 -2.4020309448242188
6.382195949554443 -2.0940544605255127 -2.4020309448242188
6.422551155090332 -1.9667928218841553 -2.4020309448242188
6.460368633270264 -1.8387659788131714 -2.4020309448242188
6.528338432312012 -1.580581784248352 -2.4020307064056396
6.585992336273193 -1.3198620080947876 -2.4020307064056396
6.610923767089844 -1.1887884140014648 -2.4020307064056396
5.258691310882568 -3.410909414291382 -2.4020309448242188
5.452603816986084 -3.091549873352051 -2.4020309448242188
5.571152210235596 -2.8724093437194824 -2.4020309448242188
5.627138614654541 -2.7611398696899414 -2.4020309448242188
5.680899620056152 -2.6487350463867188 -2.4020309448242188
5.78167200088501 -2.4209203720092773 -2.4020309448242188
5.828643798828125 -2.3055179119110107 -2.4020309448242188
5.915657997131348 -2.072071075439453 -2.4020309448242188
6.028617858886719 -1.7158682346343994 -2.4020309448242188
6.092045783996582 -1.4749501943588257 -2.4020309448242188
6.120153903961182 -1.353589415550232 -2.4020309448242188
6.16910982131958 -1.1093071699142456 -2.4020309448242188
6.189937591552734 -0.9865655303001404 -2.4020309448242188
4.859447956085205 -3.290919303894043 -2.4020309448242188
4.923891544342041 -3.1938629150390625 -2.4020309448242188
5.046921253204346 -2.9956085681915283 -2.4020309448242188
5.105456352233887 -2.8946709632873535 -2.4020309448242188
5.161978721618652 -2.792701244354248 -2.4020309448242188
5.268880367279053 -2.585357904434204 -2.4020309448242188
5.319220066070557 -2.4801225662231445 -2.4020309448242188
5.367459774017334 -2.3739078044891357 -2.4020309448242188
5.457556247711182 -2.1587343215942383 -2.4020309448242188
5.499379634857178 -2.04982852935791 -2.4020309448242188
5.5390305519104 -1.9401501417160034 -2.4020309448242188
5.576495170593262 -1.82974112033844 -2.4020309448242188
5.611756324768066 -1.7185015678405762 -2.4020309448242188
5.644799709320068 -1.606636881828308 -2.4020309448242188
5.675615310668945 -1.4941375255584717 -2.4020309448242188
5.754565238952637 -1.1532657146453857 -2.4020309448242188
5.776347637176514 -1.03863525390625 -2.4020309448242188
5.795849323272705 -0.9236355423927307 -2.4020309448242188
4.501175403594971 -3.1806793212890625 -2.4020309448242188
4.563498497009277 -3.09059476852417 -2.4020309448242188
4.624018669128418 -2.9992921352386475 -2.4020309448242188
4.682713508605957 -2.9068171977996826 -2.4020309448242188
4.739555358886719 -2.8131697177886963 -2.4020309448242188
4.898769378662109 -2.525757312774658 -2.4020309448242188
5.040573596954346 -2.2293336391448975 -2.4020309448242188
5.125184059143066 -2.027264356613159 -2.4020309448242188
5.201696872711182 -1.821993112564087 -2.4020309448242188
5.329960823059082 -1.4031493663787842 -2.4020309448242188
5.381511211395264 -1.1902247667312622 -2.4020309448242188
5.404102802276611 -1.0830379724502563 -2.4020309448242188
4.237961292266846 -2.994676113128662 -2.4020309448242188
4.353620529174805 -2.8239033222198486 -2.4020309448242188
4.408883094787598 -2.736823320388794 -2.4020309448242188
4.51416015625 -2.559457302093506 -2.4020309448242188
4.6123046875 -2.378039598464966 -2.4020309448242188
4.786592960357666 -2.0042388439178467 -2.4020309448242188
4.825479507446289 -1.9087162017822266 -2.4020309448242188
4.862458229064941 -1.8124407529830933 -2.4020309448242188
4.961818695068359 -1.5194683074951172 -2.4020309448242188
4.991037368774414 -1.4205623865127563 -2.4020309448242188
5.0435471534729 -1.2210975885391235 -2.4020309448242188
5.066816329956055 -1.1207146644592285 -2.4020309448242188
5.08808708190918 -1.0197055339813232 -2.4020309448242188
5.124590873718262 -0.8167017698287964 -2.4020309448242188
4.108315467834473 -2.6647932529449463 -2.4020309448242188
4.160462379455566 -2.5826218128204346 -2.4020309448242188
4.25980806350708 -2.415240526199341 -2.4020309448242188
4.396162033081055 -2.15710711479187 -2.4020309448242188
4.478413105010986 -1.9807028770446777 -2.4020309448242188
4.516891956329346 -1.891310214996338 -2.4020309448242188
4.58848237991333 -1.7103185653686523 -2.4020309448242188
4.621567249298096 -1.6187918186187744 -2.4020309448242188
4.652824401855469 -1.526625156402588 -2.4020309448242188
4.682244777679443 -1.4338558912277222 -2.4020309448242188
4.735527038574219 -1.2466541528701782 -2.4020309448242188
4.759368896484375 -1.1522947549819946 -2.4020309448242188
4.819575309753418 -0.8666386008262634 -2.4020309448242188
3.7813549041748047 -2.6720266342163086 -2.4020309448242188
3.833709716796875 -2.596351146697998 -2.4020309448242188
3.8845508098602295 -2.5196499824523926 -2.4020309448242188
3.933858633041382 -2.4419519901275635 -2.4020309448242188
3.98161244392395 -2.3632893562316895 -2.4020309448242188
4.027792930603027 -2.283693313598633 -2.4020309448242188
4.115365028381348 -2.1218249797821045 -2.4020309448242188
4.234492301940918 -1.8728219270706177 -2.4020309448242188
4.338565349578857 -1.6171640157699585 -2.4020309448242188
4.399404048919678 -1.4434759616851807 -2.4020309448242188
4.453290939331055 -1.2675068378448486 -2.4020309448242188
4.500142574310303 -1.0895336866378784 -2.4020309448242188
4.557070255279541 -0.8194364905357361 -2.4020309448242188
4.572457313537598 -0.728708803653717 -2.4020309448242188
4.586035251617432 -0.637693464756012 -2.4020309448242188
3.679407835006714 -2.386587142944336 -2.4020309448242188
3.726111888885498 -2.3129923343658447 -2.4020309448242188
3.7713451385498047 -2.238483428955078 -2.4020309448242188
3.898030996322632 -2.0097715854644775 -2.4020309448242188
4.010866641998291 -1.7739181518554688 -2.4020309448242188
4.078193187713623 -1.6131283044815063 -2.4020309448242188
4.19342041015625 -1.2841613292694092 -2.4020309448242188
4.218112468719482 -1.2005696296691895 -2.4020309448242188
4.262491226196289 -1.031995415687561 -2.4020309448242188
4.282159328460693 -0.9470815658569336 -2.4020309448242188
4.316412448883057 -0.7761620879173279 -2.4020309448242188
4.343846321105957 -0.604012131690979 -2.4020309448242188
3.397745370864868 -2.400956869125366 -2.4020309448242188
3.4447898864746094 -2.3329575061798096 -2.4020309448242188
3.6191821098327637 -2.0520169734954834 -2.4020309448242188
3.659247875213623 -1.97968590259552 -2.4020309448242188
3.7707152366638184 -1.7581123113632202 -2.4020309448242188
3.8049120903015137 -1.6828283071517944 -2.4020309448242188
3.8376035690307617 -1.6068782806396484 -2.4020309448242188
3.868781566619873 -1.530294418334961 -2.4020309448242188
3.9530932903289795 -1.297038197517395 -2.4020309448242188
3.97808837890625 -1.2182193994522095 -2.4020309448242188
4.023359298706055 -1.0591716766357422 -2.4020309448242188
4.094768047332764 -0.736305832862854 -2.4020309448242188
