ply
format ascii 1.0
element vertex 304
property float x
property float y
property float z
end_header
-17.246732711791992 16.90353775024414 4.25814151763916
-17.24673080444336 16.24065399169922 4.177156925201416
-17.246728897094727 15.602251052856445 4.100804805755615
-17.246728897094727 14.986495018005371 4.0287699699401855
-10.489778518676758 8.753347396850586 2.408933401107788
-19.48284149169922 13.199929237365723 4.149567127227783
-21.26604652404785 13.199925422668457 4.413398265838623
-22.24628448486328 13.19992446899414 4.561161518096924
-27.433027267456055 14.828457832336426 5.498614311218262
-28.49904441833496 14.6764497756958 5.652355194091797
-17.246734619140625 17.592967987060547 3.7741894721984863
-17.24673080444336 15.602259635925293 3.562814950942993
-17.246728897094727 14.986495971679688 3.5002312660217285
-17.276126861572266 13.840142250061035 3.39115047454834
-17.973339080810547 13.255193710327148 3.421215057373047
-18.6682071685791 13.199931144714355 3.5025622844696045
-20.34697151184082 13.19992733001709 3.715515613555908
-21.26604652404785 13.199925422668457 3.834399938583374
-22.246278762817383 13.19992446899414 3.962777614593506
-24.420196533203125 13.199918746948242 4.25258207321167
-17.30792236328125 16.963512420654297 3.155874013900757
-17.309417724609375 15.65895938873291 3.039530038833618
-17.32210350036621 13.876973152160645 2.8902697563171387
-17.57503890991211 13.511932373046875 2.8868353366851807
-18.030155181884766 13.297097206115723 2.917351007461548
-20.443368911743164 13.262468338012695 3.173287868499756
-21.36756706237793 13.262939453125 3.27493953704834
-22.246294021606445 13.19992446899414 3.368506908416748
-24.39250373840332 13.821887016296387 3.650921583175659
-24.663875579833984 13.331632614135742 3.650920867919922
-26.793365478515625 13.79805850982666 3.924534797668457
-17.30712890625 17.654584884643555 2.6547863483428955
-17.308683395385742 16.298995971679688 2.552995204925537
-17.309415817260742 15.65896224975586 2.506436347961426
-17.310123443603516 15.041580200195312 2.4625084400177
-17.322101593017578 13.876973152160645 2.383352041244507
-18.030155181884766 13.297097206115723 2.405683994293213
-18.75543975830078 13.261605262756348 2.4665958881378174
-20.443368911743164 13.262468338012695 2.6167328357696533
-21.367563247680664 13.262940406799316 2.700557231903076
-22.353328704833984 13.263444900512695 2.791079044342041
-26.120189666748047 14.800870895385742 3.2238316535949707
-17.246734619140625 17.592967987060547 2.085557699203491
-17.24673080444336 16.240657806396484 2.005411148071289
-17.526792526245117 13.474837303161621 1.8714957237243652
-17.973339080810547 13.255194664001465 1.8905085325241089
-18.668212890625 13.199931144714355 1.9354599714279175
-20.346975326538086 13.19992733001709 2.0531346797943115
-23.29488182067871 13.199921607971191 2.2665600776672363
-27.433027267456055 14.82845687866211 2.639829635620117
-17.246732711791992 16.903547286987305 1.4974943399429321
-17.246728897094727 15.602252960205078 1.4421632289886475
-10.486181259155273 8.750345230102539 0.8468830585479736
-17.276124954223633 13.840142250061035 1.3726768493652344
-17.973339080810547 13.255194664001465 1.3848451375961304
-20.346975326538086 13.19992733001709 1.5039732456207275
-21.26604652404785 13.199925422668457 1.5520951747894287
-23.29488182067871 13.199921607971191 1.6603126525878906
-24.420194625854492 13.199918746948242 1.7213681936264038
-17.837156295776367 17.482215881347656 0.9848219156265259
-17.843992233276367 16.803070068359375 0.9664625525474548
-18.213062286376953 16.476444244384766 0.9684211611747742
-18.627765655517578 16.186540603637695 0.9730729460716248
-20.890100479125977 14.770983695983887 1.0088322162628174
-21.81897735595703 14.782695770263672 1.0392112731933594
-22.81345558166504 14.800040245056152 1.072272777557373
-23.87488555908203 14.819241523742676 1.1080180406570435
-25.01393699645996 14.842123985290527 1.1468833684921265
-25.67717742919922 13.87935733795166 1.1509214639663696
-26.793365478515625 13.798057556152344 1.1883536577224731
-17.837156295776367 18.195249557495117 0.43040236830711365
-17.837156295776367 17.482221603393555 0.4218861162662506
-18.21306037902832 16.476444244384766 0.41485944390296936
-10.483856201171875 8.748405456542969 0.2306443750858307
-19.69938850402832 15.781453132629395 0.42636945843696594
-22.486989974975586 15.235292434692383 0.45881545543670654
-24.614906311035156 15.278575897216797 0.4893745183944702
-26.167694091796875 14.827791213989258 0.5080506801605225
-28.269737243652344 15.28072738647461 0.5428230166435242
-29.619131088256836 15.253271102905273 0.5627665519714355
-17.837156295776367 18.19525146484375 -0.14345794916152954
-17.837156295776367 17.482219696044922 -0.1406192034482956
-18.213062286376953 16.476444244384766 -0.13827742636203766
-18.863637924194336 16.391504287719727 -0.14069794118404388
-10.482696533203125 8.7474365234375 -0.0768762156367302
-19.69939422607422 15.781448364257812 -0.1421133428812027
-20.12393569946289 15.4715576171875 -0.14291656017303467
-20.323774337768555 14.98862361907959 -0.14217986166477203
-25.789785385131836 15.302474975585938 -0.1688385009765625
-28.269737243652344 15.28072738647461 -0.180927574634552
-29.619131088256836 15.253271102905273 -0.18757537007331848
-17.837156295776367 17.482219696044922 -0.7032634019851685
-10.481536865234375 8.746469497680664 -0.38435789942741394
-20.123933792114258 15.471555709838867 -0.714753270149231
-23.516664505004883 15.256237030029297 -0.7893143892288208
-18.213062286376953 16.476444244384766 -1.2455378770828247
-18.86363983154297 16.391504287719727 -1.267367959022522
-19.699386596679688 15.781451225280762 -1.28009033203125
-20.123931884765625 15.47155475616455 -1.287325382232666
-20.89009666442871 14.770983695983887 -1.2975114583969116
-22.487001419067383 15.235292434692383 -1.3775060176849365
-23.51666259765625 15.256237030029297 -1.4216164350509644
-24.614912033081055 15.27857780456543 -1.4692504405975342
-25.789785385131836 15.302474975585938 -1.5208184719085693
-26.167694091796875 14.827791213989258 -1.5253210067749023
-28.26974105834961 15.28072738647461 -1.629718542098999
-17.837156295776367 18.19524383544922 -1.8682492971420288
-17.837156295776367 17.48221778869629 -1.8312816619873047
-20.123931884765625 15.471553802490234 -1.8612009286880493
-20.89009666442871 14.770983695983887 -1.8759276866912842
-22.487001419067383 15.235292434692383 -1.9915827512741089
-23.876789093017578 14.820425987243652 -2.060529947280884
-26.320960998535156 14.914628982543945 -2.218208074569702
-26.61048698425293 14.383846282958984 -2.217935085296631
-16.244348526000977 16.570438385009766 -2.227766275405884
-16.56998062133789 16.240230560302734 -2.2274577617645264
-17.201215744018555 15.560962677001953 -2.2268636226654053
-18.379680633544922 14.130558013916016 -2.225752353668213
-18.656204223632812 13.75881290435791 -2.2254905700683594
-11.858723640441895 8.385083198547363 -1.3943499326705933
-13.663536071777344 8.481019973754883 -1.5439218282699585
-19.92517852783203 11.82269287109375 -2.2243096828460693
-14.836353302001953 8.406947135925293 -1.637134313583374
-15.69707202911377 8.484789848327637 -1.7130637168884277
-16.33586883544922 8.41265869140625 -1.764075756072998
-13.41030502319336 13.143451690673828 -2.2304763793945312
-8.886232376098633 8.367868423461914 -1.4498999118804932
-13.92183780670166 12.594377517700195 -2.22999906539917
-14.16927433013916 12.312356948852539 -2.2297682762145996
-11.024937629699707 8.476130485534668 -1.6519099473953247
-15.53496265411377 10.52490234375 -2.2289252281188965
-15.798139572143555 10.24891471862793 -2.2369043827056885
-16.07901954650879 9.980697631835938 -2.2480602264404297
-14.836353302001953 8.406947135925293 -2.025623321533203
-16.674800872802734 9.01328182220459 -2.251574754714966
-8.304366111755371 8.471086502075195 -1.6808066368103027
-8.886232376098633 8.367868423461914 -1.7294601202011108
-11.684216499328613 10.569986343383789 -2.2324140071868896
-12.591593742370605 9.680596351623535 -2.2504191398620605
-13.15875244140625 8.915265083312988 -2.2520790100097656
-13.337669372558594 8.652703285217285 -2.2526497840881348
-13.510007858276367 8.38571834564209 -2.2529966831207275
-13.9749755859375 7.553935527801514 -2.2508630752563477
-14.118597030639648 7.270800590515137 -2.2501380443573
-10.136334419250488 9.169835090637207 -2.2517573833465576
-10.3788423538208 8.660775184631348 -2.226900100708008
-10.673929214477539 8.551030158996582 -2.2530930042266846
-10.84280776977539 8.336104393005371 -2.253119707107544
-11.004448890686035 8.115704536437988 -2.2525508403778076
-11.161596298217773 7.892147064208984 -2.25197434425354
-11.3141450881958 7.665520668029785 -2.2513904571533203
-11.881193161010742 6.7324137687683105 -2.2496886253356934
-12.180590629577637 6.272576332092285 -2.2570056915283203
-8.392074584960938 8.560547828674316 -2.2532572746276855
-8.562281608581543 8.391921043395996 -2.253471851348877
-8.726523399353027 8.21748161315918 -2.2530181407928467
-8.887191772460938 8.039803504943848 -2.252556562423706
-9.197504997253418 7.67500114440918 -2.25161075592041
-9.347050666809082 7.4880571365356445 -2.251127004623413
-9.634587287902832 7.105433940887451 -2.250138759613037
-9.90882682800293 6.713392734527588 -2.2496860027313232
-11.361310005187988 5.850885391235352 -2.4020309448242188
-7.6060099601745605 7.454665184020996 -2.2512047290802
-8.171603202819824 6.81890869140625 -2.249706745147705
-8.437307357788086 6.486730098724365 -2.249643087387085
-9.533203125 6.184579849243164 -2.4020309448242188
-9.77271556854248 5.798685550689697 -2.4020309448242188
-6.701107501983643 6.835635662078857 -2.2497329711914062
-6.968680381774902 6.562172889709473 -2.2496583461761475
-7.0983452796936035 6.4215216636657715 -2.249631404876709
-7.487714767456055 6.248262882232666 -2.2920126914978027
-7.788064479827881 6.239125728607178 -2.345296621322632
-8.102566719055176 6.2293701171875 -2.4020309448242188
-8.34503173828125 5.90061092376709 -2.4020309448242188
-8.892067909240723 5.038643836975098 -2.4020309448242188
-6.126691818237305 6.249760627746582 -2.2660372257232666
-6.369128704071045 6.242382526397705 -2.3090624809265137
-6.879818439483643 6.223768711090088 -2.4020309448242188
-7.466314315795898 5.506368160247803 -2.4020309448242188
-7.57489538192749 5.3560614585876465 -2.4020309448242188
-7.680420398712158 5.203604221343994 -2.4020309448242188
-7.782881259918213 5.049079418182373 -2.4020309448242188
-5.9399003982543945 6.059093475341797 -2.4020309448242188
-6.292225360870361 5.692285537719727 -2.4020309448242188
-6.514701843261719 5.436287879943848 -2.4020309448242188
-6.622034072875977 5.305004119873047 -2.4020309448242188
-6.726736068725586 5.171609401702881 -2.4020309448242188
-7.024534225463867 4.7592339515686035 -2.4020309448242188
-7.209113121032715 4.474729061126709 -2.4020309448242188
-7.297092914581299 4.3297624588012695 -2.4020309448242188
-7.46429443359375 4.034696102142334 -2.4020309448242188
-7.543436527252197 3.8847227096557617 -2.4020309448242188
-5.577353000640869 5.466373920440674 -2.4020309448242188
-5.685482501983643 5.353823661804199 -2.4020309448242188
-5.7913408279418945 5.2391357421875 -2.4020309448242188
-5.894889831542969 5.122345924377441 -2.4020309448242188
-6.094870567321777 4.882688522338867 -2.4020309448242188
-6.285121917724609 4.63523006439209 -2.4020309448242188
-6.465339660644531 4.380364894866943 -2.4020309448242188
-6.635209083557129 4.118504524230957 -2.4020309448242188
-6.794490814208984 3.850064516067505 -2.4020309448242188
-6.942922115325928 3.5754687786102295 -2.4020309448242188
-5.058670520782471 5.160224914550781 -2.4020309448242188
-5.160782337188721 5.0580949783325195 -2.4020309448242188
-5.358786582946777 4.847828388214111 -2.4020309448242188
-5.4546003341674805 4.739762306213379 -2.4020309448242188
-5.639654636383057 4.518004894256592 -2.4020309448242188
-5.728816509246826 4.40439510345459 -2.4020309448242188
-5.90024471282959 4.1719489097595215 -2.4020309448242188
-5.98244047164917 4.05319881439209 -2.4020309448242188
-6.062247276306152 3.932833671569824 -2.4020309448242188
-6.1396331787109375 3.8108978271484375 -2.4020309448242188
-6.287017822265625 3.562506675720215 -2.4020309448242188
-4.797089576721191 4.70163631439209 -2.4020309448242188
-4.890089988708496 4.604831218719482 -2.4020309448242188
-4.981136322021484 4.506186485290527 -2.4020309448242188
-5.070206165313721 4.405736446380615 -2.4020309448242188
-5.242212295532227 4.199607849121094 -2.4020309448242188
-5.405845642089844 3.986767530441284 -2.4020309448242188
-5.484437942504883 3.8779406547546387 -2.4020309448242188
-5.7069549560546875 3.542332172393799 -2.4020309448242188
-5.843955039978027 3.3114476203918457 -2.4020309448242188
-5.90896463394165 3.1939921379089355 -2.4020309448242188
-5.971616268157959 3.075265407562256 -2.4020309448242188
-4.3879218101501465 4.476008415222168 -2.4020309448242188
-4.563281536102295 4.297086715698242 -2.4020309448242188
-4.731352806091309 4.111298084259033 -2.4020309448242188
-4.812578201293945 4.015921115875244 -2.4020309448242188
-4.891868591308594 3.918943405151367 -2.4020309448242188
-4.969210624694824 3.8203978538513184 -2.4020309448242188
-5.189206600189209 3.51576828956604 -2.4020309448242188
-5.258430004119873 3.4113640785217285 -2.4020309448242188
-5.514064788818359 2.980534076690674 -2.4020309448242188
-4.108557224273682 4.191040515899658 -2.4020309448242188
-4.191495895385742 4.108092784881592 -2.4020309448242188
-4.272757530212402 4.023508071899414 -2.4020309448242188
-4.430128574371338 3.849548816680908 -2.4020309448242188
-4.5804243087768555 3.6694395542144775 -2.4020309448242188
-4.652840614318848 3.5771703720092773 -2.4020309448242188
-4.792072772979736 3.3883800506591797 -2.4020309448242188
-4.858827590942383 3.2919323444366455 -2.4020309448242188
-5.163007736206055 2.790775775909424 -2.4020309448242188
-3.858340263366699 3.935800075531006 -2.4020309448242188
-4.012538909912109 3.7784721851348877 -2.4020309448242188
-4.231744289398193 3.531240224838257 -2.4020309448242188
-4.369476318359375 3.35931396484375 -2.4020309448242188
-4.500226974487305 3.182023286819458 -2.4020309448242188
-4.682814121246338 2.906642436981201 -2.4020309448242188
-4.739965915679932 2.812478542327881 -2.4020309448242188
-4.795226097106934 2.7171897888183594 -2.4020309448242188
-4.848572254180908 2.62081241607666 -2.4020309448242188
-3.706049680709839 3.632305145263672 -2.4020309448242188
-3.8482377529144287 3.481309175491333 -2.4020309448242188
-4.049933910369873 3.244457960128784 -2.4020309448242188
-4.1139631271362305 3.1628715991973877 -2.4020309448242188
-4.17634916305542 3.0800249576568604 -2.4020309448242188
-4.237067699432373 2.995948314666748 -2.4020309448242188
-4.29609489440918 2.9106719493865967 -2.4020309448242188
-4.353404521942139 2.8242363929748535 -2.4020309448242188
-4.4089765548706055 2.7366716861724854 -2.4020309448242188
-4.4627885818481445 2.6480138301849365 -2.4020309448242188
-4.51481819152832 2.558297872543335 -2.4020309448242188
-4.565042018890381 2.4675562381744385 -2.4020309448242188
-4.61344575881958 2.375833511352539 -2.4020309448242188
-3.4280309677124023 3.496851682662964 -2.4020309448242188
-3.4972331523895264 3.427643299102783 -2.4020309448242188
-3.63140869140625 3.2851555347442627 -2.4020309448242188
-3.8217382431030273 3.0616486072540283 -2.4020309448242188
-3.882161855697632 2.984661102294922 -2.4020309448242188
-3.9410319328308105 2.906481981277466 -2.4020309448242188
-3.998328685760498 2.827143430709839 -2.4020309448242188
-4.10811185836792 2.665104866027832 -2.4020309448242188
-4.160553455352783 2.5824737548828125 -2.4020309448242188
-4.307740211486816 2.3285157680511475 -2.4020309448242188
-3.2413206100463867 3.306392192840576 -2.4020309448242188
-3.306752920150757 3.240953207015991 -2.4020309448242188
-3.370859384536743 3.1742236614227295 -2.4020309448242188
-3.433621644973755 3.10622501373291 -2.4020309448242188
-3.4950151443481445 3.036982297897339 -2.4020309448242188
-3.833224296569824 2.597069025039673 -2.4020309448242188
-3.9339451789855957 2.4418160915374756 -2.4020309448242188
-3.9819579124450684 2.36271071434021 -2.4020309448242188
-3.0701470375061035 3.131779670715332 -2.4020309448242188
-3.132122039794922 3.069798469543457 -2.4020309448242188
-3.1928441524505615 3.006591796875 -2.4020309448242188
-3.3104429244995117 2.876599073410034 -2.4020309448242188
-3.4768638610839844 2.6730620861053467 -2.4020309448242188
-3.5295896530151367 2.603044271469116 -2.4020309448242188
-3.5809056758880615 2.5319886207580566 -2.4020309448242188
-3.6792266368865967 2.3868680000305176 -2.4020309448242188
-3.7261931896209717 2.312863349914551 -2.4020309448242188
-3.8156394958496094 2.1621131896972656 -2.4020309448242188
-3.8989977836608887 2.007905960083008 -2.4020309448242188
-2.9712889194488525 2.9121649265289307 -2.4020309448242188
-3.246995210647583 2.6012120246887207 -2.4020309448242188
-3.298330068588257 2.5358023643493652 -2.4020309448242188
-3.3483476638793945 2.46938157081604 -2.4020309448242188
-3.397028684616089 2.4019742012023926 -2.4020309448242188
-3.444350481033325 2.3336024284362793 -2.4020309448242188
-3.4902026653289795 2.2642979621887207 -2.4020309448242188
-3.5347893238067627 2.19409441947937 -2.4020309448242188
-3.619706869125366 2.0510900020599365 -2.4020309448242188
-3.6599767208099365 1.9783384799957275 -2.4020309448242188
-3.6987829208374023 1.9048020839691162 -2.4020309448242188
