ply
format ascii 1.0
element vertex 387
property float x
property float y
property float z
end_header
33.044639587402344 15.430778503417969 6.430632591247559
31.414794921875 15.43078327178955 6.171437740325928
31.306346893310547 16.939992904663086 6.2764739990234375
31.306352615356445 17.74618148803711 6.345359802246094
32.7227783203125 20.292882919311523 6.789344787597656
32.93381118774414 21.333507537841797 6.919017314910889
32.93381881713867 22.266775131225586 7.009843826293945
32.93381881713867 23.225229263305664 7.105883598327637
32.93382263183594 24.210718154907227 7.207427024841309
32.9338264465332 25.22516632080078 7.314796447753906
32.72279357910156 26.102384567260742 7.380751132965088
32.844482421875 27.27549171447754 7.5279669761657715
32.933837890625 29.61806297302246 7.810042381286621
32.933841705322266 30.813188552856445 7.952499866485596
32.93384552001953 32.053165435791016 8.103450775146484
32.722835540771484 34.46046829223633 8.379347801208496
32.72283935546875 35.849300384521484 8.558560371398926
31.306346893310547 16.150808334350586 5.3965678215026855
31.306346893310547 16.939987182617188 5.453055381774902
31.306352615356445 17.746173858642578 5.512900352478027
31.095321655273438 18.445411682128906 5.538671970367432
31.100542068481445 21.027278900146484 5.751203536987305
31.306365966796875 22.077531814575195 5.868577003479004
31.306365966796875 23.014320373535156 5.95244026184082
31.0953311920166 23.81699562072754 6.0003790855407715
31.306371688842773 24.97252655029297 6.134888172149658
31.039091110229492 26.826948165893555 6.284911155700684
31.03909683227539 27.91408920288086 6.395057201385498
31.04629898071289 29.04718589782715 6.513216495513916
32.93384552001953 32.05316925048828 7.040351867675781
32.93385314941406 33.341732025146484 7.179424285888672
32.722835540771484 34.460472106933594 7.280040264129639
32.72283935546875 35.84929656982422 7.435791015625
31.414794921875 15.43078327178955 4.55772590637207
31.30635643005371 20.279293060302734 4.857320308685303
31.30636215209961 22.077533721923828 4.988504409790039
31.306365966796875 23.014328002929688 5.059792518615723
31.306371688842773 25.998178482055664 5.2991943359375
31.306381225585938 28.154449462890625 5.4828410148620605
31.09535026550293 29.093082427978516 5.545210838317871
31.3063907623291 31.694122314453125 5.801199436187744
31.095359802246094 34.06632614135742 6.006324291229248
31.095365524291992 35.44437026977539 6.140054225921631
32.392494201660156 15.126251220703125 3.838918924331665
30.569501876831055 15.770674705505371 3.693695545196533
30.569501876831055 17.328489303588867 3.7733209133148193
30.56951141357422 19.801982879638672 3.9111340045928955
30.56951141357422 20.668243408203125 3.9624760150909424
30.489198684692383 21.50125503540039 4.0062103271484375
31.0953311920166 23.817007064819336 4.205974578857422
31.30637550354004 27.057952880859375 4.443350315093994
31.306381225585938 28.15445327758789 4.521221160888672
31.262216567993164 30.426246643066406 4.6844587326049805
31.095355987548828 31.480478286743164 4.751495838165283
31.095365524291992 35.444374084472656 5.063173770904541
30.79481315612793 15.126254081726074 2.904372453689575
30.569501876831055 17.3284854888916 2.974639892578125
30.489208221435547 23.352752685546875 3.2510881423950195
30.569530487060547 25.386266708374023 3.363771915435791
30.507835388183594 27.436302185058594 3.473334789276123
30.56954002380371 28.601118087768555 3.5438292026519775
30.56954002380371 29.7520809173584 3.611096143722534
30.56954574584961 30.948156356811523 3.6824309825897217
31.095359802246094 32.74657440185547 3.8227641582489014
31.095365524291992 34.06631851196289 3.904536008834839
31.30640983581543 38.65673828125 4.210941791534424
32.39249038696289 15.126251220703125 2.216881275177002
30.794828414916992 15.126255989074707 2.1275274753570557
30.569501876831055 15.770678520202637 2.133018970489502
30.569501876831055 17.328489303588867 2.178999662399292
30.489192962646484 18.085859298706055 2.1982502937316895
30.56951141357422 18.95754623413086 2.230548143386841
30.56951141357422 19.801984786987305 2.2585835456848145
30.56951141357422 20.66824722290039 2.2882328033447266
30.569520950317383 22.47264289855957 2.352729558944702
30.489208221435547 23.352746963500977 2.381504535675049
30.569530487060547 25.386266708374023 2.4640491008758545
30.56954002380371 28.601125717163086 2.595945358276367
30.56954002380371 29.752086639404297 2.6452202796936035
30.849653244018555 38.09273910522461 3.039616584777832
32.392494201660156 15.126251220703125 1.409666895866394
30.48918914794922 17.28296661376953 1.3819379806518555
30.489198684692383 19.749963760375977 1.4324109554290771
30.489198684692383 20.61395263671875 1.4512144327163696
30.48920249938965 21.501266479492188 1.4710968732833862
30.489208221435547 24.32069206237793 1.537853479385376
30.48921775817871 27.419565200805664 1.616873860359192
30.48922348022461 28.525985717773438 1.6463685035705566
30.489227294921875 29.673919677734375 1.6776188611984253
30.56954574584961 30.948158264160156 1.7152652740478516
30.79481315612793 15.126254081726074 0.5795460343360901
30.48918342590332 15.729243278503418 0.5795130729675293
30.48918342590332 16.49781608581543 0.5855793356895447
30.48918914794922 17.282958984375 0.592005729675293
30.489192962646484 19.749958038330078 0.6136274337768555
30.489198684692383 20.61394500732422 0.62168288230896
30.489198684692383 21.501258850097656 0.6302003264427185
30.489208221435547 23.35274887084961 0.6487281918525696
30.489213943481445 25.319576263427734 0.6694502234458923
30.48921775817871 26.35169219970703 0.680720329284668
30.48922348022461 28.52597999572754 0.7052845358848572
30.489227294921875 29.673927307128906 0.7186720371246338
30.848533630371094 38.09136199951172 0.8279697895050049
32.39249038696289 15.126251220703125 -0.20127837359905243
30.79481315612793 15.126254081726074 -0.19317123293876648
30.48918342590332 15.729240417480469 -0.19315749406814575
31.157480239868164 16.859434127807617 -0.19945739209651947
31.157480239868164 17.661787033081055 -0.2016465663909912
31.157489776611328 21.065778732299805 -0.2117549031972885
31.157493591308594 21.97254753112793 -0.21465621888637543
31.157508850097656 25.87454605102539 -0.22802504897117615
31.157508850097656 26.929290771484375 -0.23186400532722473
30.50557518005371 28.541278839111328 -0.23520416021347046
30.50557518005371 30.883384704589844 -0.24440306425094604
32.111717224121094 38.09135818481445 -0.2805013954639435
30.848539352416992 38.09136199951172 -0.275970458984375
31.157489776611328 19.322174072265625 -1.0323325395584106
31.157499313354492 22.90488624572754 -1.088880181312561
31.157499313354492 23.864614486694336 -1.105101466178894
31.4769287109375 29.450082778930664 -1.2137608528137207
31.4769287109375 30.635204315185547 -1.236799716949463
30.848548889160156 38.09136199951172 -1.3801854848861694
31.157480239868164 16.85943603515625 -1.7966238260269165
31.157480239868164 17.661785125732422 -1.8163410425186157
31.15748405456543 18.482290267944336 -1.8372178077697754
31.157489776611328 21.065778732299805 -1.9073944091796875
31.157499313354492 23.864620208740234 -1.9903713464736938
31.157508850097656 26.929288864135742 -2.088527202606201
30.50557518005371 29.689838409423828 -2.158830165863037
29.259252548217773 33.35145568847656 -2.2500360012054443
27.538455963134766 13.526747703552246 -2.2496156692504883
27.266592025756836 14.066718101501465 -2.2496156692504883
26.98413848876953 14.60122299194336 -2.2496156692504883
26.387922286987305 15.653029441833496 -2.2496156692504883
26.074386596679688 16.16991424560547 -2.2496156692504883
25.41707420349121 17.18465232849121 -2.2496156692504883
25.073558807373047 17.68210792541504 -2.2496156692504883
24.801862716674805 20.596548080444336 -2.3638288974761963
24.358373641967773 21.90597152709961 -2.4020156860351562
23.922025680541992 22.381654739379883 -2.4020156860351562
22.55797004699707 23.755834579467773 -2.4020156860351562
21.115114212036133 25.04703140258789 -2.4020156860351562
22.235124588012695 11.4710054397583 -2.4020156860351562
21.76591682434082 12.338127136230469 -2.4020156860351562
21.2629337310791 13.186114311218262 -2.4020156860351562
20.998973846435547 13.60248851776123 -2.4020156860351562
20.44676399230957 14.419243812561035 -2.4020156860351562
18.603269577026367 16.730295181274414 -2.4020156860351562
18.270044326782227 17.093608856201172 -2.4020156860351562
17.929691314697266 17.450239181518555 -2.4020156860351562
17.582372665405273 17.800128936767578 -2.4020156860351562
17.228252410888672 18.143096923828125 -2.4020156860351562
16.500091552734375 18.807790756225586 -2.4020156860351562
16.126291275024414 19.129220962524414 -2.4020156860351562
18.32217788696289 8.555866241455078 -2.402017593383789
18.15004539489746 8.915206909179688 -2.40201735496521
17.970861434936523 9.271092414855957 -2.40201735496521
17.59161376953125 9.971908569335938 -2.402017116546631
17.39173698425293 10.316591262817383 -2.4020156860351562
17.18509292602539 10.657258987426758 -2.4020156860351562
16.97177505493164 10.993789672851562 -2.4020156860351562
16.525461196899414 11.653905868530273 -2.4020156860351562
15.808112144470215 12.609843254089355 -2.4020156860351562
15.299020767211914 13.222875595092773 -2.4020156860351562
15.0355224609375 13.521745681762695 -2.4020156860351562
14.766180992126465 13.815364837646484 -2.4020156860351562
14.491120338439941 14.103612899780273 -2.4020156860351562
13.92419147491455 14.663596153259277 -2.4020156860351562
13.632587432861328 14.935094833374023 -2.4020156860351562
15.360483169555664 7.172860145568848 -2.4020204544067383
15.065958976745605 7.772468090057373 -2.4020192623138428
14.748039245605469 8.360007286071777 -2.4020190238952637
14.407218933105469 8.9345703125 -2.4020187854766846
14.228459358215332 9.21672248840332 -2.4020180702209473
14.044020652770996 9.495245933532715 -2.4020164012908936
13.458518028259277 10.30834674835205 -2.4020156860351562
13.252802848815918 10.571520805358887 -2.4020156860351562
12.148698806762695 11.82382869720459 -2.4020156860351562
11.18002700805664 12.743661880493164 -2.4020156860351562
13.08719253540039 6.4283599853515625 -2.402022123336792
12.684572219848633 7.190306186676025 -2.402022123336792
12.540353775024414 7.438838481903076 -2.4020204544067383
12.237592697143555 7.927132606506348 -2.402020215988159
12.079028129577637 8.166707992553711 -2.402020215988159
11.915778160095215 8.40311336517334 -2.40201997756958
11.575441360473633 8.866036415100098 -2.40201735496521
11.39852237701416 9.092386245727539 -2.4020164012908936
11.031425476074219 9.534408569335938 -2.4020156860351562
10.647216796875 9.961627960205078 -2.4020156860351562
10.448891639709473 10.169473648071289 -2.4020156860351562
9.615741729736328 10.960601806640625 -2.4020156860351562
8.801652908325195 10.440634727478027 -2.2496156692504883
11.117441177368164 6.301981449127197 -2.4020233154296875
10.29650592803955 7.5692949295043945 -2.4020211696624756
10.145368576049805 7.770693302154541 -2.4020211696624756
9.990300178527832 7.969077110290527 -2.4020209312438965
9.668557167053223 8.356488227844238 -2.4020183086395264
9.33181381225586 8.730923652648926 -2.4020166397094727
9.157995223999023 8.9130859375 -2.4020161628723145
8.980570793151855 9.091798782348633 -2.4020159244537354
8.241389274597168 8.679020881652832 -2.249617338180542
10.19952392578125 5.00995397567749 -2.4020237922668457
9.994220733642578 5.4079132080078125 -2.4020237922668457
9.885729789733887 5.6037797927856445 -2.4020237922668457
9.657272338867188 5.98891544342041 -2.402024030685425
9.537394523620605 6.1780314445495605 -2.402024030685425
9.413820266723633 6.364744663238525 -2.402024030685425
9.286591529846191 6.548990249633789 -2.402024269104004
9.155752182006836 6.730690956115723 -2.402024269104004
8.74212646484375 7.259840488433838 -2.402024269104004
8.597380638122559 7.4306769371032715 -2.4020228385925293
8.449301719665527 7.598625183105469 -2.402021646499634
7.3283371925354 7.717494487762451 -2.2496249675750732
7.174875259399414 7.860365867614746 -2.2496249675750732
7.018604755401611 8.000212669372559 -2.2496249675750732
6.859609127044678 8.136953353881836 -2.2496252059936523
6.697954177856445 8.270528793334961 -2.2496254444122314
9.260466575622559 4.324339389801025 -2.402024269104004
9.173463821411133 4.505959987640381 -2.402024269104004
8.988815307617188 4.8638834953308105 -2.402024269104004
8.8912353515625 5.040048122406006 -2.402024269104004
8.685761451721191 5.386438369750977 -2.402024507522583
8.577943801879883 5.556528568267822 -2.402024507522583
8.466801643371582 5.724459648132324 -2.402024745941162
8.352370262145996 5.890169143676758 -2.402024745941162
7.98980188369751 6.373324394226074 -2.402024745941162
7.862678050994873 6.529510974884033 -2.402024984359741
7.732499599456787 6.683165073394775 -2.4020254611968994
7.599323749542236 6.834227561950684 -2.402026414871216
6.591134071350098 6.941132545471191 -2.2496299743652344
6.453096866607666 7.069649696350098 -2.2496299743652344
6.16955041885376 7.318400859832764 -2.2496304512023926
6.024157524108887 7.438545227050781 -2.2496304512023926
7.978984355926514 4.733049392700195 -2.402024745941162
7.884179592132568 4.889341354370117 -2.402024984359741
7.685427188873291 5.196206092834473 -2.4020259380340576
7.47474479675293 5.494927406311035 -2.4020273685455322
7.252455711364746 5.785152435302734 -2.4020285606384277
7.018898963928223 6.066402435302734 -2.402029514312744
6.648252010345459 6.4704718589782715 -2.4020304679870605
6.37365198135376 6.712102890014648 -2.3965744972229004
5.972650051116943 6.543298721313477 -2.293833017349243
5.729982852935791 6.531380653381348 -2.249630928039551
5.600181579589844 6.643013000488281 -2.249630928039551
5.468201637268066 6.752068996429443 -2.249630928039551
7.688022136688232 3.589972496032715 -2.4020259380340576
7.615797996520996 3.740840435028076 -2.402026414871216
7.540612697601318 3.8901708126068115 -2.402026891708374
7.297619342803955 4.328869342803955 -2.4020285606384277
7.210914134979248 4.4717817306518555 -2.402028799057007
7.121397495269775 4.613022327423096 -2.402029275894165
7.029133319854736 4.752441883087158 -2.402029514312744
6.934136867523193 4.890015125274658 -2.4020297527313232
6.836435317993164 5.025684833526611 -2.4020302295684814
6.736089706420898 5.159406661987305 -2.4020304679870605
6.633133411407471 5.291131019592285 -2.4020304679870605
6.419512748718262 5.548354148864746 -2.4020309448242188
6.308952331542969 5.673768043518066 -2.4020309448242188
5.842635154724121 6.152887344360352 -2.4020309448242188
5.720274448394775 6.26680850982666 -2.4020309448242188
5.595690727233887 6.378304958343506 -2.4020309448242188
7.076006889343262 3.304267406463623 -2.402029275894165
7.009530067443848 3.443044424057007 -2.4020297527313232
6.940330505371094 3.5804882049560547 -2.4020297527313232
6.868436336517334 3.7165379524230957 -2.4020299911499023
6.793876647949219 3.8511462211608887 -2.4020302295684814
6.554487228393555 4.245795726776123 -2.4020307064056396
6.469563961029053 4.3741135597229 -2.4020309448242188
5.264895915985107 5.767923831939697 -2.4020309448242188
6.421966552734375 3.3130650520324707 -2.4020309448242188
6.355441570281982 3.4389941692352295 -2.4020309448242188
6.286448955535889 3.5635082721710205 -2.4020309448242188
6.215014457702637 3.686680316925049 -2.4020309448242188
6.141171932220459 3.8084185123443604 -2.4020309448242188
5.98635721206665 4.047414302825928 -2.4020309448242188
5.905450344085693 4.164577007293701 -2.4020309448242188
5.822250843048096 4.280123710632324 -2.4020309448242188
5.467175006866455 4.725253582000732 -2.4020309448242188
5.373012542724609 4.832056045532227 -2.4020309448242188
5.178467750549316 5.0399909019470215 -2.4020309448242188
5.078155517578125 5.141047954559326 -2.4020309448242188
4.975876331329346 5.2401018142700195 -2.4020309448242188
4.871667385101318 5.337123870849609 -2.4020309448242188
4.765562534332275 5.432074546813965 -2.4020309448242188
4.547843933105469 5.615616798400879 -2.4020309448242188
6.086087703704834 2.842005491256714 -2.4020309448242188
5.907553672790527 3.1965997219085693 -2.4020309448242188
5.489274978637695 3.871135711669922 -2.4020309448242188
5.411937236785889 3.9784905910491943 -2.4020309448242188
5.332499980926514 4.084347248077393 -2.4020309448242188
5.167442321777344 4.291268825531006 -2.4020309448242188
4.994360446929932 4.49155330657959 -2.4020309448242188
4.625211238861084 4.870815753936768 -2.4020309448242188
4.429718971252441 5.049259662628174 -2.4020309448242188
4.329372406005859 5.135560035705566 -2.4020309448242188
4.227343559265137 5.21986722946167 -2.4020309448242188
5.570448875427246 2.8737711906433105 -2.4020309448242188
5.512746334075928 2.9829955101013184 -2.4020309448242188
5.32688570022583 3.3034448623657227 -2.4020309448242188
5.260764122009277 3.407742738723755 -2.4020309448242188
5.192598819732666 3.510751247406006 -2.4020309448242188
5.050252437591553 3.712604284286499 -2.4020309448242188
4.976124286651611 3.811368227005005 -2.4020309448242188
4.822098255157471 4.004479885101318 -2.4020309448242188
4.742259502410889 4.0987138748168945 -2.4020309448242188
4.66058349609375 4.191354751586914 -2.4020309448242188
4.577096939086914 4.2823686599731445 -2.4020309448242188
4.404821872711182 4.459374904632568 -2.4020309448242188
4.040036678314209 4.792346477508545 -2.4020309448242188
5.26780891418457 2.5874974727630615 -2.4020309448242188
5.21580171585083 2.690810441970825 -2.4020309448242188
5.105738639831543 2.8942155838012695 -2.4020309448242188
5.047720909118652 2.9942541122436523 -2.4020309448242188
4.987746238708496 3.0931267738342285 -2.4020309448242188
4.925832271575928 3.190804958343506 -2.4020309448242188
4.862009048461914 3.2872369289398193 -2.4020309448242188
4.659313678741455 3.5687310695648193 -2.4020309448242188
4.515093803405762 3.7495298385620117 -2.4020309448242188
4.440340518951416 3.8377654552459717 -2.4020309448242188
4.20585823059082 4.093388080596924 -2.4020309448242188
4.993906021118164 2.33199143409729 -2.4020309448242188
4.9469895362854 2.429969072341919 -2.4020309448242188
4.898152828216553 2.5269346237182617 -2.4020309448242188
4.847412109375 2.622953414916992 -2.4020309448242188
4.683985710144043 2.904752731323242 -2.4020309448242188
4.625842094421387 2.9964776039123535 -2.4020309448242188
4.440738201141357 3.2645275592803955 -2.4020309448242188
4.308675289154053 3.4369518756866455 -2.4020309448242188
4.169917106628418 3.6040399074554443 -2.4020309448242188
4.09809684753418 3.6855010986328125 -2.4020309448242188
4.024686336517334 3.765530824661255 -2.4020309448242188
3.9497129917144775 3.8440959453582764 -2.4020309448242188
3.873204231262207 3.921173572540283 -2.4020309448242188
3.7157139778137207 4.0707244873046875 -2.4020309448242188
4.657706260681152 2.2878410816192627 -2.4020309448242188
4.61172342300415 2.37916898727417 -2.4020309448242188
4.410080432891846 2.734891891479492 -2.4020309448242188
4.240804195404053 2.9906535148620605 -2.4020309448242188
4.181056976318359 3.0736308097839355 -2.4020309448242188
4.056719779968262 3.235970973968506 -2.4020309448242188
3.789334535598755 3.545335054397583 -2.4020309448242188
3.646710157394409 3.6918749809265137 -2.4020309448242188
4.306795597076416 2.3304245471954346 -2.4020309448242188
4.260042667388916 2.4148285388946533 -2.4020309448242188
4.211635589599609 2.4982972145080566 -2.4020309448242188
4.10993766784668 2.662290573120117 -2.4020309448242188
4.056685924530029 2.742750883102417 -2.4020309448242188
3.8281407356262207 3.0536389350891113 -2.4020309448242188
3.7672300338745117 3.1284735202789307 -2.4020309448242188
3.704859495162964 3.202091693878174 -2.4020309448242188
3.6410484313964844 3.274467706680298 -2.4020309448242188
3.371927499771118 3.5509824752807617 -2.4020309448242188
3.229407787322998 3.681072950363159 -2.4020309448242188
3.1562511920928955 3.743988037109375 -2.4020309448242188
3.0818700790405273 3.805450916290283 -2.4020309448242188
4.155875205993652 2.041344165802002 -2.4020309448242188
4.114844799041748 2.1228315830230713 -2.4020309448242188
3.9349279403686523 2.4402284622192383 -2.4020309448242188
3.8860838413238525 2.5172853469848633 -2.4020309448242188
3.835731029510498 2.5933635234832764 -2.4020309448242188
3.783891439437866 2.6684350967407227 -2.4020309448242188
3.7305798530578613 2.7424707412719727 -2.4020309448242188
3.6758227348327637 2.815441131591797 -2.4020309448242188
3.6196374893188477 2.8873186111450195 -2.4020309448242188
3.562044620513916 2.9580767154693604 -2.4020309448242188
3.5030674934387207 3.027686595916748 -2.4020309448242188
3.4427342414855957 3.0961194038391113 -2.4020309448242188
3.253804922103882 3.29410457611084 -2.4020309448242188
3.188272714614868 3.357574462890625 -2.4020309448242188
2.914011240005493 3.59818172454834 -2.4020309448242188
3.6808605194091797 2.384347438812256 -2.4020309448242188
3.5840635299682617 2.527514934539795 -2.4020309448242188
3.5335693359375 2.5976402759552 -2.4020309448242188
3.4817028045654297 2.666757106781006 -2.4020309448242188
3.428483724594116 2.7348387241363525 -2.4020309448242188
3.373931884765625 2.801860809326172 -2.4020309448242188
3.0819714069366455 3.120142698287964 -2.4020309448242188
2.9566540718078613 3.239142894744873 -2.4020309448242188
2.826739549636841 3.353116989135742 -2.4020309448242188
2.7601232528686523 3.4081621170043945 -2.4020309448242188
3.6974034309387207 1.9074751138687134 -2.4020309448242188
3.6193809509277344 2.051665782928467 -2.4020309448242188
3.491849184036255 2.261911630630493 -2.4020309448242188
3.2524328231811523 2.5944066047668457 -2.4020309448242188
3.093475341796875 2.782025098800659 -2.4020309448242188
2.9237146377563477 2.9599249362945557 -2.4020309448242188
2.6183922290802 3.233154296875 -2.4020309448242188
