ply
format ascii 1.0
element vertex 833
property float x
property float y
property float z
end_header
7.778188228607178 -0.698291003704071 -2.402024984359741
7.80614709854126 -0.22792159020900726 -2.402024984359741
7.809147834777832 -0.0706687942147255 -2.402024984359741
7.805673599243164 0.24348892271518707 -2.402024984359741
7.79918909072876 0.4005641043186188 -2.402024984359741
7.741735458374023 1.0263267755508423 -2.4020254611968994
7.694179534912109 1.3367829322814941 -2.4020259380340576
7.599511623382568 1.7987052202224731 -2.402026414871216
7.561784267425537 1.9509996175765991 -2.402026653289795
7.52099084854126 2.102996349334717 -2.402027130126953
7.477158069610596 2.2538950443267822 -2.4020273685455322
7.380425930023193 2.5528924465179443 -2.4020280838012695
7.327568054199219 2.7009875774383545 -2.4020283222198486
7.212978363037109 2.9933464527130127 -2.402028799057007
7.086702823638916 3.281259059906006 -2.402029275894165
6.875845909118652 3.7028136253356934 -2.4020299911499023
6.721304893493652 3.9764513969421387 -2.4020304679870605
6.639937400817871 4.110879898071289 -2.4020304679870605
6.469171047210693 4.374692440032959 -2.4020309448242188
6.2879319190979 4.631418228149414 -2.4020309448242188
6.193473815917969 4.756992816925049 -2.4020309448242188
5.997077465057373 5.002319812774658 -2.4020309448242188
5.895214557647705 5.121972560882568 -2.4020309448242188
5.790960788726807 5.2395501136779785 -2.4020309448242188
5.575478553771973 5.468287944793701 -2.4020309448242188
5.350959300994873 5.688175678253174 -2.4020309448242188
4.998054027557373 6.0006303787231445 -2.4020309448242188
4.568320274353027 6.211513519287109 -2.371596574783325
4.378983020782471 6.212178707122803 -2.3377318382263184
4.1977219581604 6.216993808746338 -2.3072872161865234
4.021687984466553 6.22268009185791 -2.2788994312286377
3.719682455062866 6.297510147094727 -2.249630928039551
3.5922203063964844 6.371076583862305 -2.249630928039551
3.463391065597534 6.442224979400635 -2.249687910079956
3.333307981491089 6.511074542999268 -2.2498488426208496
3.069066047668457 6.640798091888428 -2.250150442123413
1.5548070669174194 3.5501458644866943 -1.1920788288116455
1.2494579553604126 3.1971850395202637 -1.0558112859725952
1.0555529594421387 3.058649778366089 -0.9952208995819092
0.985339343547821 3.053051710128784 -0.9867478609085083
0.9158446788787842 3.0460991859436035 -0.9783456325531006
0.8470996022224426 3.0378308296203613 -0.9700185656547546
0.6455615162849426 3.005513906478882 -0.9455157518386841
0.5158593654632568 2.9813060760498047 -0.9306118488311768
0.45599365234375 2.9925572872161865 -0.931070864200592
0.2751867473125458 3.020750045776367 -0.9329652190208435
0.2145043909549713 3.027822256088257 -0.9336271286010742
0.15364745259284973 3.0336389541625977 -0.9342780709266663
0.09264282137155533 3.038195848464966 -0.9349180459976196
0.03151489049196243 3.041487455368042 -0.9355463981628418
-0.09266967326402664 3.100309371948242 -0.9540145397186279
-0.22176024317741394 3.1571850776672363 -0.9734750390052795
-0.5098351836204529 3.3594701290130615 -1.0451319217681885
-1.676207184791565 7.1236572265625 -2.2509233951568604
-2.102604866027832 7.008533954620361 -2.2505943775177
-2.3826024532318115 6.917485237121582 -2.2503395080566406
-2.9302752017974854 6.701765060424805 -2.249746561050415
-3.197392463684082 6.578201770782471 -2.2496631145477295
-3.329056978225708 6.512504577636719 -2.249650478363037
-3.459428548812866 6.444162368774414 -2.2496373653411865
-3.588557004928589 6.373236179351807 -2.249630928039551
-3.715893507003784 6.299747943878174 -2.249630928039551
-4.3867292404174805 6.231112480163574 -2.3438642024993896
-4.748851299285889 6.199714660644531 -2.4020309448242188
-4.994444847106934 6.003634452819824 -2.4020309448242188
-5.11423397064209 5.901928424835205 -2.4020309448242188
-5.572190284729004 5.471640110015869 -2.4020309448242188
-5.787810325622559 5.2430315017700195 -2.4020309448242188
-5.99406099319458 5.005928039550781 -2.4020309448242188
-6.09357213973999 4.884310722351074 -2.4020309448242188
-6.190608501434326 4.7607221603393555 -2.4020309448242188
-6.377138137817383 4.507803440093994 -2.4020309448242188
-6.553330421447754 4.247586727142334 -2.4020309448242188
-6.637466907501221 4.114871501922607 -2.4020309448242188
-6.79764461517334 3.8444981575012207 -2.4020309448242188
-7.017195701599121 3.4274041652679443 -2.4020309448242188
-7.211182117462158 2.9978277683258057 -2.4020309448242188
-7.270037651062012 2.852134943008423 -2.4020309448242188
-7.32595157623291 2.705281972885132 -2.4020309448242188
-7.378902435302734 2.5573344230651855 -2.4020309448242188
-7.428854942321777 2.408350944519043 -2.4020309448242188
-7.519745349884033 2.107523202896118 -2.4020309448242188
-7.560621738433838 1.9558002948760986 -2.4020309448242188
-7.5984416007995605 1.8032804727554321 -2.4020309448242188
-7.741137981414795 1.0309864282608032 -2.4020309448242188
-7.7763495445251465 0.7187098264694214 -2.4020309448242188
-7.7892351150512695 0.5621006488800049 -2.4020309448242188
-7.805543422698975 0.24826309084892273 -2.4020309448242188
-7.791007041931152 -0.5369729399681091 -2.4020309448242188
-6.133998394012451 -3.8199563026428223 -2.4020309448242188
-6.055907249450684 -3.942598819732666 -2.4020309448242188
-5.807024955749512 -4.3007588386535645 -2.4020309448242188
-5.719361305236816 -4.41673469543457 -2.4020309448242188
-5.629296779632568 -4.530904293060303 -2.4020309448242188
-5.2467875480651855 -4.968831539154053 -2.4020309448242188
-5.145750999450684 -5.073390483856201 -2.4020309448242188
-5.042627334594727 -5.175899982452393 -2.4020309448242188
-4.937469482421875 -5.276309013366699 -2.4020309448242188
-4.830312252044678 -5.374581336975098 -2.4020309448242188
-4.61017370223999 -5.564568996429443 -2.4020309448242188
-4.382576942443848 -5.745538711547852 -2.4020309448242188
-4.2660627365112305 -5.832553386688232 -2.4020309448242188
-3.906435489654541 -6.079292297363281 -2.4020309448242188
-3.5325639247894287 -6.30388879776001 -2.4020309448242188
-3.4050090312957764 -6.373690128326416 -2.4020309448242188
-3.2760801315307617 -6.440908432006836 -2.4020309448242188
-3.1458263397216797 -6.505521297454834 -2.4020309448242188
-2.881547212600708 -6.626818656921387 -2.4020309448242188
-2.7476305961608887 -6.683454990386963 -2.4020309448242188
-2.3394298553466797 -6.837040424346924 -2.4020309448242188
-2.201395273208618 -6.882725238800049 -2.4020309448242188
-2.0624656677246094 -6.925625324249268 -2.4020309448242188
-1.782164216041565 -7.002993583679199 -2.4020309448242188
-1.356441617012024 -7.097753524780273 -2.4020309448242188
-1.213356852531433 -7.1236090660095215 -2.4020309448242188
-1.0697802305221558 -7.146581172943115 -2.4020309448242188
-0.781390368938446 -7.18383264541626 -2.4020309448242188
-0.4917345941066742 -7.209455490112305 -2.4020309448242188
-0.20128539204597473 -7.223400592803955 -2.4020309448242188
0.08949096500873566 -7.225651264190674 -2.4020309448242188
0.23485717177391052 -7.222387313842773 -2.4020309448242188
0.3801232874393463 -7.216200828552246 -2.4020309448242188
0.9590734839439392 -7.162277698516846 -2.4020309448242188
1.1029845476150513 -7.1415300369262695 -2.4020309448242188
1.673592448234558 -7.029732704162598 -2.4020309448242188
1.814693570137024 -6.994635581970215 -2.4020309448242188
1.9550597667694092 -6.9567084312438965 -2.4020309448242188
2.094635009765625 -6.915961742401123 -2.4020309448242188
2.778665781021118 -6.670609474182129 -2.4020309448242188
3.1760313510894775 -6.4908294677734375 -2.4020309448242188
3.434600830078125 -6.357794761657715 -2.4020309448242188
3.5618274211883545 -6.287402153015137 -2.4020309448242188
3.8119029998779297 -6.139009475708008 -2.4020309448242188
3.9346494674682617 -6.061069011688232 -2.4020309448242188
4.055803298950195 -5.980678558349609 -2.4020309448242188
4.293130874633789 -5.812662601470947 -2.4020309448242188
4.52351188659668 -5.6352362632751465 -2.4020309448242188
4.746571063995361 -5.4486870765686035 -2.4020309448242188
4.855238914489746 -5.3520731925964355 -2.4020309448242188
4.961940765380859 -5.253288269042969 -2.4020309448242188
5.368237018585205 -4.8373613357543945 -2.4020309448242188
5.558513164520264 -4.617464065551758 -2.4020309448242188
5.650292873382568 -4.50473690032959 -2.4020309448242188
5.994172096252441 -4.035796642303467 -2.4020309448242188
6.151690483093262 -3.7914013862609863 -2.4020309448242188
6.22672700881958 -3.6668522357940674 -2.4020309448242188
6.299249172210693 -3.540757894515991 -2.4020309448242188
6.436602592468262 -3.284491777420044 -2.4020309448242188
6.501384258270264 -3.154315710067749 -2.4020309448242188
6.563536167144775 -3.0228703022003174 -2.4020307064056396
6.623029708862305 -2.890251398086548 -2.4020307064056396
6.679841041564941 -2.7563748359680176 -2.4020304679870605
6.733945369720459 -2.6214492321014404 -2.4020304679870605
6.833959579467773 -2.3483998775482178 -2.4020302295684814
6.879828929901123 -2.2104227542877197 -2.4020302295684814
6.92290735244751 -2.071552038192749 -2.4020299911499023
6.963185787200928 -1.9319034814834595 -2.4020297527313232
7.000645637512207 -1.7914049625396729 -2.4020297527313232
7.035270690917969 -1.6501333713531494 -2.402029514312744
7.095963001251221 -1.3657525777816772 -2.402029275894165
7.12200403213501 -1.222702145576477 -2.402029275894165
7.145162105560303 -1.0791583061218262 -2.402029037475586
7.165429592132568 -0.935177743434906 -2.402029037475586
7.182797908782959 -0.7908163070678711 -2.402029037475586
7.197253227233887 -0.6460487246513367 -2.402028799057007
7.208797454833984 -0.5013139247894287 -2.402028799057007
7.217422962188721 -0.3562006950378418 -2.402028799057007
7.225900650024414 -0.06554458290338516 -2.402028799057007
7.225754261016846 0.07982680946588516 -2.402028799057007
7.207766056060791 0.5156828165054321 -2.402028799057007
7.181179046630859 0.8053852915763855 -2.402028799057007
7.142964839935303 1.093612790107727 -2.402029037475586
7.119513988494873 1.2371113300323486 -2.402029275894165
7.09318208694458 1.3801069259643555 -2.402029275894165
7.063980579376221 1.5225437879562378 -2.402029275894165
7.03191614151001 1.6643632650375366 -2.402029514312744
6.99700403213501 1.8055109977722168 -2.4020297527313232
6.829193115234375 2.362220525741577 -2.4020302295684814
6.780282974243164 2.4991455078125 -2.4020302295684814
6.674249172210693 2.769909620285034 -2.4020304679870605
6.494992733001709 3.167510986328125 -2.4020307064056396
6.42994499206543 3.2975499629974365 -2.4020309448242188
6.066227912902832 3.926689863204956 -2.4020309448242188
5.81829309463501 4.285500526428223 -2.4020309448242188
5.454903602600098 4.739415168762207 -2.4020309448242188
5.35844087600708 4.848213195800781 -2.4020309448242188
5.159051418304443 5.0598649978637695 -2.4020309448242188
5.056196212768555 5.162646770477295 -2.4020309448242188
4.844400405883789 5.361885070800781 -2.4020309448242188
4.624751091003418 5.55244779586792 -2.4020309448242188
4.512099742889404 5.644376277923584 -2.4020309448242188
4.397622108459473 5.734018802642822 -2.4020309448242188
4.163369178771973 5.9063005447387695 -2.4020309448242188
3.663362979888916 6.20216178894043 -2.3944058418273926
3.4998865127563477 6.207314968109131 -2.3687245845794678
1.5059850215911865 3.093607187271118 -1.1437071561813354
1.0321215391159058 2.8063299655914307 -0.9939295649528503
0.9679186940193176 2.80471134185791 -0.9862573146820068
0.9042773246765137 2.801884651184082 -0.9786661863327026
0.7167382836341858 2.7858057022094727 -0.9561747312545776
0.5948632955551147 2.769482374191284 -0.941588282585144
0.5349230766296387 2.759749174118042 -0.9344297647476196
0.47868895530700684 2.7664904594421387 -0.9332618713378906
0.36732420325279236 2.78598690032959 -0.9340924024581909
0.2551831007003784 2.801158905029297 -0.9349767565727234
0.142425537109375 2.8120453357696533 -0.935937762260437
0.08586425334215164 2.8158819675445557 -0.936450183391571
-0.0277563463896513 2.8439178466796875 -0.9453791379928589
-0.08569946140050888 2.867105007171631 -0.9534676671028137
-0.20442992448806763 2.910451650619507 -0.9698339700698853
-0.3269384801387787 2.950225830078125 -0.9866747856140137
-0.39076414704322815 2.9775822162628174 -0.9982517957687378
-0.5272753834724426 3.0582401752471924 -1.0315747261047363
-0.5990942120552063 3.1008074283599854 -1.049787163734436
-0.6743908524513245 3.1489555835723877 -1.0704659223556519
-0.7542895078659058 3.2056291103363037 -1.0946701765060425
-0.9843053817749023 3.538090705871582 -1.22074556350708
-2.074754476547241 6.441874980926514 -2.2496376037597656
-2.2063145637512207 6.405665874481201 -2.252041816711426
-2.586900472640991 6.255964279174805 -2.25026798248291
-2.7287254333496094 6.242025852203369 -2.264552354812622
-2.878631591796875 6.238558292388916 -2.2838478088378906
-3.0306499004364014 6.235112190246582 -2.304447650909424
-3.1854217052459717 6.231441020965576 -2.326310157775879
-3.3431451320648193 6.227531433105469 -2.3494932651519775
-3.66835618019104 6.2189621925354 -2.4000391960144043
-3.795786142349243 6.148993968963623 -2.4020309448242188
-3.918724298477173 6.071378231048584 -2.4020309448242188
-4.159820079803467 5.908801555633545 -2.4020309448242188
-4.394230365753174 5.736661911010742 -2.4020309448242188
-4.508665561676025 5.647089004516602 -2.4020309448242188
-4.732254981994629 5.461118221282959 -2.4020309448242188
-4.9479899406433105 5.2663092613220215 -2.4020309448242188
-5.053085803985596 5.165687084197998 -2.4020309448242188
-5.156004428863525 5.062966823577881 -2.4020309448242188
-5.256830215454102 4.95820426940918 -2.4020309448242188
-5.452050685882568 4.742698669433594 -2.4020309448242188
-5.546371936798096 4.632038593292236 -2.4020309448242188
-5.6384501457214355 4.519505500793457 -2.4020309448242188
-5.815713882446289 4.289000988006592 -2.4020309448242188
-5.900831699371338 4.171119213104248 -2.4020309448242188
-5.983561992645264 4.051549434661865 -2.4020309448242188
-6.21708345413208 3.6831958293914795 -2.4020309448242188
-6.289932727813721 3.5573582649230957 -2.4020309448242188
-6.360235691070557 3.430079936981201 -2.4020309448242188
-6.4279632568359375 3.30141544342041 -2.4020309448242188
-6.778783321380615 2.503228187561035 -2.4020309448242188
-6.873985290527344 2.2284719944000244 -2.4020309448242188
-6.917449951171875 2.0897140502929688 -2.4020309448242188
-6.958101749420166 1.9501142501831055 -2.4020309448242188
-6.99592399597168 1.8097224235534668 -2.4020309448242188
-7.0923590660095215 1.384376049041748 -2.4020309448242188
-7.118776798248291 1.2413945198059082 -2.4020309448242188
-7.142312526702881 1.097909927368164 -2.4020309448242188
-7.162960529327393 0.9539833068847656 -2.4020309448242188
-7.180701732635498 0.8096659779548645 -2.4020309448242188
-7.207463264465332 0.5201176404953003 -2.4020309448242188
-7.216468811035156 0.37499526143074036 -2.4020309448242188
-7.223256587982178 -0.20642241835594177 -2.4020309448242188
-7.217641353607178 -0.3517158329486847 -2.4020309448242188
-7.209103107452393 -0.49686676263809204 -2.4020309448242188
-7.197647571563721 -0.6418097019195557 -2.4020309448242188
-7.183276176452637 -0.7865014672279358 -2.4020309448242188
-5.629124641418457 -3.664750576019287 -2.4020309448242188
-5.554252624511719 -3.777269124984741 -2.4020309448242188
-5.39778470993042 -3.997670888900757 -2.4020309448242188
-5.316258907318115 -4.105463027954102 -2.4020309448242188
-5.232577323913574 -4.211597919464111 -2.4020309448242188
-5.146782875061035 -4.3160271644592285 -2.4020309448242188
-5.058903217315674 -4.41871452331543 -2.4020309448242188
-4.968971252441406 -4.5196027755737305 -2.4020309448242188
-4.8770341873168945 -4.6186628341674805 -2.4020309448242188
-4.687259197235107 -4.8111395835876465 -2.4020309448242188
-4.589510440826416 -4.904469966888428 -2.4020309448242188
-4.3884782791137695 -5.085146427154541 -2.4020309448242188
-4.073702812194824 -5.340635299682617 -2.4020309448242188
-3.965432643890381 -5.421517372131348 -2.4020309448242188
-3.855541229248047 -5.500205039978027 -2.4020309448242188
-3.516697406768799 -5.722782611846924 -2.4020309448242188
-3.400848388671875 -5.792379856109619 -2.4020309448242188
-3.0452020168304443 -5.986998558044434 -2.4020309448242188
-2.4284801483154297 -6.26257848739624 -2.4020309448242188
-2.3019800186157227 -6.310173034667969 -2.4020309448242188
-2.046254873275757 -6.397677898406982 -2.4020309448242188
-1.6565698385238647 -6.509471416473389 -2.4020309448242188
-1.525262475013733 -6.54148530960083 -2.4020309448242188
-1.2608470916748047 -6.597553730010986 -2.4020309448242188
-1.1278491020202637 -6.621586799621582 -2.4020309448242188
-0.8605322241783142 -6.661603927612305 -2.4020309448242188
-0.7263244390487671 -6.677567481994629 -2.4020309448242188
-0.5918249487876892 -6.690828800201416 -2.4020309448242188
-0.1870996057987213 -6.714345455169678 -2.4020309448242188
0.21830321848392487 -6.713403701782227 -2.4020309448242188
0.3533349633216858 -6.707652568817139 -2.4020309448242188
0.4882250726222992 -6.699185848236084 -2.4020309448242188
1.0252526998519897 -6.638245582580566 -2.4020309448242188
1.2914990186691284 -6.591622352600098 -2.4020309448242188
1.4238622188568115 -6.564302444458008 -2.4020309448242188
1.5556493997573853 -6.5343241691589355 -2.4020309448242188
1.6868053674697876 -6.501702308654785 -2.4020309448242188
1.9470189809799194 -6.428574562072754 -2.4020309448242188
2.0759692192077637 -6.388097286224365 -2.4020309448242188
2.2040770053863525 -6.34503698348999 -2.4020309448242188
2.331293821334839 -6.299405574798584 -2.4020309448242188
2.582845449447632 -6.200511932373047 -2.4020309448242188
2.7070775032043457 -6.14729118347168 -2.4020309448242188
2.9522056579589844 -6.0334014892578125 -2.4020309448242188
3.1925549507141113 -5.909740924835205 -2.4020309448242188
3.427736759185791 -5.776511192321777 -2.4020309448242188
3.543266534805298 -5.7063727378845215 -2.4020309448242188
3.7699766159057617 -5.559199810028076 -2.4020309448242188
3.881065607070923 -5.4822211265563965 -2.4020309448242188
3.990582227706909 -5.403022766113281 -2.4020309448242188
4.098483562469482 -5.321639060974121 -2.4020309448242188
4.204726696014404 -5.238102912902832 -2.4020309448242188
4.513072490692139 -4.974898338317871 -2.4020309448242188
4.804981708526611 -4.693568706512451 -2.4020309448242188
4.898442268371582 -4.596015453338623 -2.4020309448242188
5.079380989074707 -4.395133972167969 -2.4020309448242188
5.495137691497803 -3.862734794616699 -2.4020309448242188
5.855320930480957 -3.2913296222686768 -2.4020309448242188
5.982995510101318 -3.0530121326446533 -2.4020309448242188
6.156283855438232 -2.6865365505218506 -2.4020309448242188
6.259387016296387 -2.4367613792419434 -2.4020309448242188
6.307147026062012 -2.310340642929077 -2.4020309448242188
6.352353572845459 -2.182932138442993 -2.4020309448242188
6.507289886474609 -1.6651089191436768 -2.4020307064056396
6.641625881195068 -1.0031248331069946 -2.4020304679870605
6.660466194152832 -0.8692745566368103 -2.4020304679870605
6.7007737159729 -0.4658994972705841 -2.4020304679870605
6.716675758361816 -0.06078857183456421 -2.4020304679870605
6.713681697845459 0.2095518410205841 -2.4020304679870605
6.688814640045166 0.6141358613967896 -2.4020304679870605
6.639583587646484 1.0165424346923828 -2.4020304679870605
6.59330940246582 1.2828657627105713 -2.4020307064056396
6.566164493560791 1.4152467250823975 -2.4020307064056396
6.53635835647583 1.547071933746338 -2.4020307064056396
6.503907203674316 1.6782736778259277 -2.4020307064056396
6.390815258026123 2.067584276199341 -2.4020309448242188
6.302460670471191 2.323025703430176 -2.4020309448242188
5.976807594299316 3.065190315246582 -2.4020309448242188
5.913925647735596 3.184796094894409 -2.4020309448242188
5.781004428863525 3.4201507568359375 -2.4020309448242188
5.638722896575928 3.6499650478363037 -2.4020309448242188
5.564144134521484 3.762678861618042 -2.4020309448242188
5.487311840057373 3.873868227005005 -2.4020309448242188
5.408257961273193 3.983487367630005 -2.4020309448242188
5.327015399932861 4.091496467590332 -2.4020309448242188
4.980791091918945 4.5059003829956055 -2.4020309448242188
4.889134407043457 4.605844497680664 -2.4020309448242188
4.795480728149414 4.70330810546875 -2.4020309448242188
4.602367877960205 4.892406940460205 -2.4020309448242188
4.401809215545654 5.073610782623291 -2.4020309448242188
2.3586668968200684 3.3460850715637207 -1.4639899730682373
2.199932813644409 3.403911590576172 -1.4493606090545654
1.6338744163513184 2.8977997303009033 -1.189644455909729
1.5293004512786865 2.8446366786956787 -1.1549508571624756
1.332006812095642 2.7362189292907715 -1.0882744789123535
1.1543188095092773 2.6356968879699707 -1.028973937034607
1.0776745080947876 2.601938486099243 -1.0071243047714233
1.0178344249725342 2.6044909954071045 -0.9999815225601196
0.7832263112068176 2.605010986328125 -0.9727655053138733
0.6129015684127808 2.5977368354797363 -0.9544758200645447
0.2924596965312958 2.6246631145477295 -0.9444076418876648
0.23957519233226776 2.6298351287841797 -0.9443426132202148
0.13359375298023224 2.6376781463623047 -0.9444621205329895
0.08051147311925888 2.640347957611084 -0.9446465969085693
-0.026015624403953552 2.6654765605926514 -0.9532392621040344
-0.24669554829597473 2.72615909576416 -0.9788778424263
-0.3039831519126892 2.7430803775787354 -0.9869503378868103
-0.3624584972858429 2.761904239654541 -0.9961459040641785
-0.6175768971443176 2.8836705684661865 -1.0546057224273682
-0.8323901295661926 2.992030620574951 -1.1106066703796387
-0.9148584008216858 3.049467086791992 -1.1385297775268555
-1.096655249595642 3.1839537620544434 -1.2042509317398071
-1.194482445716858 3.2538323402404785 -1.2395216226577759
-2.690938711166382 6.154375076293945 -2.4020309448242188
-2.93636155128479 6.041127681732178 -2.4020309448242188
-3.177032947540283 5.918100357055664 -2.4020309448242188
-3.2954657077789307 5.852978229522705 -2.4020309448242188
-3.5281975269317627 5.715656757354736 -2.4020309448242188
-3.6425492763519287 5.643509864807129 -2.4020309448242188
-3.7553722858428955 5.56907844543457 -2.4020309448242188
-3.8666656017303467 5.492392539978027 -2.4020309448242188
-3.9763872623443604 5.413482666015625 -2.4020309448242188
-4.3987603187561035 5.07625675201416 -2.4020309448242188
-4.500006198883057 4.986722946166992 -2.4020309448242188
-4.978110313415527 4.509537696838379 -2.4020309448242188
-5.155505657196045 4.305605411529541 -2.4020309448242188
-5.24109411239624 4.2010016441345215 -2.4020309448242188
-5.324556827545166 4.09470272064209 -2.4020309448242188
-5.484981060028076 3.8771684169769287 -2.4020309448242188
-5.636528015136719 3.653355598449707 -2.4020309448242188
-5.974963665008545 3.068754196166992 -2.4020309448242188
-6.14921236038208 2.7027087211608887 -2.4020309448242188
-6.202349662780762 2.5784387588500977 -2.4020309448242188
-6.346590042114258 2.19956636428833 -2.4020309448242188
-6.389570236206055 2.0714259147644043 -2.4020309448242188
-6.4299540519714355 1.9424457550048828 -2.4020309448242188
-6.502901554107666 1.6821857690811157 -2.4020309448242188
-6.535430908203125 1.55100417137146 -2.4020309448242188
-6.565313339233398 1.4191926717758179 -2.4020309448242188
-6.592541217803955 1.2868152856826782 -2.4020309448242188
-6.617094039916992 1.15390944480896 -2.4020309448242188
-6.638972759246826 1.0205366611480713 -2.4020309448242188
-6.699557304382324 0.48345962166786194 -2.4020309448242188
-6.707903861999512 0.3485679626464844 -2.4020309448242188
-6.716493606567383 0.07841171324253082 -2.4020309448242188
-6.708991050720215 -0.3269293010234833 -2.4020309448242188
-4.96096658706665 -3.8310911655426025 -2.4020309448242188
-4.8028178215026855 -4.027584075927734 -2.4020309448242188
-4.720808506011963 -4.123404026031494 -2.4020309448242188
-4.636887550354004 -4.217554092407227 -2.4020309448242188
-4.551092624664307 -4.309991359710693 -2.4020309448242188
-4.3740057945251465 -4.4896063804626465 -2.4020309448242188
-4.282790660858154 -4.576701641082764 -2.4020309448242188
-4.095191955566406 -4.745302200317383 -2.4020309448242188
-3.900956392288208 -4.906221866607666 -2.4020309448242188
-3.70041561126709 -5.0591936111450195 -2.4020309448242188
-3.38846492767334 -5.273213863372803 -2.4020309448242188
-3.2817223072052 -5.340327262878418 -2.4020309448242188
-3.064176559448242 -5.468031406402588 -2.4020309448242188
-2.728710889816284 -5.6429266929626465 -2.4020309448242188
-2.6146178245544434 -5.696687698364258 -2.4020309448242188
-2.4994726181030273 -5.748142719268799 -2.4020309448242188
-2.3833093643188477 -5.797268390655518 -2.4020309448242188
-2.148150682449341 -5.888459205627441 -2.4020309448242188
-2.029228448867798 -5.930488109588623 -2.4020309448242188
-1.9095019102096558 -5.970117092132568 -2.4020309448242188
-1.7889904975891113 -6.007327079772949 -2.4020309448242188
-1.3002184629440308 -6.131712913513184 -2.4020309448242188
-1.1765856742858887 -6.156633377075195 -2.4020309448242188
-0.9279345273971558 -6.198985576629639 -2.4020309448242188
-0.8030211925506592 -6.216402530670166 -2.4020309448242188
-0.677783191204071 -6.23129940032959 -2.4020309448242188
0.3297204375267029 -6.259375095367432 -2.4020309448242188
0.5812854170799255 -6.24104118347168 -2.4020309448242188
0.706738293170929 -6.22808313369751 -2.4020309448242188
1.3287036418914795 -6.12560510635376 -2.4020309448242188
1.451684594154358 -6.097630500793457 -2.4020309448242188
1.574074625968933 -6.0671868324279785 -2.4020309448242188
1.695831298828125 -6.034289360046387 -2.4020309448242188
1.8168981075286865 -5.998946189880371 -2.4020309448242188
1.9372302293777466 -5.961174964904785 -2.4020309448242188
2.9791929721832275 -5.5147881507873535 -2.4020309448242188
3.089550733566284 -5.453729152679443 -2.4020309448242188
3.198657274246216 -5.390461444854736 -2.4020309448242188
3.306467294692993 -5.325012683868408 -2.4020309448242188
3.412938117980957 -5.2574076652526855 -2.4020309448242188
3.621690511703491 -5.115842342376709 -2.4020309448242188
3.723886728286743 -5.041938781738281 -2.4020309448242188
3.8245763778686523 -4.9659929275512695 -2.4020309448242188
3.9237194061279297 -4.888037204742432 -2.4020309448242188
4.021274089813232 -4.80810022354126 -2.4020309448242188
4.117203235626221 -4.726215839385986 -2.4020309448242188
4.304013729095459 -4.556732177734375 -2.4020309448242188
4.483860969543457 -4.379891872406006 -2.4020309448242188
4.978721618652344 -3.8079793453216553 -2.4020309448242188
5.054330825805664 -3.7070469856262207 -2.4020309448242188
5.199378490447998 -3.500654935836792 -2.4020309448242188
5.336010456085205 -3.288686513900757 -2.4020309448242188
5.401101112365723 -3.180668354034424 -2.4020309448242188
5.464004993438721 -3.0713372230529785 -2.4020309448242188
5.524693489074707 -2.960820198059082 -2.4020309448242188
5.63934326171875 -2.7360870838165283 -2.4020309448242188
5.794133186340332 -2.391009569168091 -2.4020309448242188
5.841066837310791 -2.273854970932007 -2.4020309448242188
5.96760368347168 -1.9172759056091309 -2.4020309448242188
6.03991174697876 -1.6756832599639893 -2.4020309448242188
6.102438926696777 -1.4313366413116455 -2.4020309448242188
6.177675724029541 -1.0605800151824951 -2.4020309448242188
6.215342998504639 -0.8112017512321472 -2.4020309448242188
6.230405330657959 -0.6859676837921143 -2.4020309448242188
6.242946624755859 -0.5605515837669373 -2.4020309448242188
6.252957820892334 -0.4347241222858429 -2.4020309448242188
6.260439395904541 -0.30884215235710144 -2.4020309448242188
6.265387058258057 -0.18281692266464233 -2.4020309448242188
6.267667293548584 0.06940017640590668 -2.4020309448242188
6.252064228057861 0.4473908841609955 -2.4020309448242188
6.22900390625 0.6985432505607605 -2.4020309448242188
6.213687419891357 0.8236854076385498 -2.4020309448242188
6.175516128540039 1.0730783939361572 -2.4020309448242188
6.127342224121094 1.3206645250320435 -2.4020309448242188
6.036507606506348 1.6879096031188965 -2.4020309448242188
5.789284706115723 2.402636766433716 -2.4020309448242188
5.687934398651123 2.633606433868408 -2.4020309448242188
5.45777702331543 3.082390785217285 -2.4020309448242188
5.394654273986816 3.191579580307007 -2.4020309448242188
5.192286491394043 3.5112156867980957 -2.4020309448242188
5.120589256286621 3.6149742603302 -2.4020309448242188
4.971006870269775 3.8180644512176514 -2.4020309448242188
4.893179893493652 3.917304039001465 -2.4020309448242188
4.731617450714111 4.11099910736084 -2.4020309448242188
2.7239367961883545 2.8955962657928467 -1.5234695672988892
2.523294687271118 2.9083971977233887 -1.4755529165267944
2.3644957542419434 2.9578471183776855 -1.451162338256836
2.2856762409210205 2.980271577835083 -1.4393056631088257
2.163398504257202 2.941556930541992 -1.3992993831634521
2.0399279594421387 2.893911600112915 -1.3568310737609863
1.922579288482666 2.8474152088165283 -1.3166247606277466
1.6586511135101318 2.6833319664001465 -1.2088929414749146
1.3804309368133545 2.567728281021118 -1.1171854734420776
1.2972277402877808 2.5339202880859375 -1.090896725654602
1.0712023973464966 2.4459147453308105 -1.0232691764831543
1.0112731456756592 2.441619396209717 -1.0127532482147217
0.9001855254173279 2.447601318359375 -0.9993899464607239
0.845382034778595 2.4496400356292725 -0.9930750727653503
0.6842565536499023 2.4538469314575195 -0.9762337803840637
0.5786157250404358 2.452415943145752 -0.965613842010498
0.47660642862319946 2.4588873386383057 -0.9598280191421509
0.3769592344760895 2.4738690853118896 -0.9589740037918091
0.2268701046705246 2.4903640747070312 -0.9583044052124023
0.17671386897563934 2.4943997859954834 -0.9582951068878174
0.12650389969348907 2.497704267501831 -0.958392322063446
0.025975340977311134 2.5069334506988525 -0.9607537388801575
-0.024647215381264687 2.5253376960754395 -0.9678012132644653
-0.0760180652141571 2.543200969696045 -0.9750359654426575
-0.1806921362876892 2.572491407394409 -0.9882540702819824
-0.2338293343782425 2.583976984024048 -0.994272768497467
-0.3419775366783142 2.605830669403076 -1.0071638822555542
-0.39900022745132446 2.629140615463257 -1.0190707445144653
-0.5156994462013245 2.669171094894409 -1.0417906045913696
-0.5757458209991455 2.6883490085601807 -1.053585171699524
-0.6369872689247131 2.707115411758423 -1.0657479763031006
-0.7015759348869324 2.7336833477020264 -1.0815463066101074
-0.7693468928337097 2.76541805267334 -1.1000045537948608
-0.9140173196792603 2.837902069091797 -1.1425502300262451
-0.991564929485321 2.878843307495117 -1.1668308973312378
-1.2388793230056763 2.9962475299835205 -1.2424964904785156
-1.3317577838897705 3.045833110809326 -1.2739149332046509
-1.4236888885498047 3.0854272842407227 -1.3021944761276245
-2.964709520339966 5.52258825302124 -2.4020309448242188
-3.184497117996216 5.398841381072998 -2.4020309448242188
-3.3990538120269775 5.2663493156433105 -2.4020309448242188
-3.5043962001800537 5.196893215179443 -2.4020309448242188
-3.608250617980957 5.125331878662109 -2.4020309448242188
-3.7106449604034424 5.051695346832275 -2.4020309448242188
-3.8115313053131104 4.976015567779541 -2.4020309448242188
-4.104792594909668 4.73700475692749 -2.4020309448242188
-4.2920403480529785 4.568027973175049 -2.4020309448242188
-4.3830790519714355 4.480747699737549 -2.4020309448242188
-4.645416259765625 4.208162307739258 -2.4020309448242188
-4.8109588623046875 4.017858982086182 -2.4020309448242188
-4.890824317932129 3.9202451705932617 -2.4020309448242188
-4.96870756149292 3.8210504055023193 -2.4020309448242188
-5.044582366943359 3.720303773880005 -2.4020309448242188
-5.118415355682373 3.618053436279297 -2.4020309448242188
-5.190174579620361 3.5143377780914307 -2.4020309448242188
-5.259833812713623 3.4091978073120117 -2.4020309448242188
-5.455924034118652 3.0856730937957764 -2.4020309448242188
-5.516905307769775 2.9752726554870605 -2.4020309448242188
-5.632140159606934 2.7509069442749023 -2.4020309448242188
-5.738255500793457 2.5220842361450195 -2.4020309448242188
-5.787857532501221 2.4061195850372314 -2.4020309448242188
-5.962548732757568 1.9329907894134521 -2.4020309448242188
-6.035492897033691 1.691540002822876 -2.4020309448242188
-6.068305492401123 1.569764494895935 -2.4020309448242188
-6.098660945892334 1.4473490715026855 -2.4020309448242188
-6.151955604553223 1.2008161544799805 -2.4020309448242188
-6.174892425537109 1.0767878293991089 -2.4020309448242188
-6.228586196899414 0.702308177947998 -2.4020309448242188
-6.267628192901611 0.07317062467336655 -2.4020309448242188
-6.260623455047607 -0.30508026480674744 -2.4020309448242188
-6.230817794799805 -0.6822160482406616 -2.4020309448242188
-4.918493747711182 -3.202106237411499 -2.4020309448242188
-4.853071689605713 -3.3004207611083984 -2.4020309448242188
-4.7856879234313965 -3.3973987102508545 -2.4020309448242188
-4.645126819610596 -3.5871825218200684 -2.4020309448242188
-4.497045993804932 -3.7711639404296875 -2.4020309448242188
-4.420255661010742 -3.860882520675659 -2.4020309448242188
-4.179286479949951 -4.120513916015625 -2.4020309448242188
-4.09553337097168 -4.20377254486084 -2.4020309448242188
-3.834467649459839 -4.443188190460205 -2.4020309448242188
-3.1727349758148193 -4.937492370605469 -2.4020309448242188
-3.072749614715576 -5.0003275871276855 -2.4020309448242188
-2.869086265563965 -5.119903564453125 -2.4020309448242188
-2.7654900550842285 -5.1765947341918945 -2.4020309448242188
-2.660773754119873 -5.231189250946045 -2.4020309448242188
-2.5549840927124023 -5.283664226531982 -2.4020309448242188
-2.448162794113159 -5.3340044021606445 -2.4020309448242188
-2.1220738887786865 -5.471991062164307 -2.4020309448242188
-2.011383056640625 -5.5135650634765625 -2.4020309448242188
-1.7879259586334229 -5.590023517608643 -2.4020309448242188
-1.6750963926315308 -5.6248650550842285 -2.4020309448242188
-1.3327075242996216 -5.715674877166748 -2.4020309448242188
-1.1016710996627808 -5.764665603637695 -2.4020309448242188
-0.86885005235672 -5.804320335388184 -2.4020309448242188
-0.39937376976013184 -5.855387210845947 -2.4020309448242188
-0.28148436546325684 -5.862236976623535 -2.4020309448242188
-0.1634790003299713 -5.8667144775390625 -2.4020309448242188
-0.045399170368909836 -5.868813991546631 -2.4020309448242188
0.07268432527780533 -5.868541717529297 -2.4020309448242188
0.19074951112270355 -5.865889549255371 -2.4020309448242188
0.7789416313171387 -5.817070960998535 -2.4020309448242188
0.89582759141922 -5.800219535827637 -2.4020309448242188
1.2441112995147705 -5.735611915588379 -2.4020309448242188
1.3592662811279297 -5.709418773651123 -2.4020309448242188
1.4738574028015137 -5.680915355682373 -2.4020309448242188
1.587868571281433 -5.650109767913818 -2.4020309448242188
2.0369908809661865 -5.50415563583374 -2.4020309448242188
2.256784677505493 -5.417747497558594 -2.4020309448242188
2.57951283454895 -5.271733283996582 -2.4020309448242188
2.789520263671875 -5.163683891296387 -2.4020309448242188
3.294046640396118 -4.857397079467773 -2.4020309448242188
3.486802816390991 -4.720937252044678 -2.4020309448242188
3.5810813903808594 -4.64982795715332 -2.4020309448242188
3.6739134788513184 -4.576836109161377 -2.4020309448242188
3.76525616645813 -4.501988410949707 -2.4020309448242188
3.8550779819488525 -4.425317287445068 -2.4020309448242188
3.9433372020721436 -4.346856117248535 -2.4020309448242188
4.115024089813232 -4.184689998626709 -2.4020309448242188
4.198392391204834 -4.101043701171875 -2.4020309448242188
4.280053615570068 -4.015746593475342 -2.4020309448242188
4.933322429656982 -3.1791906356811523 -2.4020309448242188
4.996288776397705 -3.0792980194091797 -2.4020309448242188
5.057233810424805 -2.978001356124878 -2.4020309448242188
5.227691650390625 -2.66762375831604 -2.4020309448242188
5.280307292938232 -2.5619215965270996 -2.4020309448242188
5.379103660583496 -2.3474016189575195 -2.4020309448242188
5.469189167022705 -2.1290881633758545 -2.4020309448242188
5.510920524597168 -2.0185723304748535 -2.4020309448242188
5.550418376922607 -1.907314658164978 -2.4020309448242188
5.587670803070068 -1.7952662706375122 -2.4020309448242188
5.655375957489014 -1.5690083503723145 -2.4020309448242188
5.685798168182373 -1.4549028873443604 -2.4020309448242188
5.763215065002441 -1.1091771125793457 -2.4020309448242188
5.803175926208496 -0.8764708042144775 -2.4020309448242188
5.81963586807251 -0.7595354914665222 -2.4020309448242188
5.833740234375 -0.6422877311706543 -2.4020309448242188
5.845481872558594 -0.5247817635536194 -2.4020309448242188
5.861862659454346 -0.2891799807548523 -2.4020309448242188
5.868751049041748 -0.0531088262796402 -2.4020309448242188
5.868631362915039 0.06498245149850845 -2.4020309448242188
5.866133689880371 0.1830485463142395 -2.4020309448242188
5.84440803527832 0.5366069078445435 -2.4020309448242188
5.832427978515625 0.6540901064872742 -2.4020309448242188
5.737239837646484 1.236626148223877 -2.4020309448242188
5.682841777801514 1.4664055109024048 -2.4020309448242188
5.6521897315979 1.580447793006897 -2.4020309448242188
5.584028244018555 1.8065683841705322 -2.4020309448242188
5.546547889709473 1.9185529947280884 -2.4020309448242188
5.506824970245361 2.029715061187744 -2.4020309448242188
5.464870452880859 2.140148639678955 -2.4020309448242188
5.11030387878418 2.886147975921631 -2.4020309448242188
4.861714839935303 3.2876720428466797 -2.4020309448242188
4.794583797454834 3.384824752807617 -2.4020309448242188
4.581652641296387 3.6679065227508545 -2.4020309448242188
4.430373668670654 3.849266290664673 -2.4020309448242188
2.8674449920654297 2.5944085121154785 -1.5826399326324463
2.6481640338897705 2.59725022315979 -1.5180996656417847
2.557138681411743 2.610974073410034 -1.4957389831542969
2.474283456802368 2.63021183013916 -1.4779351949691772
2.3370702266693115 2.693751811981201 -1.4595797061920166
2.0738232135772705 2.7040367126464844 -1.394694447517395
1.9367163181304932 2.6333391666412354 -1.3378559350967407
1.81341552734375 2.572571277618408 -1.2881824970245361
1.598507046699524 2.4733381271362305 -1.2052865028381348
1.5123181343078613 2.4465980529785156 -1.177186131477356
1.3502074480056763 2.394695520401001 -1.125143051147461
1.2751940488815308 2.3719780445098877 -1.1021888256072998
1.2026013135910034 2.349083662033081 -1.0800857543945312
1.0121434926986694 2.3110623359680176 -1.0325936079025269
0.9589403867721558 2.3152668476104736 -1.0256423950195312
0.9063671827316284 2.3192596435546875 -1.0191248655319214
0.80293208360672 2.3266360759735107 -1.0073434114456177
0.7519921660423279 2.330030918121338 -1.0020580291748047
0.7015148997306824 2.3332371711730957 -0.9971632361412048
0.6514672636985779 2.336258888244629 -0.9926510453224182
0.5525097250938416 2.3417680263519287 -0.9847416281700134
0.4068652391433716 2.3513975143432617 -0.9766682386398315
0.31089720129966736 2.3580081462860107 -0.973425567150116
0.2630847096443176 2.361034393310547 -0.9722926020622253
0.21534667909145355 2.3638782501220703 -0.9714822173118591
0.12003783881664276 2.3700361251831055 -0.971239447593689
0.07233520597219467 2.3722116947174072 -0.9713380336761475
-0.07210693508386612 2.4123740196228027 -0.9877651929855347
-0.12150023877620697 2.4278385639190674 -0.9948970079421997
-0.17157714068889618 2.4427237510681152 -1.0022088289260864
-0.22234007716178894 2.4570136070251465 -1.0097031593322754
-0.2734436094760895 2.4674930572509766 -1.016065001487732
-0.3249890208244324 2.476388692855835 -1.0222142934799194
-0.49018675088882446 2.5371203422546387 -1.057582974433899
-0.5469555258750916 2.553920030593872 -1.0689573287963867
-0.6047875881195068 2.5702643394470215 -1.0806739330291748
-0.7245336771011353 2.6043412685394287 -1.106371283531189
-0.7867650985717773 2.6224968433380127 -1.1205828189849854
-0.9205676317214966 2.6727118492126465 -1.1569410562515259
-0.9897118806838989 2.696026563644409 -1.1754167079925537
-1.1398534774780273 2.756751537322998 -1.220911979675293
-1.300966739654541 2.819464683532715 -1.2708561420440674
-2.671353816986084 5.225795269012451 -2.4020309448242188
-2.775949716567993 5.170989990234375 -2.4020309448242188
-2.8794407844543457 5.1140875816345215 -2.4020309448242188
-3.0828588008880615 4.994100093841553 -2.4020309448242188
-3.2812840938568115 4.866026401519775 -2.4020309448242188
-3.378525972366333 4.799023151397705 -2.4020309448242188
-3.4744017124176025 4.730074405670166 -2.4020309448242188
-3.8434484004974365 4.435420989990234 -2.4020309448242188
-4.018784046173096 4.277200222015381 -2.4020309448242188
-4.187613487243652 4.112048625946045 -2.4020309448242188
-4.349658489227295 3.9402458667755127 -2.4020309448242188
-4.652370452880859 3.5777807235717773 -2.4020309448242188
-4.792547702789307 3.387706756591797 -2.4020309448242188
-4.859737396240234 3.290595054626465 -2.4020309448242188
-4.988193988800049 3.0924103260040283 -2.4020309448242188
-5.108569145202637 2.8892204761505127 -2.4020309448242188
-5.2206711769104 2.681346893310547 -2.4020309448242188
-5.273566722869873 2.5757670402526855 -2.4020309448242188
-5.3243231773376465 2.4691379070281982 -2.4020309448242188
-5.463568687438965 2.143437385559082 -2.4020309448242188
-5.545395851135254 1.921888828277588 -2.4020309448242188
-5.618228435516357 1.697227954864502 -2.4020309448242188
-5.736495018005371 1.2400312423706055 -2.4020309448242188
-5.781741142272949 1.0082377195358276 -2.4020309448242188
-5.800856113433838 0.8917021155357361 -2.4020309448242188
-5.8176703453063965 0.7748002409934998 -2.4020309448242188
-5.861086845397949 0.3045637309551239 -2.4020309448242188
-5.868593692779541 0.06851241737604141 -2.4020309448242188
-4.678516864776611 -2.9135525226593018 -2.4020309448242188
-4.42912483215332 -3.280268430709839 -2.4020309448242188
-4.362236022949219 -3.368717670440674 -2.4020309448242188
-4.151052951812744 -3.625749349594116 -2.4020309448242188
-4.0018205642700195 -3.789818525314331 -2.4020309448242188
-3.9247593879699707 -3.869568347930908 -2.4020309448242188
-3.600945472717285 -4.172590732574463 -2.4020309448242188
-3.5162596702575684 -4.244199752807617 -2.4020309448242188
-3.342661142349243 -4.382229328155518 -2.4020309448242188
-3.253812789916992 -4.4485979080200195 -2.4020309448242188
-3.1636462211608887 -4.513165473937988 -2.4020309448242188
-3.072200298309326 -4.575904369354248 -2.4020309448242188
-2.79054856300354 -4.7529096603393555 -2.4020309448242188
-2.694354295730591 -4.808093547821045 -2.4020309448242188
-2.5970678329467773 -4.861331462860107 -2.4020309448242188
-2.4987316131591797 -4.912601947784424 -2.4020309448242188
-2.3993823528289795 -4.9618821144104 -2.4020309448242188
-2.0956687927246094 -5.09759521484375 -2.4020309448242188
-1.9926806688308716 -5.138727188110352 -2.4020309448242188
-1.888885498046875 -5.177781105041504 -2.4020309448242188
-1.6790441274642944 -5.249582290649414 -2.4020309448242188
-1.5730810165405273 -5.2823028564453125 -2.4020309448242188
-1.4664721488952637 -5.3128838539123535 -2.4020309448242188
-1.359289526939392 -5.341314792633057 -2.4020309448242188
-1.1432995796203613 -5.391676902770996 -2.4020309448242188
-1.0345897674560547 -5.4135894775390625 -2.4020309448242188
-0.9254565238952637 -5.433309078216553 -2.4020309448242188
-0.8159509301185608 -5.450829982757568 -2.4020309448242188
-0.5959740877151489 -5.479243755340576 -2.4020309448242188
0.06825439631938934 -5.511139392852783 -2.4020309448242188
0.5111352205276489 -5.487808704376221 -2.4020309448242188
0.7315039038658142 -5.462802410125732 -2.4020309448242188
0.8412756323814392 -5.4469780921936035 -2.4020309448242188
1.1683447360992432 -5.38630485534668 -2.4020309448242188
1.276485562324524 -5.3617072105407715 -2.4020309448242188
1.3840991258621216 -5.334939002990723 -2.4020309448242188
1.491146206855774 -5.306011199951172 -2.4020309448242188
1.5976171493530273 -5.274933338165283 -2.4020309448242188
1.8085436820983887 -5.206388473510742 -2.4020309448242188
1.91293203830719 -5.168945789337158 -2.4020309448242188
2.016545295715332 -5.129410743713379 -2.4020309448242188
2.1193394660949707 -5.087799072265625 -2.4020309448242188
2.322316884994507 -4.998414039611816 -2.4020309448242188
2.812609910964966 -4.73988676071167 -2.4020309448242188
2.90740966796875 -4.682337284088135 -2.4020309448242188
3.093435049057007 -4.561574459075928 -2.4020309448242188
3.2744505405426025 -4.433426380157471 -2.4020309448242188
3.3629894256591797 -4.366646766662598 -2.4020309448242188
3.53594708442688 -4.227809429168701 -2.4020309448242188
3.703181028366089 -4.082125663757324 -2.4020309448242188
3.942702531814575 -3.851285219192505 -2.4020309448242188
4.01939058303833 -3.771179676055908 -2.4020309448242188
4.094452857971191 -3.6895463466644287 -2.4020309448242188
4.309582233428955 -3.4358325004577637 -2.4020309448242188
4.377840518951416 -3.3484063148498535 -2.4020309448242188
4.509006023406982 -3.1695656776428223 -2.4020309448242188
4.804553031921387 -2.7006633281707764 -2.4020309448242188
4.857918739318848 -2.60343599319458 -2.4020309448242188
4.958727836608887 -2.4058897495269775 -2.4020309448242188
5.1361083984375 -1.9994230270385742 -2.4020309448242188
5.175297737121582 -1.8956795930862427 -2.4020309448242188
5.212392330169678 -1.791168451309204 -2.4020309448242188
5.247374057769775 -1.6859166622161865 -2.4020309448242188
5.31095552444458 -1.473451852798462 -2.4020309448242188
5.3659348487854 -1.2585885524749756 -2.4020309448242188
5.412226676940918 -1.0416855812072754 -2.4020309448242188
5.432089805603027 -0.9325783848762512 -2.4020309448242188
5.465212345123291 -0.71327805519104 -2.4020309448242188
5.478457927703857 -0.6031710505485535 -2.4020309448242188
5.48948335647583 -0.4927908182144165 -2.4020309448242188
5.498287200927734 -0.38224318623542786 -2.4020309448242188
5.511221885681152 0.061023712158203125 -2.4020309448242188
5.5088791847229 0.17191696166992188 -2.4020309448242188
5.504302978515625 0.2827729880809784 -2.4020309448242188
5.497502326965332 0.3933967649936676 -2.4020309448242188
5.488473892211914 0.5039063692092896 -2.4020309448242188
5.477223873138428 0.6142554879188538 -2.4020309448242188
5.448077201843262 0.8341193795204163 -2.4020309448242188
5.43018913269043 0.9435685276985168 -2.4020309448242188
5.387833118438721 1.1612730026245117 -2.4020309448242188
5.336749076843262 1.377098798751831 -2.4020309448242188
5.27702522277832 1.5907093286514282 -2.4020309448242188
5.208757400512695 1.801710605621338 -2.4020309448242188
5.132051944732666 2.009809970855713 -2.4020309448242188
5.090574741363525 2.112661600112915 -2.4020309448242188
5.001458644866943 2.315751791000366 -2.4020309448242188
4.953855991363525 2.4161505699157715 -2.4020309448242188
4.852641582489014 2.613267183303833 -2.4020309448242188
4.799077033996582 2.7103776931762695 -2.4020309448242188
4.74357271194458 2.8063883781433105 -2.4020309448242188
4.686148643493652 2.901261568069458 -2.4020309448242188
4.437718391418457 3.268632173538208 -2.4020309448242188
4.371055603027344 3.3572568893432617 -2.4020309448242188
2.751479387283325 2.2950809001922607 -1.5615403652191162
2.6603660583496094 2.311420202255249 -1.5359196662902832
2.5022106170654297 2.3572263717651367 -1.4981942176818848
2.2439024448394775 2.483598470687866 -1.4587408304214478
2.0860142707824707 2.504455089569092 -1.4205056428909302
1.7468090057373047 2.375122547149658 -1.2849242687225342
1.6466405391693115 2.3359808921813965 -1.2455694675445557
1.551477074623108 2.2977981567382812 -1.2083176374435425
1.2853186130523682 2.2796084880828857 -1.1405302286148071
1.2263060808181763 2.2810418605804443 -1.128671407699585
1.0013549327850342 2.2864291667938232 -1.0878384113311768
0.9485864043235779 2.290268659591675 -1.0803642272949219
0.8966418504714966 2.2943761348724365 -1.0735725164413452
0.8452648520469666 2.2982707023620605 -1.0672193765640259
0.7440575957298279 2.305445432662964 -1.0557838678359985
0.6941491365432739 2.30873703956604 -1.0506808757781982
0.5955443978309631 2.3147506713867188 -1.0416609048843384
0.4978735148906708 2.317927598953247 -1.0332319736480713
0.44964599609375 2.319793701171875 -1.0298213958740234
0.40202024579048157 2.3234007358551025 -1.0276234149932861
0.3545507788658142 2.326810359954834 -1.0257679224014282
0.25996580719947815 2.333047866821289 -1.0230741500854492
