ply
format ascii 1.0
element vertex 349
property float x
property float y
property float z
end_header
33.29404067993164 5.380614280700684 5.946802139282227
33.334197998046875 8.236917495727539 6.054502487182617
33.33419418334961 8.966004371643066 6.086620807647705
27.75920295715332 8.080371856689453 5.097904682159424
33.294036865234375 10.436615943908691 6.152308940887451
31.273807525634766 11.960624694824219 5.903942584991455
32.16486358642578 15.430781364440918 6.290417194366455
31.095321655273438 19.05786895751953 6.430789470672607
33.33420181274414 4.6879167556762695 5.156865119934082
33.294036865234375 8.226990699768066 5.253869533538818
27.759201049804688 8.080370903015137 4.428989887237549
33.33419418334961 10.449202537536621 5.351627826690674
31.107810974121094 11.897138595581055 5.102173328399658
31.306346893310547 17.463335037231445 5.491663932800293
31.306352615356445 18.31493377685547 5.556386470794678
33.29404830932617 4.682267189025879 4.378242015838623
27.926734924316406 4.513218879699707 3.6838297843933105
27.83104705810547 5.085397243499756 3.684190034866333
33.29404067993164 7.506124496459961 4.444396495819092
33.294036865234375 8.226991653442383 4.465980052947998
33.294036865234375 8.95519733428955 4.489670276641846
27.759201049804688 8.08036994934082 3.764765501022339
33.33419418334961 10.449201583862305 4.549078464508057
30.717670440673828 11.747931480407715 4.28264045715332
31.076717376708984 12.621590614318848 4.367868423461914
31.33831024169922 13.482857704162598 4.442566871643066
30.69170379638672 13.957266807556152 4.390559196472168
32.16485595703125 15.430781364440918 4.645593643188477
31.306346893310547 15.816617012023926 4.567490100860596
31.306346893310547 16.631006240844727 4.616283893585205
31.306346893310547 17.463335037231445 4.6681132316589355
31.306352615356445 18.314926147460938 4.7231292724609375
36.4877815246582 5.131430625915527 3.9566783905029297
36.4877815246582 5.896767616271973 3.968958616256714
36.487789154052734 8.22616958618164 4.016464710235596
33.29403305053711 11.19138240814209 3.7717442512512207
30.159183502197266 11.534337997436523 3.4673125743865967
30.266263961791992 13.763794898986816 3.5703234672546387
30.569501876831055 15.444340705871582 3.6777617931365967
30.569501876831055 16.239561080932617 3.7170493602752686
30.569501876831055 17.052305221557617 3.7587835788726807
37.527400970458984 9.273073196411133 3.272348642349243
34.475852966308594 9.27308464050293 3.0222020149230957
31.210615158081055 11.208447456359863 2.8072729110717773
30.5789794921875 11.694889068603516 2.7714500427246094
30.569501876831055 15.444344520568848 2.899308443069458
30.569501876831055 16.239564895629883 2.9302799701690674
30.569501876831055 17.052305221557617 2.9631805419921875
37.52740478515625 9.273073196411133 2.3970792293548584
34.47584915161133 9.273085594177246 2.2138383388519287
34.35511016845703 11.548066139221191 2.247504949569702
31.196971893310547 12.670430183410645 2.0880002975463867
30.927547454833984 13.306130409240723 2.0877928733825684
31.53008270263672 15.126253128051758 2.168543815612793
30.56950569152832 17.883861541748047 2.1961872577667236
30.56951141357422 18.735605239868164 2.223325252532959
34.47584533691406 9.273085594177246 1.4077177047729492
27.75919532775879 8.080366134643555 1.1397827863693237
34.355106353759766 10.76923656463623 1.4196528196334839
31.315223693847656 11.97646427154541 1.322014570236206
30.283178329467773 13.028898239135742 1.299921989440918
33.26226043701172 15.126248359680176 1.4408149719238281
30.48918342590332 15.403765678405762 1.3469407558441162
30.48918342590332 16.196897506713867 1.361329436302185
30.48918914794922 17.00750732421875 1.3766144514083862
30.48918914794922 17.83687400817871 1.3928382396697998
39.68459701538086 8.946949005126953 0.6871381998062134
37.527400970458984 9.273073196411133 0.6529704332351685
27.75919532775879 8.080366134643555 0.4882124364376068
34.35434341430664 10.769000053405762 0.6081489324569702
31.04188346862793 12.607443809509277 0.5659492611885071
34.354366302490234 14.780470848083496 0.6317353844642639
30.48918342590332 15.403764724731445 0.5770130753517151
30.48918914794922 17.00750160217285 0.5897251963615417
30.48918914794922 17.83687400817871 0.5966755747795105
30.489192962646484 18.686382293701172 0.6040486097335815
42.858680725097656 9.662485122680664 -0.2473602294921875
40.23188400268555 9.941353797912598 -0.23332610726356506
34.35434341430664 10.769001007080078 -0.20270217955112457
34.35435485839844 12.337437629699707 -0.20551620423793793
31.056346893310547 12.613317489624023 -0.18872420489788055
34.354366302490234 14.780470848083496 -0.21056349575519562
33.26225662231445 15.12624740600586 -0.2057267725467682
31.530073165893555 15.126252174377441 -0.1968919336795807
31.157480239868164 17.380290985107422 -0.2008695900440216
42.858680725097656 9.662482261657715 -1.2370967864990234
40.23188781738281 9.941353797912598 -1.1669121980667114
34.475852966308594 9.273086547851562 -1.0052963495254517
27.759199142456055 8.080368041992188 -0.814145028591156
34.35435485839844 13.138776779174805 -1.0356733798980713
30.48918342590332 15.403765678405762 -0.9618528485298157
30.48918342590332 16.1968994140625 -0.972127377986908
31.15748405456543 18.22783851623535 -1.0164297819137573
43.94343185424805 6.1799445152282715 -2.2504894733428955
43.838802337646484 7.084758281707764 -2.25209903717041
40.23188018798828 9.941353797912598 -2.1016995906829834
34.47584915161133 9.273085594177246 -1.8105902671813965
27.75920295715332 8.080371856689453 -1.46615469455719
34.35434341430664 10.769001007080078 -1.8258497714996338
34.35435485839844 12.337437629699707 -1.8511987924575806
30.54071617126465 12.403901100158691 -1.6717194318771362
33.26225662231445 15.126248359680176 -1.8531055450439453
31.53007698059082 15.126253128051758 -1.7735127210617065
30.48918342590332 15.403765678405762 -1.732370376586914
30.48918342590332 16.196897506713867 -1.7508796453475952
31.157480239868164 17.380290985107422 -1.8093435764312744
31.15748405456543 18.227842330932617 -1.8306677341461182
31.157489776611328 19.095972061157227 -1.85329008102417
32.44073486328125 4.562273979187012 -2.4020309448242188
14.055190086364746 2.568218231201172 -1.047619104385376
13.940299987792969 3.1428380012512207 -1.0477867126464844
29.082275390625 9.775660514831543 -2.2496187686920166
27.09528350830078 14.393935203552246 -2.2496156692504883
26.79444122314453 14.94649887084961 -2.2496156692504883
26.48233413696289 15.492772102355957 -2.2496156692504883
15.081315994262695 2.1209473609924316 -1.462129831314087
13.732155799865723 2.2192435264587402 -1.3354613780975342
23.54728126525879 8.456368446350098 -2.4020156860351562
23.368961334228516 8.937426567077637 -2.4020156860351562
22.7752685546875 10.357213020324707 -2.4020156860351562
22.558107376098633 10.822033882141113 -2.4020156860351562
22.331459045410156 11.282313346862793 -2.4020156860351562
21.850093841552734 12.188438415527344 -2.4020156860351562
21.33198356628418 13.074061393737793 -2.4020156860351562
13.372406959533691 2.161105155944824 -1.6090630292892456
13.10024356842041 2.672414541244507 -1.5881730318069458
13.070131301879883 2.9466588497161865 -1.5915143489837646
13.089860916137695 3.234522581100464 -1.6016576290130615
19.29560661315918 6.048560619354248 -2.4020190238952637
19.167531967163086 6.442936420440674 -2.4020190238952637
18.887237548828125 7.223398685455322 -2.4020183086395264
18.575185775756836 7.991708755493164 -2.402017831802368
18.40740966796875 8.370905876159668 -2.402017593383789
18.231903076171875 8.746581077575684 -2.402017593383789
17.659679412841797 9.850934982299805 -2.402017116546631
17.453960418701172 10.210965156555176 -2.4020156860351562
17.240917205810547 10.566709518432617 -2.4020156860351562
14.710563659667969 2.0688071250915527 -2.104841470718384
13.377324104309082 2.1618993282318115 -1.9200183153152466
13.143446922302246 2.4016222953796387 -1.8931204080581665
13.060775756835938 2.944550037384033 -1.8970197439193726
13.072101593017578 3.2301342487335205 -1.9078859090805054
16.277145385742188 4.738081932067871 -2.4020206928253174
16.176572799682617 5.0708417892456055 -2.4020206928253174
16.069196701049805 5.401467800140381 -2.4020206928253174
15.706721305847168 6.379176616668701 -2.4020209312438965
15.572619438171387 6.69989538192749 -2.4020209312438965
15.431962966918945 7.017796039581299 -2.4020209312438965
15.284829139709473 7.332740783691406 -2.402019500732422
15.131237030029297 7.6446146965026855 -2.4020192623138428
14.97130298614502 7.953269958496094 -2.4020190238952637
14.805070877075195 8.25858211517334 -2.4020190238952637
14.454020500183105 8.858659744262695 -2.4020187854766846
14.438669204711914 2.0305683612823486 -2.402021646499634
14.343271255493164 2.620858669281006 -2.402021646499634
14.155009269714355 3.4977214336395264 -2.402021646499634
13.835948944091797 3.721503257751465 -2.3603343963623047
13.913195610046387 4.361343860626221 -2.402021884918213
13.820844650268555 4.6457109451293945 -2.402021884918213
13.722678184509277 4.928128719329834 -2.402021884918213
13.618741989135742 5.208469867706299 -2.402022123336792
12.876579284667969 6.840478420257568 -2.402022361755371
12.733610153198242 7.103073596954346 -2.402022361755371
12.571234703063965 2.2970645427703857 -2.40202260017395
12.466479301452637 2.8105664253234863 -2.40202260017395
12.406228065490723 3.0655975341796875 -2.40202260017395
12.340768814086914 3.3193395137786865 -2.40202260017395
11.93621826171875 4.5649943351745605 -2.4020228385925293
11.840105056762695 4.808775901794434 -2.4020228385925293
11.40630054473877 5.762700080871582 -2.4020230770111084
11.285746574401855 5.9953742027282715 -2.4020230770111084
11.030434608459473 6.453057289123535 -2.4020233154296875
10.895797729492188 6.6778764724731445 -2.4020233154296875
11.252802848815918 1.582526683807373 -2.4020233154296875
11.217988014221191 1.8129295110702515 -2.4020233154296875
11.085307121276855 2.4991815090179443 -2.4020233154296875
10.843274116516113 3.3990228176116943 -2.4020233154296875
10.771296501159668 3.6206438541412354 -2.4020233154296875
10.613791465759277 4.059230327606201 -2.4020235538482666
10.528326988220215 4.276007652282715 -2.4020235538482666
10.43843936920166 4.490988731384277 -2.4020235538482666
10.344157218933105 4.704079627990723 -2.4020237922668457
10.035383224487305 5.331138610839844 -2.4020237922668457
9.688644409179688 5.938028812408447 -2.402024030685425
10.053915977478027 1.8370908498764038 -2.4020237922668457
10.01413345336914 2.0428571701049805 -2.4020237922668457
9.970141410827637 2.2477664947509766 -2.4020237922668457
9.813085556030273 2.8564727306365967 -2.402024030685425
9.752453804016113 3.0570855140686035 -2.402024030685425
9.68771743774414 3.2564122676849365 -2.402024030685425
9.618908882141113 3.454371929168701 -2.402024030685425
9.546056747436523 3.6508777141571045 -2.402024030685425
9.469191551208496 3.84584641456604 -2.402024269104004
9.388344764709473 4.039200782775879 -2.402024269104004
9.303544998168945 4.2308549880981445 -2.402024269104004
9.21484088897705 4.4207305908203125 -2.402024269104004
9.025836944580078 4.794833660125732 -2.402024269104004
8.82165241241455 5.16087007522583 -2.402024507522583
9.186762809753418 1.2919725179672241 -2.402024269104004
9.126067161560059 1.6675504446029663 -2.402024269104004
9.089956283569336 1.8543275594711304 -2.402024269104004
8.907465934753418 2.5928564071655273 -2.402024507522583
8.852426528930664 2.774955987930298 -2.402024507522583
8.665075302124023 3.313953161239624 -2.402024507522583
8.007529258728027 4.684590816497803 -2.402024745941162
7.909787654876709 4.847800254821777 -2.402024984359741
8.40224838256836 1.181641936302185 -2.402024745941162
8.376259803771973 1.3536818027496338 -2.402024745941162
8.346733093261719 1.5251460075378418 -2.402024745941162
8.313705444335938 1.695974588394165 -2.402024745941162
8.23717975616455 2.0354185104370117 -2.402024745941162
8.146801948547363 2.371436834335327 -2.402024745941162
8.042724609375 2.7034661769866943 -2.402024984359741
7.925117015838623 3.0309526920318604 -2.402024984359741
7.794177055358887 3.3533337116241455 -2.402024984359741
7.650144100189209 3.670083522796631 -2.4020261764526367
7.573278427124023 3.8261773586273193 -2.402026653289795
7.323722839355469 4.284489154815674 -2.4020283222198486
7.234339237213135 4.433820724487305 -2.402028799057007
7.682277679443359 1.4035792350769043 -2.4020259380340576
7.618266582489014 1.7175360918045044 -2.402026414871216
7.581447601318359 1.8733875751495361 -2.402026653289795
7.54144287109375 2.028447151184082 -2.402026891708374
7.349893569946289 2.639516592025757 -2.4020280838012695
6.970400333404541 3.5215141773223877 -2.4020297527313232
6.896724700927734 3.663776159286499 -2.4020299911499023
6.74070930480957 3.9434685707092285 -2.4020304679870605
7.04926872253418 1.5892564058303833 -2.402029514312744
7.015201091766357 1.7334654331207275 -2.4020297527313232
6.938230991363525 2.0196359157562256 -2.4020297527313232
6.895360946655273 2.161477565765381 -2.4020299911499023
6.800938606262207 2.4423727989196777 -2.4020302295684814
6.74943208694458 2.581226110458374 -2.4020304679870605
6.577968597412109 2.991455078125 -2.4020307064056396
6.515248775482178 3.125628709793091 -2.4020307064056396
6.449788570404053 3.25856614112854 -2.4020309448242188
6.381617069244385 3.3901329040527344 -2.4020309448242188
6.310762882232666 3.5202746391296387 -2.4020309448242188
6.237252235412598 3.648934841156006 -2.4020309448242188
6.16111946105957 3.776060104370117 -2.4020309448242188
6.651496410369873 0.9354273676872253 -2.4020304679870605
6.630916595458984 1.071617841720581 -2.4020304679870605
6.607548713684082 1.2074052095413208 -2.4020307064056396
6.58140230178833 1.3426616191864014 -2.4020307064056396
6.520821571350098 1.6113041639328003 -2.4020307064056396
6.366880893707275 2.140139579772949 -2.4020309448242188
6.321660041809082 2.2702534198760986 -2.4020309448242188
6.273780345916748 2.3993983268737793 -2.4020309448242188
6.223262786865234 2.5275344848632812 -2.4020309448242188
6.170126914978027 2.6546080112457275 -2.4020309448242188
6.114400386810303 2.780566453933716 -2.4020309448242188
5.931887149810791 3.1512205600738525 -2.4020309448242188
5.866024017333984 3.2721898555755615 -2.4020309448242188
6.187770843505859 1.000007152557373 -2.4020309448242188
6.114583492279053 1.3785319328308105 -2.4020309448242188
6.052919864654541 1.6280744075775146 -2.4020309448242188
5.941379070281982 1.9971240758895874 -2.4020309448242188
5.854500770568848 2.2390456199645996 -2.4020309448242188
5.757774353027344 2.477109432220459 -2.4020309448242188
5.705771446228027 2.5947394371032715 -2.4020309448242188
5.651365756988525 2.7111876010894775 -2.4020309448242188
5.535451412200928 2.9406213760375977 -2.4020309448242188
5.473990440368652 3.053506374359131 -2.4020309448242188
5.344189167022705 3.275376558303833 -2.4020309448242188
5.811800479888916 0.817337155342102 -2.4020309448242188
5.79381799697876 0.9363346695899963 -2.4020309448242188
5.725291728973389 1.2908447980880737 -2.4020309448242188
5.697621822357178 1.407890796661377 -2.4020309448242188
5.635106086730957 1.6403119564056396 -2.4020309448242188
5.600287914276123 1.7555122375488281 -2.4020309448242188
5.563116550445557 1.8699744939804077 -2.4020309448242188
5.52360200881958 1.9836409091949463 -2.4020309448242188
5.481766223907471 2.096494197845459 -2.4020309448242188
5.437625408172607 2.2084543704986572 -2.4020309448242188
5.391200065612793 2.319485902786255 -2.4020309448242188
5.291565895080566 2.5385828018188477 -2.4020309448242188
5.238400936126709 2.646547794342041 -2.4020309448242188
5.183033466339111 2.7534031867980957 -2.4020309448242188
5.06578254699707 2.963571786880493 -2.4020309448242188
5.00394868850708 3.0668492317199707 -2.4020309448242188
5.457850456237793 0.7675599455833435 -2.4020309448242188
5.376612663269043 1.212157130241394 -2.4020309448242188
5.322393894195557 1.4315818548202515 -2.4020309448242188
5.291920185089111 1.5404224395751953 -2.4020309448242188
5.259221076965332 1.648630142211914 -2.4020309448242188
5.224313735961914 1.7560901641845703 -2.4020309448242188
5.18720817565918 1.862844705581665 -2.4020309448242188
5.147918701171875 1.968814492225647 -2.4020309448242188
5.062868595123291 2.1784253120422363 -2.4020309448242188
4.969302654266357 2.3839714527130127 -2.4020309448242188
4.867379188537598 2.58571457862854 -2.4020309448242188
4.81333589553833 2.684943199157715 -2.4020309448242188
5.138694763183594 0.722675621509552 -2.4020309448242188
5.122796535491943 0.8278910517692566 -2.4020309448242188
5.104742527008057 0.9327592253684998 -2.4020309448242188
5.084543228149414 1.0372340679168701 -2.4020309448242188
5.037740230560303 1.2448326349258423 -2.4020309448242188
5.01115608215332 1.3478672504425049 -2.4020309448242188
4.982465744018555 1.45033860206604 -2.4020309448242188
4.918812274932861 1.653443455696106 -2.4020309448242188
4.883875846862793 1.7539701461791992 -2.4020309448242188
4.846884727478027 1.8536845445632935 -2.4020309448242188
4.807857513427734 1.9526773691177368 -2.4020309448242188
4.766806602478027 2.0508499145507812 -2.4020309448242188
4.678713321685791 2.244567632675171 -2.4020309448242188
4.631702899932861 2.3400332927703857 -2.4020309448242188
4.531866550445557 2.5279698371887207 -2.4020309448242188
4.849153995513916 0.6819572448730469 -2.4020309448242188
4.798055171966553 0.978787362575531 -2.4020309448242188
4.776976108551025 1.0769834518432617 -2.4020309448242188
4.753889083862305 1.1747177839279175 -2.4020309448242188
4.672677040100098 1.464739203453064 -2.4020309448242188
4.608692646026611 1.6550883054733276 -2.4020309448242188
4.573787689208984 1.7492387294769287 -2.4020309448242188
4.536959171295166 1.8426545858383179 -2.4020309448242188
4.498221397399902 1.9352954626083374 -2.4020309448242188
4.45759391784668 2.0271224975585938 -2.4020309448242188
4.415090084075928 2.118098020553589 -2.4020309448242188
4.324534893035889 2.2973403930664062 -2.4020309448242188
4.226704120635986 2.4727180004119873 -2.4020309448242188
4.175112247467041 2.558865547180176 -2.4020309448242188
4.570854187011719 0.7386960983276367 -2.4020309448242188
4.554747104644775 0.8322712779045105 -2.4020309448242188
4.536723613739014 0.9254826307296753 -2.4020309448242188
4.445644378662109 1.2940782308578491 -2.4020309448242188
4.418173789978027 1.3849576711654663 -2.4020309448242188
4.324668884277344 1.6539603471755981 -2.4020309448242188
4.214805603027344 1.9167145490646362 -2.4020309448242188
4.174619197845459 2.002732992172241 -2.4020309448242188
4.04359245300293 2.255600690841675 -2.4020309448242188
4.329466342926025 0.699683666229248 -2.4020309448242188
4.314209938049316 0.7883097529411316 -2.4020309448242188
4.297139644622803 0.8766056895256042 -2.4020309448242188
4.12754487991333 1.4822983741760254 -2.4020309448242188
4.063299655914307 1.650283932685852 -2.4020309448242188
3.954155206680298 1.8969684839248657 -2.4020309448242188
3.873054027557373 2.0574986934661865 -2.4020309448242188
3.830049991607666 2.1364827156066895 -2.4020309448242188
4.119898796081543 0.579395592212677 -2.4020309448242188
4.058572769165039 0.9150062203407288 -2.4020309448242188
4.038958549499512 0.9980320334434509 -2.4020309448242188
3.9946422576904297 1.1627869606018066 -2.4020309448242188
3.9436094760894775 1.3255949020385742 -2.4020309448242188
3.7511119842529297 1.7995606660842896 -2.4020309448242188
3.7134227752685547 1.876098394393921 -2.4020309448242188
3.6741747856140137 1.9518476724624634 -2.4020309448242188
3.6333775520324707 2.0267744064331055 -2.4020309448242188
3.591057062149048 2.1008501052856445 -2.4020309448242188
3.547222852706909 2.174042224884033 -2.4020309448242188
