ply
format ascii 1.0
element vertex 360
property float x
property float y
property float z
end_header
-29.742231369018555 14.572174072265625 5.839985370635986
-29.74220085144043 13.830108642578125 5.783608436584473
-31.694860458374023 13.19991397857666 6.053959369659424
-33.60260772705078 13.199907302856445 6.365800857543945
-35.75239562988281 13.212433815002441 6.720815181732178
-40.88819122314453 13.248908042907715 7.578718185424805
-27.21013069152832 13.33157730102539 4.641870021820068
-29.74220085144043 13.830105781555176 5.024847984313965
-30.10942268371582 13.263711929321289 5.040314674377441
-38.08053970336914 13.199878692626953 6.17425537109375
-31.694860458374023 13.19991397857666 4.470962047576904
-33.60261535644531 13.199907302856445 4.701265811920166
-38.26117706298828 13.262490272521973 5.2732367515563965
-29.74220085144043 13.830110549926758 3.522172212600708
-29.96461296081543 13.199921607971191 3.516021728515625
-31.694868087768555 13.19991397857666 3.6868133544921875
-33.60261535644531 13.199907302856445 3.876725435256958
-35.75239181518555 13.212434768676758 4.092926025390625
-30.109418869018555 13.263711929321289 2.7851970195770264
-33.76022720336914 13.261825561523438 3.0704925060272217
-40.73685836791992 13.199872970581055 3.6250054836273193
-27.21013069152832 13.33157730102539 1.8789433240890503
-28.386972427368164 13.19992733001709 1.9412885904312134
-29.964616775512695 13.199921607971191 2.0304155349731445
-31.694862365722656 13.19991397857666 2.1290433406829834
-38.26117706298828 13.262490272521973 2.511080741882324
-40.88819122314453 13.248910903930664 2.6653149127960205
-27.21013069152832 13.33157730102539 1.1947754621505737
-29.96461296081543 13.199921607971191 1.2910972833633423
-31.694862365722656 13.19991397857666 1.3538126945495605
-33.60261535644531 13.199907302856445 1.4235490560531616
-35.75239181518555 13.21243667602539 1.5029358863830566
-40.736854553222656 13.199872970581055 1.6885157823562622
-31.072025299072266 15.223708152770996 0.5844734311103821
-31.765567779541016 14.770971298217773 0.5917500257492065
-31.76556968688965 14.770971298217773 -0.19723555445671082
-38.055965423583984 14.949286460876465 -0.23020125925540924
-43.69171905517578 15.144880294799805 -0.26035475730895996
-31.072025299072266 15.223708152770996 -0.9742844700813293
-31.76556968688965 14.770971298217773 -0.9864187240600586
-38.055965423583984 14.949286460876465 -1.1512831449508667
-41.28773498535156 15.258040428161621 -1.2394174337387085
-31.0720272064209 15.223708152770996 -1.7547659873962402
-36.79427719116211 16.2085018157959 -2.0390257835388184
-38.055965423583984 14.949286460876465 -2.0735487937927246
-41.3421630859375 13.396011352539062 -2.20395827293396
-28.277252197265625 8.531845092773438 -1.4979134798049927
-41.843719482421875 11.703107833862305 -2.203507423400879
-43.142539978027344 9.275145530700684 -2.2379348278045654
-43.56243133544922 8.443328857421875 -2.2503514289855957
-43.71486282348633 7.554806232452393 -2.249830961227417
-43.85601043701172 6.664623737335205 -2.2496607303619385
-47.076820373535156 5.207897663116455 -2.4020309448242188
-47.3066291809082 2.330522298812866 -2.4020309448242188
-47.362239837646484 0.40682631731033325 -2.4020309448242188
-47.360721588134766 -0.5554550290107727 -2.4020309448242188
-47.33968734741211 -1.51755952835083 -2.4020309448242188
-47.29909133911133 -2.4789950847625732 -2.4020309448242188
-47.23896026611328 -3.4394426345825195 -2.4020309448242188
-27.15776252746582 13.305917739868164 -2.217424154281616
-19.22152328491211 8.467408180236816 -1.5400506258010864
-21.627460479736328 8.495784759521484 -1.7037343978881836
-28.73331642150879 9.959845542907715 -2.2297675609588623
-29.568359375 8.26987075805664 -2.2512147426605225
-29.712350845336914 7.662818908691406 -2.2498581409454346
-29.860355377197266 7.0572404861450195 -2.249742269515991
-29.996084213256836 6.448811054229736 -2.249630928039551
-32.161434173583984 6.233572959899902 -2.4020309448242188
-32.281436920166016 5.5788798332214355 -2.4020309448242188
-32.388118743896484 4.92189359664917 -2.4020309448242188
-32.48143005371094 4.262868404388428 -2.4020309448242188
-32.74314498901367 -1.0496408939361572 -2.4020309448242188
-21.834245681762695 8.577011108398438 -2.2521278858184814
-24.22713851928711 6.248182773590088 -2.4020309448242188
-24.349071502685547 5.754696369171143 -2.4020309448242188
-24.4609375 5.258817672729492 -2.4020309448242188
-24.807119369506836 3.255690336227417 -2.4020309448242188
-24.86808967590332 2.751044273376465 -2.4020309448242188
-24.989564895629883 1.2310901880264282 -2.4020309448242188
-25.009424209594727 0.7231507897377014 -2.4020309448242188
-25.018922805786133 0.2148994356393814 -2.4020309448242188
-25.006994247436523 -0.8016445636749268 -2.4020309448242188
-24.95378875732422 -1.8168716430664062 -2.4020309448242188
-17.18828010559082 7.992539882659912 -2.251667022705078
-17.340147018432617 7.6386284828186035 -2.250763416290283
-17.764467239379883 6.56493616104126 -2.2496538162231445
-18.1085262298584 6.276966571807861 -2.2765986919403076
-19.236841201782227 6.233273029327393 -2.4020309448242188
-19.359455108642578 5.8411712646484375 -2.4020309448242188
-19.580814361572266 5.049894332885742 -2.4020309448242188
-19.76979637145996 4.250275611877441 -2.4020309448242188
-19.991989135742188 3.0381035804748535 -2.4020309448242188
-20.0988826751709 2.2234482765197754 -2.4020309448242188
-20.172639846801758 1.4051170349121094 -2.4020309448242188
-20.22076988220215 0.1736866682767868 -2.4020309448242188
-14.397126197814941 6.694669723510742 -2.2496800422668457
-14.52987289428711 6.4006571769714355 -2.249630928039551
-15.779025077819824 6.1983771324157715 -2.4020309448242188
-15.901678085327148 5.876532077789307 -2.4020309448242188
-16.127294540405273 5.225693225860596 -2.4020309448242188
-16.326263427734375 4.5662360191345215 -2.4020309448242188
-16.41566276550293 4.2336015701293945 -2.4020309448242188
-16.4982852935791 3.899229049682617 -2.4020309448242188
-16.574098587036133 3.563239097595215 -2.4020309448242188
-16.808727264404297 2.20597767829895 -2.4020309448242188
-16.850008010864258 1.8640409708023071 -2.4020309448242188
-16.884397506713867 1.5213276147842407 -2.4020309448242188
-16.911832809448242 1.1779829263687134 -2.4020309448242188
-16.94409942626953 -0.5431744456291199 -2.4020309448242188
-16.9295654296875 -0.8872964382171631 -2.4020309448242188
-16.90804100036621 -1.231065034866333 -2.4020309448242188
-13.221318244934082 6.1479058265686035 -2.4020309448242188
-13.46015453338623 5.60573148727417 -2.4020309448242188
-13.57126522064209 5.331116199493408 -2.4020309448242188
-13.776630401611328 4.7754011154174805 -2.4020309448242188
-13.959254264831543 4.211801052093506 -2.4020309448242188
-14.041937828063965 3.927340507507324 -2.4020309448242188
-14.118827819824219 3.6412487030029297 -2.4020309448242188
-14.189889907836914 3.35365891456604 -2.4020309448242188
-14.255094528198242 3.0646800994873047 -2.4020309448242188
-14.31441593170166 2.7744383811950684 -2.4020309448242188
-14.367826461791992 2.483048915863037 -2.4020309448242188
-14.492412567138672 1.6032240390777588 -2.4020309448242188
-14.521989822387695 1.30846107006073 -2.4020309448242188
-14.563146591186523 0.7174412608146667 -2.4020309448242188
-14.58027172088623 0.12523697316646576 -2.4020309448242188
-14.579806327819824 -0.17099685966968536 -2.4020309448242188
-14.560826301574707 -0.763148307800293 -2.4020309448242188
-11.476061820983887 5.6226701736450195 -2.4020309448242188
-11.58788776397705 5.388361930847168 -2.4020309448242188
-11.894601821899414 4.672482013702393 -2.4020309448242188
-12.234649658203125 3.6914525032043457 -2.4020309448242188
-12.307120323181152 3.44213604927063 -2.4020309448242188
-12.37452220916748 3.1913902759552 -2.4020309448242188
-12.774090766906738 0.36936232447624207 -2.4020309448242188
-12.778953552246094 0.10976424813270569 -2.4020309448242188
-12.778542518615723 -0.1498710662126541 -2.4020309448242188
-12.772761344909668 -0.4094444215297699 -2.4020309448242188
-12.761914253234863 -0.6688655018806458 -2.4020309448242188
-12.745680809020996 -0.928006112575531 -2.4020309448242188
-10.304052352905273 4.791378498077393 -2.4020309448242188
-10.399266242980957 4.581053256988525 -2.4020309448242188
-10.490187644958496 4.368834018707275 -2.4020309448242188
-10.736831665039062 3.721714973449707 -2.4020309448242188
-10.810229301452637 3.5028162002563477 -2.4020309448242188
-11.058892250061035 2.613677978515625 -2.4020309448242188
-11.155962944030762 2.1622626781463623 -2.4020309448242188
-11.197585105895996 1.9351667165756226 -2.4020309448242188
-11.234590530395508 1.7072755098342896 -2.4020309448242188
-11.266956329345703 1.47867751121521 -2.4020309448242188
-11.33610725402832 0.7896137833595276 -2.4020309448242188
-11.358830451965332 0.328441321849823 -2.4020309448242188
-11.363154411315918 0.09760360419750214 -2.4020309448242188
-11.362791061401367 -0.13326674699783325 -2.4020309448242188
-9.178010940551758 4.496758460998535 -2.4020309448242188
-9.35311222076416 4.120203971862793 -2.4020309448242188
-9.434885025024414 3.9293339252471924 -2.4020309448242188
-9.51276969909668 3.736842632293701 -2.4020309448242188
-9.586721420288086 3.542811155319214 -2.4020309448242188
-9.656721115112305 3.34731388092041 -2.4020309448242188
-9.722732543945312 3.15043568611145 -2.4020309448242188
-9.842687606811523 2.752866268157959 -2.4020309448242188
-9.896570205688477 2.5523295402526855 -2.4020309448242188
-9.94638729095459 2.3507449626922607 -2.4020309448242188
-9.992093086242676 2.1481845378875732 -2.4020309448242188
-10.104400634765625 1.535525918006897 -2.4020309448242188
-10.133502960205078 1.3299260139465332 -2.4020309448242188
-10.158437728881836 1.123782753944397 -2.4020309448242188
-10.179173469543457 0.9171677827835083 -2.4020309448242188
-10.195693969726562 0.710181713104248 -2.4020309448242188
-10.208035469055176 0.5028892159461975 -2.4020309448242188
-10.216140747070312 0.29540082812309265 -2.4020309448242188
-10.220059394836426 0.08778060972690582 -2.4020309448242188
-10.206396102905273 -0.5349276661872864 -2.4020309448242188
-10.193422317504883 -0.7421772480010986 -2.4020309448242188
-8.331006050109863 4.081765651702881 -2.4020309448242188
-8.412200927734375 3.9116697311401367 -2.4020309448242188
-8.564165115356445 3.566706418991089 -2.4020309448242188
-8.70199203491211 3.2158563137054443 -2.4020309448242188
-8.765532493591309 3.0384013652801514 -2.4020309448242188
-8.98325252532959 2.3167829513549805 -2.4020309448242188
-9.107702255249023 1.7652665376663208 -2.4020309448242188
-9.254776000976562 0.6446388363838196 -2.4020309448242188
-9.265955924987793 0.45647963881492615 -2.4020309448242188
-9.276851654052734 0.07968337833881378 -2.4020309448242188
-9.264484405517578 -0.4855618178844452 -2.4020309448242188
-9.252706527709961 -0.6736845374107361 -2.4020309448242188
-7.897472858428955 3.102315664291382 -2.4020309448242188
-8.016986846923828 2.778933048248291 -2.4020309448242188
-8.071783065795898 2.6154820919036865 -2.4020309448242188
-8.12325382232666 2.4509568214416504 -2.4020309448242188
-8.171371459960938 2.28542160987854 -2.4020309448242188
-8.257476806640625 1.9515836238861084 -2.4020309448242188
-8.29541015625 1.7834172248840332 -2.4020309448242188
-8.329937934875488 1.614519476890564 -2.4020309448242188
-8.388650894165039 1.274789810180664 -2.4020309448242188
-8.412803649902344 1.1040998697280884 -2.4020309448242188
-8.43350601196289 0.9329606294631958 -2.4020309448242188
-8.464452743530273 0.5895890593528748 -2.4020309448242188
-8.481457710266113 0.24523544311523438 -2.4020309448242188
-8.484641075134277 0.07287856936454773 -2.4020309448242188
-8.473331451416016 -0.4440963566303253 -2.4020309448242188
-8.462550163269043 -0.6161532402038574 -2.4020309448242188
-7.081345081329346 3.2928221225738525 -2.4020309448242188
-7.146781921386719 3.1482787132263184 -2.4020309448242188
-7.268775463104248 2.8553483486175537 -2.4020309448242188
-7.429204940795898 2.407270908355713 -2.4020309448242188
-7.520883083343506 2.1034860610961914 -2.4020309448242188
-7.600113868713379 1.7962217330932617 -2.4020309448242188
-7.7208476066589355 1.1733063459396362 -2.4020309448242188
-7.743101119995117 1.0162025690078735 -2.4020309448242188
-7.7621378898620605 0.8586881756782532 -2.4020309448242188
-7.790615081787109 0.5426530241966248 -2.4020309448242188
-7.806229591369629 0.22571823000907898 -2.4020309448242188
-7.80919885635376 0.06707717478275299 -2.4020309448242188
-7.808953285217285 -0.0915861502289772 -2.4020309448242188
-7.805480003356934 -0.2502189576625824 -2.4020309448242188
-7.7987847328186035 -0.40874236822128296 -2.4020309448242188
-7.788871765136719 -0.5671032667160034 -2.4020309448242188
-6.552446365356445 3.046884059906006 -2.4020309448242188
-6.725878715515137 2.6420843601226807 -2.4020309448242188
-6.827652454376221 2.3666741847991943 -2.4020309448242188
-6.874313831329346 2.2274725437164307 -2.4020309448242188
-6.918159484863281 2.0873560905456543 -2.4020309448242188
-6.959146022796631 1.9463779926300049 -2.4020309448242188
-7.064782619476318 1.5188462734222412 -2.4020309448242188
-7.1206488609313965 1.2305915355682373 -2.4020309448242188
-7.144183158874512 1.0856733322143555 -2.4020309448242188
-7.164766311645508 0.9403049945831299 -2.4020309448242188
-7.197050094604492 0.6484715342521667 -2.4020309448242188
-7.208736896514893 0.502123236656189 -2.4020309448242188
-7.225939750671387 0.06206710636615753 -2.4020309448242188
-7.216300964355469 -0.37821394205093384 -2.4020309448242188
-7.207128047943115 -0.5247471332550049 -2.4020309448242188
-6.031879901885986 2.9553141593933105 -2.4020309448242188
-6.14695405960083 2.707839250564575 -2.4020309448242188
-6.251842498779297 2.4558863639831543 -2.4020309448242188
-6.300491809844971 2.3283708095550537 -2.4020309448242188
-6.389871597290039 2.0704970359802246 -2.4020309448242188
-6.5041351318359375 1.6774171590805054 -2.4020309448242188
-6.536873817443848 1.5449341535568237 -2.4020309448242188
-6.566904544830322 1.4118086099624634 -2.4020309448242188
-6.61884069442749 1.1438685655593872 -2.4020309448242188
-6.6762261390686035 0.7385609149932861 -2.4020309448242188
-6.689855098724365 0.6027717590332031 -2.4020309448242188
-6.708820819854736 0.33050429821014404 -2.4020309448242188
-6.714147090911865 0.19414016604423523 -2.4020309448242188
-6.716707229614258 0.057692717760801315 -2.4020309448242188
-6.71350622177124 -0.21521392464637756 -2.4020309448242188
-6.699219226837158 -0.48776641488075256 -2.4020309448242188
-5.683630466461182 2.6428849697113037 -2.4020309448242188
-5.786346435546875 2.409816026687622 -2.4020309448242188
-5.834068298339844 2.2917609214782715 -2.4020309448242188
-5.879410266876221 2.172762155532837 -2.4020309448242188
-5.922348976135254 2.0528671741485596 -2.4020309448242188
-6.000856876373291 1.8105841875076294 -2.4020309448242188
-6.036401271820068 1.6882996559143066 -2.4020309448242188
-6.069456100463867 1.5653132200241089 -2.4020309448242188
-6.100004196166992 1.4416841268539429 -2.4020309448242188
-6.12803316116333 1.3174561262130737 -2.4020309448242188
-6.153534412384033 1.1926865577697754 -2.4020309448242188
-6.214759826660156 0.8156263828277588 -2.4020309448242188
-6.230057239532471 0.6892005801200867 -2.4020309448242188
-6.242737293243408 0.5624904036521912 -2.4020309448242188
-6.267823219299316 0.053837280720472336 -2.4020309448242188
-6.267622947692871 -0.07350891083478928 -2.4020309448242188
-6.264835834503174 -0.20083053410053253 -2.4020309448242188
-6.251504421234131 -0.45516830682754517 -2.4020309448242188
-5.370952129364014 2.365995168685913 -2.4020309448242188
-5.417912483215332 2.25639009475708 -2.4020309448242188
-5.505095481872559 2.0344314575195312 -2.4020309448242188
-5.583204746246338 1.809113621711731 -2.4020309448242188
-5.618805885314941 1.6953120231628418 -2.4020309448242188
-5.652088642120361 1.5808124542236328 -2.4020309448242188
-5.683038234710693 1.4656559228897095 -2.4020309448242188
-5.7617645263671875 1.1167527437210083 -2.4020309448242188
-5.8548102378845215 0.40781447291374207 -2.4020309448242188
-5.861886501312256 0.2887803614139557 -2.4020309448242188
-5.868781089782715 0.05040893331170082 -2.4020309448242188
-5.868589878082275 -0.06882903724908829 -2.4020309448242188
-5.8609490394592285 -0.3071784973144531 -2.4020309448242188
-5.853496074676514 -0.4261895716190338 -2.4020309448242188
-4.997674465179443 2.3239152431488037 -2.4020309448242188
-5.043854713439941 2.22190260887146 -2.4020309448242188
-5.207581520080566 1.8051066398620605 -2.4020309448242188
-5.243181228637695 1.6989353895187378 -2.4020309448242188
-5.307857513427734 1.484540581703186 -2.4020309448242188
-5.363795757293701 1.267687201499939 -2.4020309448242188
-5.3884406089782715 1.1584519147872925 -2.4020309448242188
-5.431055068969727 0.9385951161384583 -2.4020309448242188
-5.448995113372803 0.8280640840530396 -2.4020309448242188
-5.464700222015381 0.7171879410743713 -2.4020309448242188
-5.478143692016602 0.6060221791267395 -2.4020309448242188
-5.489327430725098 0.49460065364837646 -2.4020309448242188
-5.4982428550720215 0.38297805190086365 -2.4020309448242188
-5.509263038635254 0.1593000739812851 -2.4020309448242188
-5.511361598968506 0.04733932390809059 -2.4020309448242188
-5.511186599731445 -0.06463760137557983 -2.4020309448242188
-5.497010231018066 -0.4002343714237213 -2.4020309448242188
-4.659999847412109 2.2831642627716064 -2.4020309448242188
-4.7904276847839355 1.9950617551803589 -2.4020309448242188
-4.829967975616455 1.8973274230957031 -2.4020309448242188
-4.9365739822387695 1.5995875597000122 -2.4020309448242188
-4.997480392456055 1.3977274894714355 -2.4020309448242188
-5.024872779846191 1.2959038019180298 -2.4020309448242188
-5.073342800140381 1.0907093286514282 -2.4020309448242188
-5.1303606033325195 0.7796406149864197 -2.4020309448242188
-5.145143985748291 0.6752491593360901 -2.4020309448242188
-5.157795429229736 0.5705830454826355 -2.4020309448242188
-5.168328762054443 0.46567854285240173 -2.4020309448242188
-5.1767191886901855 0.36058273911476135 -2.4020309448242188
-5.18709659576416 0.14998580515384674 -2.4020309448242188
-5.189070224761963 0.044571686536073685 -2.4020309448242188
-5.186598300933838 -0.16626571118831635 -2.4020309448242188
-5.175561428070068 -0.3768293559551239 -2.4020309448242188
-4.440301895141602 2.0647363662719727 -2.4020309448242188
-4.481338977813721 1.9741014242172241 -2.4020309448242188
-4.626796722412109 1.6037888526916504 -2.4020309448242188
-4.658423900604248 1.5094587802886963 -2.4020309448242188
-4.688128471374512 1.4145066738128662 -2.4020309448242188
-4.715895175933838 1.3189725875854492 -2.4020309448242188
-4.765588283538818 1.1263056993484497 -2.4020309448242188
-4.7874860763549805 1.0292537212371826 -2.4020309448242188
-4.8412909507751465 0.7357121109962463 -2.4020309448242188
-4.87712287902832 0.43943923711776733 -2.4020309448242188
-4.894826412200928 0.14153487980365753 -2.4020309448242188
-4.896536350250244 -0.057428281754255295 -2.4020309448242188
-4.890164852142334 -0.2562985122203827 -2.4020309448242188
-4.157930850982666 2.03717041015625 -2.4020309448242188
-4.198446750640869 1.9522761106491089 -2.4020309448242188
-4.309577941894531 1.6929048299789429 -2.4020309448242188
-4.374792575836182 1.5164365768432617 -2.4020309448242188
-4.404698371887207 1.4272444248199463 -2.4020309448242188
-4.432783603668213 1.3374640941619873 -2.4020309448242188
-4.483444690704346 1.1562864780426025 -2.4020309448242188
-4.526724815368652 0.973194420337677 -2.4020309448242188
-4.562498569488525 0.7885004878044128 -2.4020309448242188
-4.629988193511963 0.03976943716406822 -2.4020309448242188
-4.617935657501221 -0.33622923493385315 -2.4020309448242188
-3.938303232192993 1.9295841455459595 -2.4020309448242188
-4.013478755950928 1.7680048942565918 -2.4020309448242188
-4.048569202423096 1.6861017942428589 -2.4020309448242188
-4.081989765167236 1.6035014390945435 -2.4020309448242188
-4.143766403198242 1.436352014541626 -2.4020309448242188
-4.172084808349609 1.3518717288970947 -2.4020309448242188
-4.198688983917236 1.2668323516845703 -2.4020309448242188
-4.2466864585876465 1.0952210426330566 -2.4020309448242188
-4.2876715660095215 0.9217997789382935 -2.4020309448242188
-4.32158088684082 0.746855616569519 -2.4020309448242188
-4.359050750732422 0.4822218120098114 -2.4020309448242188
-4.380329608917236 0.21579329669475555 -2.4020309448242188
-4.383389949798584 -0.1405174285173416 -2.4020309448242188
-4.379631996154785 -0.2295408546924591 -2.4020309448242188
-4.374063014984131 -0.31847333908081055 -2.4020309448242188
-3.840677499771118 1.5995210409164429 -2.4020309448242188
-3.9309802055358887 1.3625974655151367 -2.4020309448242188
-4.028654098510742 1.0389769077301025 -2.4020309448242188
-4.0488996505737305 0.956922709941864 -2.4020309448242188
-2.2306201457977295 0.20098403096199036 -1.2930653095245361
-2.2205650806427 0.06420821696519852 -1.2825796604156494
