ply
format ascii 1.0
element vertex 310
property float x
property float y
property float z
end_header
2.131265878677368 19.8997802734375 3.5289361476898193
1.2907397747039795 19.51266098022461 3.448127269744873
0.8932568430900574 19.51839256286621 3.445223808288574
2.9013524055480957 19.5496826171875 3.0277044773101807
2.398500919342041 18.78213882446289 2.900686025619507
2.129371404647827 19.882083892822266 3.0632433891296387
1.6985021829605103 19.615726470947266 3.0162646770477295
1.2892882823944092 19.490686416625977 2.9923901557922363
2.4855198860168457 19.463539123535156 2.5551416873931885
0.874373733997345 19.105798721313477 2.490577220916748
2.5096216201782227 19.652278900146484 2.127434492111206
2.055859327316284 19.195707321166992 2.0730574131011963
2.3004589080810547 18.014362335205078 1.5373505353927612
1.934822916984558 18.06554412841797 1.5380455255508423
1.5688817501068115 18.1187744140625 1.5395444631576538
1.196923851966858 18.0943546295166 1.535085916519165
0.8249157667160034 18.025060653686523 1.527469277381897
4.186657428741455 19.80816650390625 1.2554478645324707
2.93170166015625 19.754179000854492 1.2383805513381958
2.133425235748291 19.919931411743164 1.2423059940338135
1.6435582637786865 18.98120880126953 1.1814357042312622
0.8930688500404358 19.514202117919922 1.2113486528396606
3.4248950481414795 18.004911422729492 0.7226826548576355
3.1033482551574707 18.336652755737305 0.7333149313926697
2.398353099822998 18.780981063842773 0.7465671896934509
1.6296617984771729 18.820724487304688 0.7448979020118713
1.3550878763198853 20.48543930053711 0.8095276951789856
1.3547461032867432 20.480224609375 0.34670424461364746
4.090768814086914 47.24381637573242 -0.2669892907142639
1.3543994426727295 20.475027084350586 -0.11552978307008743
2.764580011367798 31.927684783935547 -0.9023759365081787
1.3540637493133545 20.469890594482422 -0.5776454210281372
22.406564712524414 41.72844314575195 -2.4020156860351562
19.82271385192871 43.01604461669922 -2.4020156860351562
18.058631896972656 43.785926818847656 -2.4020156860351562
16.264747619628906 44.48343276977539 -2.4020156860351562
15.357539176940918 44.80475997924805 -2.4020156860351562
14.443991661071777 45.10755157470703 -2.4020156860351562
12.599396705627441 45.65708541870117 -2.4020156860351562
11.669089317321777 45.90374755859375 -2.4020156860351562
10.733954429626465 46.13138961791992 -2.4020156860351562
9.794421195983887 46.34038162231445 -2.4020156860351562
7.402122497558594 43.73666763305664 -2.2496156692504883
3.414553165435791 31.881908416748047 -1.6261144876480103
2.75810170173645 31.8528995513916 -1.6214408874511719
1.3537194728851318 20.464752197265625 -1.0401231050491333
1.451971411705017 31.72673797607422 -1.610682487487793
15.497804641723633 28.862079620361328 -2.4020156860351562
14.90816593170166 29.171016693115234 -2.4020156860351562
13.103288650512695 30.025094985961914 -2.4020156860351562
12.490500450134277 30.285133361816406 -2.4020156860351562
11.872577667236328 30.532670974731445 -2.4020156860351562
11.249731063842773 30.76759910583496 -2.4020156860351562
8.76089096069336 29.40385627746582 -2.2496156692504883
8.161633491516113 29.575790405273438 -2.2496156692504883
5.730931282043457 30.127914428710938 -2.2486538887023926
3.1206066608428955 18.43860626220703 -1.3711833953857422
3.1206042766571045 24.43669319152832 -1.8063018321990967
2.6580662727355957 24.81855010986328 -1.8301563262939453
11.836174011230469 22.042903900146484 -2.4020156860351562
11.385856628417969 22.278873443603516 -2.4020156860351562
10.93080997467041 22.505599975585938 -2.4020156860351562
10.471269607543945 22.723052978515625 -2.4020156860351562
8.04666519165039 22.007326126098633 -2.2496156692504883
7.597844123840332 22.16628074645996 -2.2496156692504883
7.145882606506348 22.31608009338379 -2.2496156692504883
5.77067756652832 22.700618743896484 -2.2486886978149414
5.307190895080566 22.808717727661133 -2.248248338699341
2.8376171588897705 16.766550064086914 -1.6325658559799194
2.4877073764801025 16.762481689453125 -1.626909613609314
2.140073299407959 16.758440017700195 -1.6219570636749268
1.7943981885910034 16.754419326782227 -1.6177172660827637
1.7918578386306763 20.69389533996582 -1.9941520690917969
0.9496044516563416 20.749610900878906 -1.9941520690917969
9.566215515136719 17.81549835205078 -2.4020156860351562
8.273969650268555 17.0353946685791 -2.2496156692504883
7.926122665405273 17.199993133544922 -2.2496156692504883
6.863531112670898 17.650930404663086 -2.2496156692504883
6.139140605926514 17.91060447692871 -2.249037027359009
5.404704570770264 18.13960838317871 -2.2483391761779785
5.034221172332764 18.242828369140625 -2.2479872703552246
4.661783218383789 18.33846092224121 -2.247633218765259
3.1901097297668457 16.770647048950195 -2.0278358459472656
2.4877073764801025 16.762481689453125 -2.012955665588379
2.1400718688964844 16.758440017700195 -2.0068325996398926
1.1121654510498047 16.813030242919922 -2.0015153884887695
0.7694457769393921 16.813030242919922 -1.9992409944534302
7.511049747467041 13.988080978393555 -2.2496156692504883
7.225276947021484 14.137809753417969 -2.2496156692504883
6.644611835479736 14.41906452178955 -2.2495174407958984
6.349471092224121 14.54928207397461 -2.249236822128296
5.449246883392334 14.903412818908691 -2.2483813762664795
4.837967395782471 15.10859203338623 -2.2477996349334717
4.529383659362793 15.20179271697998 -2.2475061416625977
4.219009876251221 15.288677215576172 -2.247211217880249
3.906975030899048 15.369216918945312 -2.246914863586426
3.5934019088745117 15.44338607788086 -2.246616840362549
3.278437376022339 15.511139869689941 -2.2463173866271973
2.9621973037719727 15.572468757629395 -2.2460169792175293
2.6448168754577637 15.62734317779541 -2.245715379714966
2.3264219760894775 15.675745964050293 -2.245412588119507
2.007164239883423 15.71765422821045 -2.2451093196868896
6.212949275970459 12.156973838806152 -2.2491140365600586
5.964019775390625 12.279410362243652 -2.2488770484924316
5.459029197692871 12.508909225463867 -2.248396396636963
5.20318603515625 12.615884780883789 -2.2481529712677
4.159859657287598 12.990945816040039 -2.2471601963043213
3.359553098678589 13.21576976776123 -2.2463998794555664
3.0899717807769775 13.279790878295898 -2.2461438179016113
2.819185733795166 13.338306427001953 -2.2458863258361816
2.2744102478027344 13.438735008239746 -2.2453689575195312
2.000648260116577 13.480610847473145 -2.2451088428497314
1.7261254787445068 13.516910552978516 -2.2448480129241943
1.4509508609771729 13.547616004943848 -2.244586706161499
1.1752440929412842 13.572715759277344 -2.2443246841430664
0.8991076350212097 13.592203140258789 -2.2440624237060547
0.6226806640625 13.60607624053955 -2.243799924850464
5.662905216217041 10.546221733093262 -2.249973773956299
5.446795463562012 10.657851219177246 -2.2497072219848633
4.55912446975708 11.054287910461426 -2.2475509643554688
3.8760764598846436 11.308239936828613 -2.246901273727417
3.17901349067688 11.519980430603027 -2.2462384700775146
2.943990468978882 11.581038475036621 -2.2460150718688965
2.4705357551574707 11.688746452331543 -2.2455649375915527
1.5854687690734863 8.334887504577637 -1.5947214365005493
1.271602749824524 11.873028755187988 -2.2444260120391846
1.0299890041351318 11.895198822021484 -2.244196653366089
0.38694700598716736 8.454975128173828 -1.5908671617507935
5.041169166564941 9.388340950012207 -2.2525041103363037
4.65460205078125 9.583423614501953 -2.25203800201416
4.458480358123779 9.67507266998291 -2.251817464828491
3.050734758377075 8.343634605407715 -1.877871036529541
3.0401525497436523 10.203543663024902 -2.2505242824554443
2.8320140838623047 10.262531280517578 -2.250375986099243
2.6227355003356934 10.317317962646484 -2.250236749649048
2.412419319152832 10.367881774902344 -2.2501068115234375
1.5854699611663818 8.334887504577637 -1.7934194803237915
1.562374234199524 10.527531623840332 -2.2496819496154785
1.3481371402740479 10.556092262268066 -2.2494654655456543
0.9173058867454529 10.592486381530762 -2.2474160194396973
0.4858666956424713 10.613592147827148 -2.245847702026367
4.190242767333984 8.62735366821289 -2.254131317138672
2.9233105182647705 9.129289627075195 -2.2529094219207764
2.5496678352355957 9.239392280578613 -2.252633571624756
2.1719396114349365 9.334351539611816 -2.2523913383483887
1.4066600799560547 9.478264808654785 -2.2520081996917725
1.0203393697738647 9.526996612548828 -2.25186824798584
0.8265356421470642 9.545520782470703 -2.2518112659454346
0.43800780177116394 9.570845603942871 -2.251723051071167
4.116183757781982 7.665709495544434 -2.2528235912323
3.9599156379699707 7.74842643737793 -2.253016948699951
3.8019702434539795 7.827930927276611 -2.253202199935913
3.6424169540405273 7.904183387756348 -2.2533791065216064
3.318751096725464 8.046819686889648 -2.2537074089050293
3.154780149459839 8.113139152526855 -2.253858804702759
2.989468812942505 8.1760835647583 -2.2540016174316406
2.655128002166748 8.29174518585205 -2.2542614936828613
1.973150610923767 8.480010986328125 -2.254279375076294
1.6268457174301147 8.552454948425293 -2.254089832305908
1.4526854753494263 8.5834321975708 -2.2540066242218018
0.9269738793373108 8.65521240234375 -2.2538039684295654
0.7509020566940308 8.67205810546875 -2.2537519931793213
0.39793211221694946 8.695096015930176 -2.253671884536743
3.7618517875671387 7.005823135375977 -2.2511322498321533
3.4746360778808594 7.153977394104004 -2.2514779567718506
3.032961368560791 7.353874206542969 -2.251939296722412
2.57975697517395 7.526297569274902 -2.2523305416107178
1.9605296850204468 7.712306976318359 -2.2527406215667725
1.8034838438034058 7.750833511352539 -2.2528228759765625
1.4871777296066284 7.818199157714844 -2.252962827682495
0.847564697265625 7.91377067565918 -2.253143548965454
0.6865978837013245 7.929437160491943 -2.2531678676605225
0.5253430008888245 7.941816329956055 -2.2531840801239014
3.3287549018859863 6.513424396514893 -2.249854326248169
3.195941209793091 6.580169677734375 -2.250009775161743
2.9263341426849365 6.705450057983398 -2.2502996921539307
2.789647102355957 6.763927459716797 -2.250433921813965
2.6517882347106934 6.819598197937012 -2.250560998916626
2.2317259311676025 6.969531536102295 -2.250898838043213
1.8031994104385376 7.093403339385986 -2.2511703968048096
1.658751130104065 7.128818035125732 -2.2512459754943848
1.513607144355774 7.161266803741455 -2.2513139247894287
1.3678197860717773 7.190736770629883 -2.2513747215270996
0.7795361280441284 7.278589248657227 -2.2515408992767334
0.6314916610717773 7.292998313903809 -2.251563310623169
0.48317503929138184 7.3043718338012695 -2.2515780925750732
3.177250862121582 6.216976165771484 -2.3207943439483643
2.8688647747039795 6.2255473136901855 -2.2785632610321045
2.7200634479522705 6.232798099517822 -2.2605180740356445
2.580371141433716 6.256502628326416 -2.249630928039551
2.3240442276000977 6.356175422668457 -2.249630928039551
2.063911199569702 6.445376396179199 -2.2496402263641357
1.8003942966461182 6.524196624755859 -2.249739408493042
1.667517066001892 6.55965518951416 -2.2498161792755127
1.5339330434799194 6.592388153076172 -2.2498860359191895
0.5839672684669495 6.744143009185791 -2.2501792907714844
0.4468127489089966 6.75465726852417 -2.2501931190490723
3.177617073059082 5.91778564453125 -2.4020309448242188
3.056718587875366 5.981131553649902 -2.4020309448242188
2.934558153152466 6.042004108428955 -2.4020309448242188
2.558610677719116 6.203847408294678 -2.399820327758789
2.413790225982666 6.207540988922119 -2.3817811012268066
2.270965576171875 6.2110114097595215 -2.3649160861968994
1.5825097560882568 6.225263595581055 -2.297004222869873
1.3166967630386353 6.22961950302124 -2.2769742012023926
1.0553491115570068 6.235718250274658 -2.2616493701934814
0.7976452708244324 6.2461771965026855 -2.2518179416656494
0.6698449850082397 6.255014896392822 -2.249630928039551
2.9652538299560547 5.522294998168945 -2.4020309448242188
2.8524365425109863 5.58140754699707 -2.4020309448242188
2.7384374141693115 5.638211727142334 -2.4020309448242188
2.6233129501342773 5.692688465118408 -2.4020309448242188
2.5070860385894775 5.744818210601807 -2.4020309448242188
2.3898558616638184 5.794571399688721 -2.4020309448242188
2.271624803543091 5.841933250427246 -2.4020309448242188
2.152453660964966 5.886884689331055 -2.4020309448242188
1.2961803674697876 6.132568359375 -2.4020309448242188
0.9201757311820984 6.200144290924072 -2.4020309448242188
0.7926989793777466 6.208392143249512 -2.398488998413086
0.5377819538116455 6.2107720375061035 -2.388986110687256
0.28431272506713867 6.212457656860352 -2.3832178115844727
2.7764744758605957 5.170713424682617 -2.4020309448242188
2.670832395553589 5.226059913635254 -2.4020309448242188
2.564094066619873 5.27924919128418 -2.4020309448242188
2.4562950134277344 5.330259799957275 -2.4020309448242188
2.2377049922943115 5.425655364990234 -2.4020309448242188
2.0154173374176025 5.512092113494873 -2.4020309448242188
1.9030028581619263 5.551905155181885 -2.4020309448242188
1.789801001548767 5.589425563812256 -2.4020309448242188
1.6758630275726318 5.624638080596924 -2.4020309448242188
1.5612304210662842 5.657527923583984 -2.4020309448242188
1.445955753326416 5.688082218170166 -2.4020309448242188
1.3300976753234863 5.716287612915039 -2.4020309448242188
0.6249938607215881 5.835618019104004 -2.4020309448242188
0.5062939524650574 5.84711217880249 -2.4020309448242188
0.38738036155700684 5.856192111968994 -2.4020309448242188
2.607377767562866 4.855809211730957 -2.4020309448242188
2.4079394340515137 4.957735538482666 -2.4020309448242188
2.306706428527832 5.005638122558594 -2.4020309448242188
1.892675757408142 5.176397800445557 -2.4020309448242188
1.7871068716049194 5.213785171508789 -2.4020309448242188
1.6807982921600342 5.249020099639893 -2.4020309448242188
0.9197143316268921 5.43428373336792 -2.4020309448242188
0.36378660798072815 5.499541282653809 -2.4020309448242188
0.25197020173072815 5.50579833984375 -2.4020309448242188
2.4549059867858887 4.571856498718262 -2.4020309448242188
2.3615050315856934 4.620795726776123 -2.4020309448242188
2.171816349029541 4.712924003601074 -2.4020309448242188
2.075608968734741 4.756082534790039 -2.4020309448242188
1.6826049089431763 4.908898830413818 -2.4020309448242188
1.5825085639953613 4.942074298858643 -2.4020309448242188
1.176033854484558 5.0542449951171875 -2.4020309448242188
1.0730968713760376 5.077095985412598 -2.4020309448242188
0.9697155356407166 5.0978522300720215 -2.4020309448242188
0.657336413860321 5.147459506988525 -2.4020309448242188
0.5526098608970642 5.159754753112793 -2.4020309448242188
0.2372399866580963 5.183836936950684 -2.4020309448242188
2.3165831565856934 4.314255714416504 -2.4020309448242188
2.2284460067749023 4.3604350090026855 -2.4020309448242188
2.1393883228302 4.404815196990967 -2.4020309448242188
2.0494470596313477 4.447375297546387 -2.4020309448242188
1.9586584568023682 4.488100051879883 -2.4020309448242188
1.6815905570983887 4.599090099334717 -2.4020309448242188
1.5877965688705444 4.632307529449463 -2.4020309448242188
1.3026342391967773 4.720436096191406 -2.4020309448242188
1.2064526081085205 4.74592924118042 -2.4020309448242188
1.0126391649246216 4.791027069091797 -2.4020309448242188
0.9150781035423279 4.810614585876465 -2.4020309448242188
0.6202978491783142 4.857426643371582 -2.4020309448242188
0.5214757919311523 4.869028091430664 -2.4020309448242188
0.42243528366088867 4.87861967086792 -2.4020309448242188
0.3232201933860779 4.886194229125977 -2.4020309448242188
0.2238757312297821 4.891754627227783 -2.4020309448242188
2.1904101371765137 4.079275608062744 -2.4020309448242188
2.1070713996887207 4.1229400634765625 -2.4020309448242188
1.9378198385238647 4.205143928527832 -2.4020309448242188
1.8519750833511353 4.243650436401367 -2.4020309448242188
1.7653673887252808 4.280404090881348 -2.4020309448242188
1.5900012254714966 4.348594665527344 -2.4020309448242188
1.322121500968933 4.437384605407715 -2.4020309448242188
1.0493261814117432 4.509688854217529 -2.4020309448242188
0.9574792385101318 4.530079364776611 -2.4020309448242188
0.7726354598999023 4.565239906311035 -2.4020309448242188
0.5865148901939392 4.592862606048584 -2.4020309448242188
0.4930700659751892 4.6038312911987305 -2.4020309448242188
0.3056115508079529 4.620063781738281 -2.4020309448242188
0.21167723834514618 4.625319957733154 -2.4020309448242188
2.074732542037964 3.863847494125366 -2.4020309448242188
1.9957983493804932 3.905207395553589 -2.4020309448242188
1.9160350561141968 3.944953441619873 -2.4020309448242188
1.835482120513916 3.983069896697998 -2.4020309448242188
1.6721373796463013 4.054355144500732 -2.4020309448242188
1.5894140005111694 4.087493896484375 -2.4020309448242188
1.422029972076416 4.148696422576904 -2.4020309448242188
1.1666393280029297 4.22762393951416 -2.4020309448242188
1.080499291419983 4.250455379486084 -2.4020309448242188
0.7318310141563416 4.3241496086120605 -2.4020309448242188
0.5555407404899597 4.350311756134033 -2.4020309448242188
0.3783313035964966 4.36929178237915 -2.4020309448242188
0.28947263956069946 4.376076698303223 -2.4020309448242188
0.2004980444908142 4.38105583190918 -2.4020309448242188
1.586275577545166 3.8461663722991943 -2.4020309448242188
1.349007487297058 3.935662031173706 -2.4020309448242188
1.1067346334457397 4.010537624359131 -2.4020309448242188
1.0250158309936523 4.0321946144104 -2.4020309448242188
0.9428735375404358 4.052189350128174 -2.4020309448242188
0.6942517161369324 4.102105617523193 -2.4020309448242188
0.5270141363143921 4.126927375793457 -2.4020309448242188
0.35890379548072815 4.144929885864258 -2.4020309448242188
0.19020263850688934 4.156091213226318 -2.4020309448242188
