ply
format ascii 1.0
element vertex 190
property float x
property float y
property float z
end_header
2.062575578689575 19.779199600219727 3.5065178871154785
2.310012102127075 18.548173904418945 2.863428831100464
1.6462560892105103 19.574283599853516 3.0092577934265137
2.4176526069641113 19.412466049194336 2.5474367141723633
1.9648950099945068 18.842470169067383 2.4669885635375977
2.427250862121582 19.489519119262695 2.108987331390381
1.6076513528823853 19.115291595458984 2.0598809719085693
2.2444920539855957 18.022064208984375 1.5374048948287964
1.5243982076644897 18.125383377075195 1.539781928062439
4.476456165313721 19.658206939697266 1.2502180337905884
3.277256965637207 19.81607437133789 1.2454936504364014
2.413170099258423 19.376455307006836 1.2108228206634521
3.3672595024108887 18.103485107421875 0.7260822653770447
2.6942808628082275 18.593610763549805 0.7408226132392883
2.343350887298584 18.815868377685547 0.7476609349250793
1.9744409322738647 18.934017181396484 0.7506363987922668
3.9721691608428955 31.894367218017578 -0.9050117135047913
2.6787071228027344 31.850343704223633 -0.9000005722045898
15.073776245117188 44.90101623535156 -2.4020156860351562
13.26628589630127 45.46785354614258 -2.4020156860351562
12.354415893554688 45.72400665283203 -2.4020156860351562
11.437575340270996 45.96199417114258 -2.4020156860351562
10.516186714172363 46.18150329589844 -2.4020156860351562
9.590578079223633 46.382450103759766 -2.4020156860351562
8.111603736877441 43.61063766479492 -2.2496156692504883
7.237884521484375 43.76415252685547 -2.2496156692504883
6.36027193069458 43.89313507080078 -2.2492570877075195
3.323519229888916 31.87108039855957 -1.6250826120376587
2.6804723739624023 31.871337890625 -1.6220382452011108
11.044943809509277 30.841712951660156 -2.4020156860351562
9.802863121032715 31.258695602416992 -2.4020156860351562
8.593637466430664 29.453153610229492 -2.2496156692504883
8.002942085266113 29.619125366210938 -2.2496156692504883
7.409035682678223 29.773239135742188 -2.2496156692504883
6.211187839508057 30.03893280029297 -2.249110221862793
3.1213977336883545 16.781633377075195 -1.2515676021575928
2.088785409927368 16.7718505859375 -1.239248514175415
2.0873119831085205 24.81855010986328 -1.8261722326278687
7.457456111907959 22.213903427124023 -2.2496156692504883
7.011751651763916 22.35858917236328 -2.2496156692504883
6.562733173370361 22.492591857910156 -2.249441385269165
6.110461235046387 22.615009307861328 -2.249011754989624
5.655911922454834 22.728315353393555 -2.248579740524292
5.199283123016357 22.83246612548828 -2.248145818710327
4.740731239318848 22.92742919921875 -2.2477099895477295
3.1191978454589844 16.76982307434082 -1.6376004219055176
2.428842782974243 16.761796951293945 -1.6260244846343994
1.408715844154358 16.749935150146484 -1.6137585639953613
6.384095191955566 17.82684326171875 -2.249269962310791
6.025418758392334 17.948223114013672 -2.248929023742676
5.664437294006348 18.062368392944336 -2.2485861778259277
3.1191954612731934 16.76982307434082 -2.02618408203125
2.7727856636047363 16.76579475402832 -2.0185928344726562
1.7470922470092773 16.753870010375977 -2.000917911529541
1.408715844154358 16.749935150146484 -1.9966754913330078
5.049357891082764 15.04076099395752 -2.2480006217956543
4.136830806732178 15.310547828674316 -2.2471330165863037
3.5203943252563477 15.459689140319824 -2.2465474605560303
1.958223819732666 15.72349739074707 -2.245062828063965
4.341569900512695 12.93245792388916 -2.24733304977417
3.820134162902832 13.092829704284668 -2.2468373775482178
2.760444164276123 13.350237846374512 -2.245830535888672
1.141729712486267 13.575382232666016 -2.244292974472046
3.804344415664673 11.332188606262207 -2.246833086013794
3.1171178817749023 11.536553382873535 -2.2461793422698975
1.9246740341186523 8.45212459564209 -1.629335641860962
1.552270531654358 8.34548282623291 -1.5955268144607544
1.9489233493804932 11.784271240234375 -2.2450692653656006
1.2249364852905273 8.453421592712402 -1.6055058240890503
1.2384655475616455 11.876355171203613 -2.244394540786743
1.000616431236267 11.897549629211426 -2.244168758392334
2.9960107803344727 8.36600112915039 -1.878380537033081
3.388824462890625 10.094456672668457 -2.250795841217041
3.186055898666382 10.159476280212402 -2.2506344318389893
2.9820544719696045 10.220464706420898 -2.2504818439483643
2.776902914047241 10.277397155761719 -2.250338315963745
2.570668935775757 10.330254554748535 -2.2502036094665527
2.1553027629852295 10.423663139343262 -2.2499616146087646
1.7366100549697876 10.500551223754883 -2.249756336212158
1.315425992012024 10.559704780578613 -2.2493510246276855
0.891009509563446 10.594152450561523 -2.2472970485687256
2.996011972427368 8.365999221801758 -2.08847975730896
3.050910472869873 9.087904930114746 -2.25301194190979
2.684741258621216 9.201476097106934 -2.2527291774749756
2.1278514862060547 9.344386100769043 -2.2523653507232666
1.9404711723327637 9.384631156921387 -2.252260446548462
1.5522692203521729 8.34548282623291 -1.9950191974639893
1.5635266304016113 9.45394229888916 -2.2520751953125
1.3741185665130615 9.482977867126465 -2.251995086669922
0.9937646389007568 9.52977180480957 -2.2518599033355713
2.6053357124328613 8.307668685913086 -2.2542967796325684
2.438793897628784 8.358522415161133 -2.254409074783325
1.9330980777740479 8.489139556884766 -2.254256010055542
1.420440673828125 8.588767051696777 -2.2539920806884766
1.075809359550476 8.638171195983887 -2.2538540363311768
0.9028295874595642 8.657735824584961 -2.253796339035034
2.682316780090332 7.490060806274414 -2.252249002456665
2.5321311950683594 7.5425896644592285 -2.2523670196533203
2.3809118270874023 7.592089653015137 -2.2524774074554443
2.075610399246216 7.681894779205322 -2.2526748180389404
1.7669103145599365 7.759324550628662 -2.252840757369995
1.6114404201507568 7.793354511260986 -2.2529120445251465
1.4553124904632568 7.824230670928955 -2.2529749870300293
1.1413366794586182 7.876530647277832 -2.253077268600464
0.6670300364494324 7.931115627288818 -2.2531704902648926
2.049877882003784 7.025588035583496 -2.2510228157043457
1.194362759590149 7.221778392791748 -2.251436471939087
1.0497338771820068 7.244355201721191 -2.2514798641204834
0.9046679735183716 7.264015197753906 -2.2515158653259277
0.6134924292564392 7.2945427894592285 -2.251565456390381
2.025158643722534 6.45766019821167 -2.2496423721313477
1.8956408500671387 6.496974945068359 -2.2496800422668457
1.5028222799301147 6.599596977233887 -2.249901294708252
1.370583415031433 6.628507614135742 -2.2499618530273438
1.237786889076233 6.654748916625977 -2.2500152587890625
0.8365881443023682 6.717350959777832 -2.2501354217529297
0.7020983695983887 6.732816219329834 -2.25016188621521
0.5673205256462097 6.745569229125977 -2.2501814365386963
2.0865232944488525 6.215238094329834 -2.344517707824707
1.9500463008880615 6.218176364898682 -2.33044695854187
1.8150951862335205 6.220919132232666 -2.317405939102173
1.681551456451416 6.223474025726318 -2.3053674697875977
1.5492931604385376 6.22584342956543 -2.2943077087402344
1.2881726026535034 6.230048179626465 -2.275038480758667
1.159182071685791 6.231888771057129 -2.2667911052703857
1.0314648151397705 6.23680305480957 -2.260622501373291
0.652355968952179 6.2568583488464355 -2.249630928039551
1.875618815422058 5.980846881866455 -2.4020309448242188
1.6349657773971558 6.051063537597656 -2.4020309448242188
1.5136339664459229 6.08254861831665 -2.4020309448242188
1.1462328433990479 6.162362098693848 -2.4020309448242188
1.0227404832839966 6.1840500831604 -2.4020309448242188
0.5223547220230103 6.2108941078186035 -2.3885300159454346
1.8678405284881592 5.563832759857178 -2.4020309448242188
1.7562060356140137 5.600071907043457 -2.4020309448242188
1.5308740139007568 5.6658172607421875 -2.4020309448242188
1.4172899723052979 5.695298194885254 -2.4020309448242188
1.3030798435211182 5.722499847412109 -2.4020309448242188
1.0732946395874023 5.770028591156006 -2.4020309448242188
0.8416479229927063 5.808329105377197 -2.4020309448242188
0.6087170243263245 5.837337493896484 -2.4020309448242188
0.49186277389526367 5.848343372344971 -2.4020309448242188
1.5437548160552979 5.290948390960693 -2.4020309448242188
1.3309533596038818 5.348445415496826 -2.4020309448242188
1.116024136543274 5.397387504577637 -2.4020309448242188
1.007867455482483 5.418625831604004 -2.4020309448242188
0.8993054032325745 5.437697410583496 -2.4020309448242188
0.5716454982757568 5.481835842132568 -2.4020309448242188
0.4619067311286926 5.492170810699463 -2.4020309448242188
1.7495568990707397 4.885436058044434 -2.4020309448242188
1.651516079902649 4.91944694519043 -2.4020309448242188
1.5528063774108887 4.951488018035889 -2.4020309448242188
1.4534802436828613 4.9815497398376465 -2.4020309448242188
1.3535741567611694 5.009619235992432 -2.4020309448242188
1.2531286478042603 5.0356855392456055 -2.4020309448242188
1.0507665872573853 5.0817670822143555 -2.4020309448242188
0.9489330649375916 5.101761817932129 -2.4020309448242188
0.7441723346710205 5.13562536239624 -2.4020309448242188
0.6413244605064392 5.149481773376465 -2.4020309448242188
0.43489745259284973 5.171006202697754 -2.4020309448242188
1.6509802341461182 4.610167026519775 -2.4020309448242188
1.4653148651123047 4.672496795654297 -2.4020309448242188
1.1825170516967773 4.751950740814209 -2.4020309448242188
1.087255835533142 4.774647235870361 -2.4020309448242188
0.8954626321792603 4.814302921295166 -2.4020309448242188
0.7990124225616455 4.831246852874756 -2.4020309448242188
0.7022387385368347 4.846258640289307 -2.4020309448242188
0.6051879525184631 4.859333515167236 -2.4020309448242188
1.3855053186416626 4.418002605438232 -2.4020309448242188
1.2077380418777466 4.4698710441589355 -2.4020309448242188
0.9375512599945068 4.534245014190674 -2.4020309448242188
0.6639916896820068 4.582301616668701 -2.4020309448242188
0.5722253322601318 4.594664096832275 -2.4020309448242188
0.4802282750606537 4.60518741607666 -2.4020309448242188
0.38803830742836 4.613870620727539 -2.4020309448242188
1.3123351335525513 4.184689998626709 -2.4020309448242188
1.0590624809265137 4.25584602355957 -2.4020309448242188
0.9737475514411926 4.2761735916137695 -2.4020309448242188
0.8880383372306824 4.294789791107178 -2.4020309448242188
0.7155920267105103 4.326866149902344 -2.4020309448242188
0.6289269924163818 4.340310573577881 -2.4020309448242188
0.5420055985450745 4.352020263671875 -2.4020309448242188
0.4548669457435608 4.361988544464111 -2.4020309448242188
0.3675476014614105 4.370211601257324 -2.4020309448242188
1.2449487447738647 3.9698071479797363 -2.4020309448242188
1.085213541984558 4.016412258148193 -2.4020309448242188
0.8424389362335205 4.07425594329834 -2.4020309448242188
0.6788476705551147 4.104682922363281 -2.4020309448242188
0.4315112233161926 4.138003349304199 -2.4020309448242188
0.34867429733276367 4.145804405212402 -2.4020309448242188
