ply
format ascii 1.0
element vertex 202
property float x
property float y
property float z
end_header
-17.196971893310547 34.905330657958984 6.861175537109375
-16.887943267822266 36.03850555419922 6.097015380859375
-17.00511360168457 34.51590347290039 5.89454460144043
-16.70038604736328 33.897396087646484 4.920790195465088
-16.49765396118164 33.485897064208984 3.1600310802459717
-15.693339347839355 35.267539978027344 2.3936946392059326
-15.95412540435791 34.0457649230957 2.331495523452759
-12.74992847442627 38.35532760620117 1.5937601327896118
-15.63895320892334 35.14530563354492 1.5168229341506958
-15.568117141723633 33.22202682495117 1.4466770887374878
-16.411100387573242 33.31022262573242 1.4642106294631958
-15.686199188232422 35.25148391723633 0.6517518758773804
-16.048063278198242 34.246219635009766 0.6388450264930725
-16.238061904907227 34.651668548583984 -0.21545378863811493
-6.606689453125 31.995128631591797 -0.9199172854423523
-7.2172064781188965 31.7995548248291 -0.918175458908081
-11.346000671386719 32.02635192871094 -0.9567084908485413
-12.78219985961914 32.04225158691406 -0.9713773727416992
-13.390520095825195 31.74924087524414 -0.970246434211731
-14.934776306152344 31.870506286621094 -0.9910470247268677
-15.653963088989258 31.773466110229492 -0.9973564147949219
-10.788540840148926 40.18661880493164 -2.110199451446533
-12.075745582580566 41.70769119262695 -2.2020480632781982
-11.343331336975098 32.01882553100586 -1.7226998805999756
-11.985492706298828 31.839950561523438 -1.7253546714782715
-12.803732872009277 32.09623336791992 -1.7524731159210205
-13.42963695526123 31.841989517211914 -1.75259268283844
-15.585427284240723 31.63435173034668 -1.788453221321106
-7.218323707580566 29.15213394165039 -2.2020480632781982
-8.3523530960083 28.847702026367188 -2.2020480632781982
-10.16515827178955 28.693178176879883 -2.231968641281128
-10.72909927368164 28.50227928161621 -2.2330098152160645
-11.829474449157715 28.047964096069336 -2.231963872909546
-12.372628211975098 27.8049259185791 -2.231447458267212
-12.910833358764648 27.55144500732422 -2.23093581199646
-13.443892478942871 27.28759002685547 -2.23042893409729
-4.269112586975098 22.92918586730957 -2.239147186279297
-4.715624809265137 22.83702278137207 -2.238722801208496
-5.160187721252441 22.736181259155273 -2.238300085067749
-6.042694091796875 22.5086669921875 -2.2374613285064697
-8.202958106994629 21.791488647460938 -2.235408067703247
-9.461094856262207 21.26185417175293 -2.2342119216918945
-9.8731689453125 21.069129943847656 -2.2338201999664307
-3.8127214908599854 18.46437644958496 -2.239579200744629
-4.530179500579834 18.295658111572266 -2.2388970851898193
-4.886221885681152 18.200851440429688 -2.2385590076446533
-5.592257976531982 17.99055290222168 -2.2378876209259033
-5.941984176635742 17.875139236450195 -2.2375552654266357
-7.315920829772949 17.346214294433594 -2.2362494468688965
-7.652510166168213 17.19742774963379 -2.235929250717163
-3.197232484817505 15.483742713928223 -2.2401647567749023
-3.4988884925842285 15.416314125061035 -2.2398784160614014
-4.983504295349121 14.99184799194336 -2.2384722232818604
-5.274972915649414 14.889726638793945 -2.23819637298584
-6.418871879577637 14.425164222717285 -2.2371110916137695
-6.976210117340088 14.159881591796875 -2.2365822792053223
-2.75042724609375 13.319869995117188 -2.2405970096588135
-3.0099546909332275 13.262099266052246 -2.2403504848480225
-3.2682676315307617 13.199281692504883 -2.240105390548706
-3.7808916568756104 13.058605194091797 -2.2396187782287598
-4.034976482391357 12.980805397033691 -2.2393782138824463
-2.8046350479125977 8.437140464782715 -1.4647088050842285
-4.787393093109131 12.717945098876953 -2.2386679649353027
-5.0345635414123535 12.620614051818848 -2.2384347915649414
-2.1824939250946045 11.722042083740234 -2.2411489486694336
-1.7466833591461182 8.458930015563965 -1.623488426208496
-2.864994525909424 11.57062816619873 -2.240501880645752
-3.0903379917144775 11.511306762695312 -2.240288496017456
-2.44950795173645 8.460232734680176 -1.6555020809173584
-2.806009531021118 8.441276550292969 -1.6719961166381836
-2.961099863052368 8.358315467834473 -1.666709542274475
-4.197022438049316 11.149558067321777 -2.2392404079437256
-1.9475646018981934 10.459433555603027 -2.2489099502563477
-2.3555920124053955 10.378941535949707 -2.249694585800171
-2.5581321716308594 10.33132266998291 -2.249784231185913
-2.759716749191284 10.279790878295898 -2.249882698059082
-2.9603044986724854 10.224367141723633 -2.2499899864196777
-2.806009531021118 8.441275596618652 -1.8803211450576782
-2.961101531982422 8.358315467834473 -1.8743722438812256
-3.945136547088623 9.889593124389648 -2.2506561279296875
-1.753820776939392 9.419660568237305 -2.2518820762634277
-1.9376769065856934 9.383849143981934 -2.2519469261169434
-2.1208152770996094 9.344477653503418 -2.2520196437835693
-2.303156614303589 9.301567077636719 -2.2521004676818848
-2.4846434593200684 9.255132675170898 -2.2521893978118896
-2.806009531021118 8.441276550292969 -2.0906317234039307
-2.9611010551452637 8.358315467834473 -2.084026336669922
-3.3768420219421387 8.970712661743164 -2.252750873565674
-3.7253758907318115 8.832953453063965 -2.2530293464660645
-4.068353176116943 8.68177604675293 -2.253338575363159
-1.9267345666885376 8.48934268951416 -2.253941535949707
-2.0923826694488525 8.450331687927246 -2.2540152072906494
-2.257251024246216 8.408113479614258 -2.2540957927703857
-2.4210290908813477 8.361905097961426 -2.2539665699005127
-2.5838842391967773 8.312461853027344 -2.2538270950317383
-2.9064390659332275 8.204011917114258 -2.2535245418548584
-3.0660290718078613 8.145041465759277 -2.253361463546753
-3.3815557956695557 8.01772403717041 -2.253012180328369
-3.537335157394409 7.949434757232666 -2.25282621383667
-3.6917388439178467 7.878090858459473 -2.2526323795318604
-3.844684362411499 7.803715705871582 -2.2524313926696777
-1.7610814571380615 7.759458065032959 -2.2525136470794678
-1.9123376607894897 7.723196983337402 -2.252408504486084
-2.062840461730957 7.683946132659912 -2.252295732498169
-2.2125377655029297 7.641754627227783 -2.252175807952881
-2.509256601333618 7.548544883728027 -2.2519140243530273
-2.946812629699707 7.387029647827148 -2.25146746635437
-3.090430736541748 7.327482223510742 -2.2513043880462646
-3.2328319549560547 7.265122890472412 -2.2511343955993652
-3.373967170715332 7.19997501373291 -2.250957489013672
-1.3396642208099365 7.195241928100586 -2.2511346340179443
-1.4800060987472534 7.167416095733643 -2.251051664352417
-1.6197705268859863 7.136829853057861 -2.2509617805480957
-1.8973314762115479 7.067431449890137 -2.2507615089416504
-2.035024404525757 7.028648376464844 -2.2506513595581055
-2.307960271835327 6.942986965179443 -2.250410795211792
-2.577285051345825 6.846652507781982 -2.250143527984619
-2.7104551792144775 6.794530868530273 -2.25
-3.103581428527832 6.623013019561768 -2.249671697616577
-3.2324512004852295 6.561040878295898 -2.249659776687622
-1.2388622760772705 6.653839111328125 -2.2497830390930176
-1.4979320764541626 6.59998893737793 -2.2496681213378906
-1.8821728229522705 6.500786781311035 -2.2496490478515625
-2.134824275970459 6.422203063964844 -2.2496337890625
-2.2600767612457275 6.379236221313477 -2.249630928039551
-2.3842430114746094 6.333840847015381 -2.249630928039551
-2.5076024532318115 6.2860236167907715 -2.249630928039551
-2.6364903450012207 6.251175403594971 -2.2551772594451904
-2.9228923320770264 6.237569332122803 -2.289766550064087
-3.0714123249053955 6.234161376953125 -2.31011962890625
-1.415014624595642 6.234556198120117 -2.2862231731414795
-1.672860026359558 6.231286525726318 -2.3072571754455566
-1.803615689277649 6.22939920425415 -2.3191699981689453
-1.9357311725616455 6.227336406707764 -2.3320486545562744
-2.069322347640991 6.225093841552734 -2.345911741256714
-2.7308080196380615 6.136809349060059 -2.4020309448242188
-2.850196361541748 6.082255840301514 -2.4020309448242188
-2.968550443649292 6.025375843048096 -2.4020309448242188
-1.3873095512390137 6.112600803375244 -2.4020309448242188
-1.6251842975616455 6.05369758605957 -2.4020309448242188
-1.7432116270065308 6.020773410797119 -2.4020309448242188
-1.8605724573135376 5.985544681549072 -2.4020309448242188
-2.0931177139282227 5.908244609832764 -2.4020309448242188
-2.208211660385132 5.8662004470825195 -2.4020309448242188
-2.548187255859375 5.726683139801025 -2.4020309448242188
-2.659672737121582 5.675774574279785 -2.4020309448242188
-2.7701256275177 5.62269401550293 -2.4020309448242188
-1.1868335008621216 5.747735023498535 -2.4020309448242188
-1.2990148067474365 5.723433494567871 -2.4020309448242188
-1.5217028856277466 5.668283462524414 -2.4020309448242188
-1.6322180032730103 5.637454509735107 -2.4020309448242188
-1.8513402938842773 5.569344997406006 -2.4020309448242188
-1.9598596096038818 5.532089710235596 -2.4020309448242188
-2.067621946334839 5.492722034454346 -2.4020309448242188
-2.1745996475219727 5.451255798339844 -2.4020309448242188
-2.2807469367980957 5.407703876495361 -2.4020309448242188
-2.3860204219818115 5.362087249755859 -2.4020309448242188
-2.593736410140991 5.264720439910889 -2.4020309448242188
-1.5328234434127808 5.294126987457275 -2.4020309448242188
-1.7385913133621216 5.23016357421875 -2.4020309448242188
-1.8404967784881592 5.195178031921387 -2.4020309448242188
-2.0421581268310547 5.119265556335449 -2.4020309448242188
-2.1418418884277344 5.078366756439209 -2.4020309448242188
-2.2407078742980957 5.03552770614624 -2.4020309448242188
-2.435823917388916 4.944092273712158 -2.4020309448242188
-0.9498485922813416 5.101591110229492 -2.4020309448242188
-1.0493921041488647 5.082050800323486 -2.4020309448242188
-1.2472436428070068 5.03714656829834 -2.4020309448242188
-1.3454748392105103 5.011801242828369 -2.4020309448242188
-1.443184733390808 4.984543800354004 -2.4020309448242188
-1.7328698635101318 4.891379356384277 -2.4020309448242188
-2.0165929794311523 4.781398773193359 -2.4020309448242188
-0.8963256478309631 4.814142227172852 -2.4020309448242188
-1.1769665479660034 4.753326892852783 -2.4020309448242188
-1.3618676662445068 4.703688621520996 -2.4020309448242188
-1.5446887016296387 4.646859645843506 -2.4020309448242188
-1.8144067525863647 4.548328876495361 -2.4020309448242188
-2.077880859375 4.434160232543945 -2.4020309448242188
-0.8475072979927063 4.551934719085693 -2.4020309448242188
-1.2005102634429932 4.471818923950195 -2.4020309448242188
-1.2876964807510376 4.4474968910217285 -2.4020309448242188
-1.6311876773834229 4.333312511444092 -2.4020309448242188
-1.715582251548767 4.300599098205566 -2.4020309448242188
-1.7993261814117432 4.26624059677124 -2.4020309448242188
-1.8823766708374023 4.23025369644165 -2.4020309448242188
-1.9647105932235718 4.192648887634277 -2.4020309448242188
-0.8027563095092773 4.31154727935791 -2.4020309448242188
-0.8868823051452637 4.29503059387207 -2.4020309448242188
-0.9706750512123108 4.276872634887695 -2.4020309448242188
-1.0540930032730103 4.257080554962158 -2.4020309448242188
-1.7829687595367432 4.006853103637695 -2.4020309448242188
-1.8609545230865479 3.9712345600128174 -2.4020309448242188
-0.7615343928337097 4.090150833129883 -2.4020309448242188
-0.8413415551185608 4.074484348297119 -2.4020309448242188
-0.9208312630653381 4.057257175445557 -2.4020309448242188
-0.9999670386314392 4.038482666015625 -2.4020309448242188
-1.0787206888198853 4.018161296844482 -2.4020309448242188
-1.1570616960525513 3.996310234069824 -2.4020309448242188
-1.234960913658142 3.972926616668701 -2.4020309448242188
-1.389312744140625 3.9216160774230957 -2.4020309448242188
-1.465706706047058 3.893709659576416 -2.4020309448242188
-1.691414713859558 3.801103353500366 -2.4020309448242188
