ply
format ascii 1.0
element vertex 274
property float x
property float y
property float z
end_header
-18.544322967529297 -42.63665008544922 -1.3091918230056763
-18.811643600463867 -45.76966857910156 -1.3933792114257812
-4.309042453765869 -20.49196434020996 -0.5896266102790833
-3.8790502548217773 -20.5057315826416 -0.5876356363296509
-3.4495341777801514 -20.506052017211914 -0.5855171084403992
-2.5982959270477295 -20.502321243286133 -0.5819169282913208
-2.525031566619873 -23.786035537719727 -0.6735246181488037
-3.6716954708099365 -42.859378814697266 -1.2112444639205933
-1.0624059438705444 -43.24932098388672 -1.2181713581085205
-18.34511947631836 -39.94171905517578 -2.2290549278259277
-11.229446411132812 -25.818466186523438 -1.4278512001037598
-10.60235595703125 -25.79606819152832 -1.4144155979156494
-9.991018295288086 -25.785221099853516 -1.4024107456207275
-9.394708633422852 -25.788209915161133 -1.3919123411178589
-7.662424564361572 -25.822372436523438 -1.3660016059875488
-3.827895402908325 -20.23531723022461 -1.044419527053833
-3.4048266410827637 -20.24030303955078 -1.040894627571106
-2.9852490425109863 -20.250783920288086 -1.0381027460098267
-2.1506946086883545 -20.259742736816406 -1.0332313776016235
-1.7367870807647705 -20.27332305908203 -1.0319128036499023
-1.3252074718475342 -20.3090763092041 -1.0321513414382935
-1.0876147747039795 -44.27519989013672 -2.2460620403289795
-12.720233917236328 -27.69499969482422 -2.2346031665802
-12.158653259277344 -27.954877853393555 -2.2351930141448975
-8.797229766845703 -25.76250648498535 -1.9960570335388184
-7.63967752456665 -25.745702743530273 -1.969085931777954
-8.092439651489258 -29.450878143310547 -2.2394392490386963
-7.495047569274902 -29.61728286743164 -2.2400596141815186
-4.657352924346924 -20.111988067626953 -1.5136768817901611
-3.799105644226074 -20.0831241607666 -1.4986536502838135
-3.386807680130005 -20.133155822753906 -1.4969477653503418
-2.967425584793091 -20.12986946105957 -1.4919161796569824
-2.551495313644409 -20.132966995239258 -1.4879997968673706
-2.137578010559082 -20.136194229125977 -1.484724521636963
-1.721352458000183 -20.09315299987793 -1.4786694049835205
-0.7525805234909058 -30.63642692565918 -2.2470059394836426
-0.1305822730064392 -30.6540584564209 -2.2476418018341064
-8.863245964050293 -21.564722061157227 -2.238365411758423
-8.42507266998291 -21.743764877319336 -2.238736152648926
-7.983317852020264 -21.91399383544922 -2.2391133308410645
-6.638264179229736 -22.37093162536621 -2.240283489227295
-5.267291069030762 -22.74590301513672 -2.2415077686309814
-3.8131492137908936 -20.15737533569336 -1.969529390335083
-3.3750035762786865 -20.063032150268555 -1.95321524143219
-2.9580438137054443 -20.066232681274414 -1.9472789764404297
-2.134773015975952 -20.10975456237793 -1.9414855241775513
-0.5746068954467773 -23.391342163085938 -2.246364116668701
-0.09969848394393921 -23.40325164794922 -2.2468504905700684
-7.873831748962402 -17.143213272094727 -2.240891933441162
-7.5251994132995605 -17.301740646362305 -2.2411813735961914
-5.092479228973389 -12.390259742736816 -1.5912569761276245
-6.10034704208374 -17.86475944519043 -2.2423932552337646
-5.37174654006958 -18.102781295776367 -2.243030309677124
-4.633909702301025 -18.311256408691406 -2.2436869144439697
-4.261900424957275 -18.404294967651367 -2.2440223693847656
-3.51244854927063 -18.56777000427246 -2.244706153869629
-1.6142590045928955 -18.843048095703125 -2.2464869022369385
-1.2316381931304932 -18.87501335144043 -2.246854066848755
-0.8483898639678955 -18.89924430847168 -2.2472245693206787
-5.09248161315918 -12.390259742736816 -1.8980610370635986
-5.7216644287109375 -14.76668643951416 -2.243852376937866
-4.198465347290039 -15.279460906982422 -2.2451791763305664
-3.887927770614624 -15.363434791564941 -2.2454566955566406
-3.5757200717926025 -15.441126823425293 -2.2457382678985596
-1.9940258264541626 -15.734201431274414 -2.2472000122070312
-1.0331298112869263 -15.832841873168945 -2.2481155395507812
-0.7116332650184631 -15.852740287780762 -2.248426675796509
-0.3897497355937958 -15.866132736206055 -2.2487401962280273
-5.686705112457275 -12.38133716583252 -2.2445454597473145
-5.434756755828857 -12.495474815368652 -2.2447712421417236
-5.09248161315918 -12.390259742736816 -2.20682954788208
-4.142866611480713 -12.988673210144043 -2.2459523677825928
-3.6130547523498535 -13.149022102355957 -2.2464473247528076
-2.8070361614227295 -13.349081993103027 -2.247211456298828
-2.535781145095825 -13.404863357543945 -2.247471809387207
-2.0828771591186523 -12.38184928894043 -2.0684361457824707
-1.715822696685791 -13.538997650146484 -2.248243570327759
-1.4408129453659058 -13.57260799407959 -2.2485039234161377
-0.8889379501342773 -13.623104095458984 -2.2490320205688477
-0.05817992985248566 -13.656865119934082 -2.2498414516448975
-4.999411106109619 -10.884950637817383 -2.2514255046844482
-4.778022766113281 -10.985509872436523 -2.2516961097717285
-4.3291730880737305 -11.172904014587402 -2.2522034645080566
-3.8729069232940674 -11.341732025146484 -2.252664566040039
-3.642238140106201 -11.41909408569336 -2.252877712249756
-3.4099998474121094 -11.491695404052734 -2.2530789375305176
-2.941235303878784 -11.622523307800293 -2.253445625305176
-2.467417001724243 -11.733983039855957 -2.2537639141082764
-2.2288622856140137 -11.782394409179688 -2.2539048194885254
-1.989351749420166 -11.82588005065918 -2.2540335655212402
-1.7490087747573853 -11.864270210266113 -2.2541184425354004
-1.2646557092666626 -11.915281295776367 -2.2521908283233643
-1.0226818323135376 -11.933942794799805 -2.251328468322754
-0.7798400521278381 -11.949049949645996 -2.250730037689209
-0.5370349287986755 -11.960142135620117 -2.250302314758301
-0.2937902808189392 -11.967869758605957 -2.2501697540283203
-3.8451695442199707 -9.923750877380371 -2.249643564224243
-3.439250946044922 -10.071768760681152 -2.249671697616577
-3.0278923511505127 -10.203973770141602 -2.2498724460601807
-2.820343494415283 -10.264097213745117 -2.250040292739868
-1.552913784980774 -10.534385681152344 -2.250822067260742
-1.338814616203308 -10.564169883728027 -2.2509143352508545
-1.1241443157196045 -10.589550971984863 -2.250995397567749
-0.4775939881801605 -10.639172554016113 -2.2511720657348633
-0.2615368664264679 -10.64684772491455 -2.251209020614624
-0.045368652790784836 -10.65008544921875 -2.251234292984009
-4.265865325927734 -9.28762149810791 -2.4020309448242188
-4.076365947723389 -9.372296333312988 -2.4020309448242188
-3.8852922916412354 -9.453109741210938 -2.4020309448242188
-3.692607879638672 -9.53002643585205 -2.4020309448242188
-3.498403787612915 -9.60301685333252 -2.4020309448242188
-3.3007640838623047 -9.666522979736328 -2.400657892227173
-3.0843424797058105 -9.669866561889648 -2.3854455947875977
-2.8703081607818604 -9.672996520996094 -2.3713531494140625
-2.6587278842926025 -9.675920486450195 -2.3583507537841797
-2.4493114948272705 -9.678640365600586 -2.346409797668457
-2.0362439155578613 -9.683496475219727 -2.325615882873535
-1.228155493736267 -9.690980911254883 -2.295820713043213
-0.4352404773235321 -9.69565486907959 -2.280996561050415
-0.2381921261548996 -9.69640064239502 -2.279564619064331
-3.700178861618042 -8.507353782653809 -2.4020309448242188
-3.5267295837402344 -8.580709457397461 -2.4020309448242188
-3.1750030517578125 -8.716781616210938 -2.4020309448242188
-2.4580602645874023 -8.945627212524414 -2.4020309448242188
-2.275972843170166 -8.993678092956543 -2.4020309448242188
-2.092946767807007 -9.038029670715332 -2.4020309448242188
-1.9090551137924194 -9.078645706176758 -2.4020309448242188
-0.9793688654899597 -9.225358009338379 -2.4020309448242188
-0.6041039824485779 -9.257506370544434 -2.4020309448242188
-0.039576414972543716 -9.277114868164062 -2.4020309448242188
-3.384197235107422 -7.780858039855957 -2.4020309448242188
-3.2255609035491943 -7.847949028015137 -2.4020309448242188
-2.7419347763061523 -8.029707908630371 -2.4020309448242188
-2.4137632846832275 -8.134381294250488 -2.4020309448242188
-2.2481517791748047 -8.181708335876465 -2.4020309448242188
-1.91421377658844 -8.266217231750488 -2.4020309448242188
-1.5771214962005615 -8.337099075317383 -2.4020309448242188
-1.237429141998291 -8.394243240356445 -2.4020309448242188
-1.066780924797058 -8.417632102966309 -2.4020309448242188
-0.7242394685745239 -8.453993797302246 -2.4020309448242188
-0.5524877905845642 -8.466954231262207 -2.4020309448242188
-2.5236597061157227 -7.3904852867126465 -2.4020309448242188
-2.373126268386841 -7.440188884735107 -2.4020309448242188
-2.2216100692749023 -7.486825466156006 -2.4020309448242188
-1.9159008264541626 -7.570828914642334 -2.4020309448242188
-1.2955114841461182 -7.7012834548950195 -2.4020309448242188
-0.8243932723999023 -7.765854835510254 -2.4020309448242188
-0.5085046291351318 -7.792916774749756 -2.4020309448242188
-0.3502185046672821 -7.801631450653076 -2.4020309448242188
-0.03327026218175888 -7.809418201446533 -2.4020309448242188
-3.016059398651123 -6.566688537597656 -2.4020309448242188
-2.8821470737457275 -6.626557350158691 -2.4020309448242188
-2.4734997749328613 -6.789687156677246 -2.4020309448242188
-2.1958775520324707 -6.884487152099609 -2.4020309448242188
-2.0556797981262207 -6.92764139175415 -2.4020309448242188
-1.9146349430084229 -6.9679412841796875 -2.4020309448242188
-1.6302392482757568 -7.039912700653076 -2.4020309448242188
-1.4870043992996216 -7.071552753448486 -2.4020309448242188
-1.3431543111801147 -7.100281238555908 -2.4020309448242188
-1.0538537502288818 -7.148946762084961 -2.4020309448242188
-0.4705260992050171 -7.210869789123535 -2.4020309448242188
-0.3240600526332855 -7.218935489654541 -2.4020309448242188
-2.5534508228302 -6.212674617767334 -2.4020309448242188
-2.4268126487731934 -6.263225555419922 -2.4020309448242188
-2.170605421066284 -6.356566429138184 -2.4020309448242188
-1.9108104705810547 -6.43942928314209 -2.4020309448242188
-1.7797082662582397 -6.476888656616211 -2.4020309448242188
-1.6478674411773682 -6.511680603027344 -2.4020309448242188
-1.3822094202041626 -6.573199272155762 -2.4020309448242188
-1.2484972476959229 -6.5999016761779785 -2.4020309448242188
-1.1142736673355103 -6.623884201049805 -2.4020309448242188
-0.84449702501297 -6.663653373718262 -2.4020309448242188
-0.7090612649917603 -6.679422378540039 -2.4020309448242188
-0.5733324885368347 -6.69243860244751 -2.4020309448242188
-0.43736693263053894 -6.70269775390625 -2.4020309448242188
-0.1649523824453354 -6.714926719665527 -2.4020309448242188
-0.028614500537514687 -6.716890811920166 -2.4020309448242188
-2.616144895553589 -5.695985794067383 -2.4020309448242188
-2.145530939102173 -5.889415264129639 -2.4020309448242188
-2.0255444049835205 -5.931751728057861 -2.4020309448242188
-1.9047155380249023 -5.971644878387451 -2.4020309448242188
-1.6607617139816284 -6.044033050537109 -2.4020309448242188
-1.5377392768859863 -6.076498508453369 -2.4020309448242188
-1.2898290157318115 -6.133904933929443 -2.4020309448242188
-1.1650561094284058 -6.1588263511657715 -2.4020309448242188
-1.039801001548767 -6.181204319000244 -2.4020309448242188
-0.6616747975349426 -6.233030796051025 -2.4020309448242188
-0.2810900807380676 -6.261746883392334 -2.4020309448242188
-0.026702880859375 -6.2679948806762695 -2.4020309448242188
-2.4495811462402344 -5.333344459533691 -2.4020309448242188
-2.1203808784484863 -5.472540855407715 -2.4020309448242188
-1.7834521532058716 -5.591453552246094 -2.4020309448242188
-1.669586181640625 -5.626504421234131 -2.4020309448242188
-1.4398351907730103 -5.689632892608643 -2.4020309448242188
-1.3240466117858887 -5.717687129974365 -2.4020309448242188
-0.8559203743934631 -5.806242942810059 -2.4020309448242188
-0.7378869652748108 -5.822421073913574 -2.4020309448242188
-0.14412841200828552 -5.867221355438232 -2.4020309448242188
-0.02500610239803791 -5.868937969207764 -2.4020309448242188
-2.300412654876709 -5.008539199829102 -2.4020309448242188
-1.9913134574890137 -5.139258861541748 -2.4020309448242188
-1.8865844011306763 -5.178621292114258 -2.4020309448242188
-1.5679051876068115 -5.283840656280518 -2.4020309448242188
-1.3521593809127808 -5.343127250671387 -2.4020309448242188
-1.1341601610183716 -5.393604755401611 -2.4020309448242188
-0.9143236875534058 -5.435194969177246 -2.4020309448242188
-0.803802490234375 -5.452634334564209 -2.4020309448242188
-0.5818188190460205 -5.4807658195495605 -2.4020309448242188
-0.4704333245754242 -5.491446018218994 -2.4020309448242188
-0.3588830530643463 -5.499865531921387 -2.4020309448242188
-0.24717162549495697 -5.506016731262207 -2.4020309448242188
-0.13533812761306763 -5.5098981857299805 -2.4020309448242188
-0.023477783426642418 -5.511511325836182 -2.4020309448242188
-1.9727014303207397 -4.799678325653076 -2.4020309448242188
-1.6769274473190308 -4.910841941833496 -2.4020309448242188
-1.576898217201233 -4.9438676834106445 -2.4020309448242188
-1.2730810642242432 -5.030676364898682 -2.4020309448242188
-1.067842960357666 -5.078204154968262 -2.4020309448242188
-0.8608434796333313 -5.117360591888428 -2.4020309448242188
-0.7567907571792603 -5.1337809562683105 -2.4020309448242188
-0.6524255275726318 -5.14808464050293 -2.4020309448242188
-0.5477929711341858 -5.1602678298950195 -2.4020309448242188
-0.3378918468952179 -5.178249835968018 -2.4020309448242188
-0.23271240293979645 -5.1840410232543945 -2.4020309448242188
-0.1274377405643463 -5.187696933746338 -2.4020309448242188
-0.022105712443590164 -5.189216136932373 -2.4020309448242188
-1.7692309617996216 -4.5660929679870605 -2.4020309448242188
-1.5824401378631592 -4.634140491485596 -2.4020309448242188
-1.4880504608154297 -4.66530704498291 -2.4020309448242188
-1.393044352531433 -4.69455099105835 -2.4020309448242188
-1.2974658012390137 -4.721860885620117 -2.4020309448242188
-1.2013500928878784 -4.747223854064941 -2.4020309448242188
-1.0076769590377808 -4.7920732498168945 -2.4020309448242188
-0.7141516208648682 -4.844518184661865 -2.4020309448242188
-0.4179784953594208 -4.879003047943115 -2.4020309448242188
-0.3188549876213074 -4.886481761932373 -2.4020309448242188
-0.2196020483970642 -4.891947269439697 -2.4020309448242188
-1.760158658027649 -4.2825493812561035 -2.4020309448242188
-1.6728662252426147 -4.317394256591797 -2.4020309448242188
-1.5848852396011353 -4.350461959838867 -2.4020309448242188
-1.4962499141693115 -4.381736755371094 -2.4020309448242188
-1.4069994688034058 -4.411205291748047 -2.4020309448242188
-1.2267956733703613 -4.4646782875061035 -2.4020309448242188
-0.6752538681030273 -4.5806565284729 -2.4020309448242188
-0.4887743890285492 -4.604290008544922 -2.4020309448242188
-0.3014892637729645 -4.620334148406982 -2.4020309448242188
-0.2076403796672821 -4.625502109527588 -2.4020309448242188
-0.11370605230331421 -4.6287641525268555 -2.4020309448242188
-1.8304723501205444 -3.9853765964508057 -2.4020309448242188
-1.7491991519927979 -4.0217108726501465 -2.4020309448242188
-1.66720449924469 -4.056387901306152 -2.4020309448242188
-1.5845239162445068 -4.089393615722656 -2.4020309448242188
-1.332696557044983 -4.178249835968018 -2.4020309448242188
-1.2476110458374023 -4.204440593719482 -2.4020309448242188
-1.075930118560791 -4.251614570617676 -2.4020309448242188
-0.9894067049026489 -4.272578239440918 -2.4020309448242188
-0.9024779796600342 -4.291781902313232 -2.4020309448242188
-0.8151708841323853 -4.309216022491455 -2.4020309448242188
-0.7275341749191284 -4.324874401092529 -2.4020309448242188
-0.5513916015625 -4.3508405685424805 -2.4020309448242188
-0.37434202432632446 -4.369635581970215 -2.4020309448242188
-0.28556761145591736 -4.376334190368652 -2.4020309448242188
-0.10770141333341599 -4.3843183517456055 -2.4020309448242188
-1.7364782094955444 -3.7807302474975586 -2.4020309448242188
-1.5031566619873047 -3.8794047832489014 -2.4020309448242188
-1.42410147190094 -3.9091169834136963 -2.4020309448242188
-1.3444591760635376 -3.937218427658081 -2.4020309448242188
-1.1835241317749023 -3.9885358810424805 -2.4020309448242188
-1.0206811428070068 -4.033295154571533 -2.4020309448242188
-0.9385998249053955 -4.053184509277344 -2.4020309448242188
-0.7733129858970642 -4.087939262390137 -2.4020309448242188
-0.690173327922821 -4.102794170379639 -2.4020309448242188
-0.35511839389801025 -4.145257472991943 -2.4020309448242188
-0.2709020972251892 -4.151610374450684 -2.4020309448242188
