ply
format ascii 1.0
element vertex 573
property float x
property float y
property float z
end_header
0.806549072265625 19.581186294555664 3.4556193351745605
0.41362425684928894 19.79942512512207 3.4919347763061523
0.01207885704934597 19.853927612304688 3.500784158706665
1.600283145904541 19.537845611572266 3.003113269805908
0.3881188929080963 18.578472137451172 2.8467395305633545
-0.37056639790534973 18.836219787597656 2.886162042617798
-0.747814953327179 18.70909309387207 2.868417978286743
6.286021709442139 9.414766311645508 1.4743248224258423
2.3823938369750977 19.385412216186523 2.543377161026001
1.517431616783142 18.526264190673828 2.4205851554870605
1.1595580577850342 18.8475284576416 2.458982229232788
0.7901281714439392 19.182464599609375 2.500075578689575
0.011857910081744194 19.49319076538086 2.538421392440796
6.013416767120361 9.414423942565918 1.1995704174041748
7.751105785369873 47.177650451660156 5.133937835693359
2.916264533996582 20.317346572875977 2.204072952270508
1.9640368223190308 19.187673568725586 2.0711722373962402
1.5663598775863647 19.12362289428711 2.060405731201172
0.012280273251235485 20.183956146240234 2.1673898696899414
6.013419151306152 9.414421081542969 0.945663571357727
1.8504161834716797 18.07764434814453 1.5383201837539673
1.6303906440734863 19.905376434326172 1.690689206123352
1.112239956855774 18.078405380249023 1.533281683921814
0.012065429240465164 19.821964263916016 1.6779862642288208
-0.3669091761112213 18.650245666503906 1.5791010856628418
6.286027908325195 9.414772987365723 0.7016550898551941
6.013416767120361 9.414423942565918 0.6927232146263123
4.472415447235107 19.660287857055664 1.250288486480713
3.676950693130493 19.854467391967773 1.252117395401001
3.25537109375 19.814044952392578 1.2451484203338623
2.0365123748779297 19.895702362060547 1.2401859760284424
1.5598266124725342 19.043848037719727 1.1848704814910889
1.1887658834457397 19.32227325439453 1.200446605682373
0.011553955264389515 18.989118576049805 1.17752206325531
6.013416767120361 9.414423942565918 0.44048842787742615
3.0210962295532227 18.388126373291016 0.7347837686538696
2.313572883605957 18.825429916381836 0.7478910684585571
1.9371837377548218 18.925329208374023 0.7501444816589355
1.0432848930358887 49.93992614746094 1.9696112871170044
-0.8039501905441284 20.11354637145996 0.7937312126159668
-1.6442748308181763 20.379638671875 0.8062016367912292
-2.0534300804138184 20.304950714111328 0.8047288060188293
-0.8910790681838989 22.29329490661621 0.37687423825263977
6.286019325256348 9.414764404296875 -0.06355514377355576
6.013416767120361 9.414423942565918 -0.06289291381835938
1.262935757637024 20.52783203125 -0.1157936081290245
2.613344669342041 31.906288146972656 -0.901418149471283
1.2626208066940308 20.52267074584961 -0.5789645314216614
0.6689709424972534 32.0222053527832 -0.9018699526786804
0.019437255337834358 31.948505401611328 -0.8995978832244873
-1.9137414693832397 31.735971450805664 -0.8952369689941406
-3.8938896656036377 32.006065368652344 -0.907864511013031
-5.217289924621582 31.998796463012695 -0.9129122495651245
-5.860476493835449 31.861339569091797 -0.912194013595581
-7.172784805297852 31.709163665771484 -0.9154170155525208
24.681400299072266 40.42451095581055 -2.4020156860351562
22.177902221679688 41.85050582885742 -2.4020156860351562
21.324825286865234 42.29094696044922 -2.4020156860351562
20.46274185180664 42.715389251708984 -2.4020156860351562
18.713939666748047 43.50986099243164 -2.4020156860351562
16.03395652770996 44.56715393066406 -2.4020156860351562
15.12695026397705 44.88314437866211 -2.4020156860351562
13.294635772705078 45.45957946777344 -2.4020156860351562
12.370078086853027 45.71986389160156 -2.4020156860351562
11.44046401977539 45.96127700805664 -2.4020156860351562
9.567448616027832 46.38732147216797 -2.4020156860351562
8.077646255493164 43.61695098876953 -2.2496156692504883
7.191539287567139 43.77178192138672 -2.2496156692504883
6.301290035247803 43.90052795410156 -2.2492010593414307
3.928262948989868 31.96408462524414 -1.6332308053970337
3.2616026401519775 31.86425018310547 -1.6244155168533325
1.2622973918914795 20.517507553100586 -1.0424976348876953
1.3058898448944092 31.70395851135254 -1.6092065572738647
0.6709240674972534 32.115806579589844 -1.6290853023529053
-0.626110851764679 31.82599449157715 -1.614343523979187
-4.518038272857666 31.75142478942871 -1.6264746189117432
-5.86340856552124 31.877277374267578 -1.6437526941299438
-6.5553507804870605 31.97990608215332 -1.6555603742599487
-7.187023162841797 31.772077560424805 -1.6520071029663086
-11.289281845092773 41.92740249633789 -2.2020480632781982
6.286025047302246 9.414770126342773 -0.8298380970954895
6.013416767120361 9.414423942565918 -0.819084882736206
17.071229934692383 27.96023941040039 -2.4020156860351562
15.923479080200195 28.629438400268555 -2.4020156860351562
14.153361320495605 29.54461097717285 -2.4020156860351562
13.551340103149414 29.825544357299805 -2.4020156860351562
11.712895393371582 30.59427833557129 -2.4020156860351562
11.090109825134277 30.825496673583984 -2.4020156860351562
10.462760925292969 31.044042587280273 -2.4020156860351562
9.831110954284668 31.249813079833984 -2.4020156860351562
8.612001419067383 29.44779396057129 -2.2496156692504883
8.01309585571289 29.616384506225586 -2.2496156692504883
6.805646896362305 29.916933059692383 -2.2496156692504883
6.196164608001709 30.041837692260742 -2.249095916748047
3.7377026081085205 30.413490295410156 -2.2467596530914307
2.4516637325286865 29.932273864746094 -2.2020480632781982
1.2619824409484863 20.512332916259766 -1.5068516731262207
1.235994815826416 30.007064819335938 -2.2020480632781982
0.6272656321525574 30.025957107543945 -2.2020480632781982
-1.4059338569641113 17.425567626953125 -1.281834363937378
-3.0217509269714355 29.88010597229004 -2.2020480632781982
-3.627042055130005 29.812685012817383 -2.2020480632781982
-4.230820655822754 29.73300552368164 -2.2020480632781982
-6.62608528137207 29.29242515563965 -2.2020480632781982
-7.218729019165039 29.15203857421875 -2.2020480632781982
-7.808389663696289 28.99966812133789 -2.2020480632781982
6.286027908325195 9.414772987365723 -1.0866135358810425
6.013417720794678 9.414422035217285 -1.0724769830703735
13.037848472595215 21.354137420654297 -2.4020156860351562
12.60216236114502 21.614139556884766 -2.4020156860351562
11.264694213867188 22.340351104736328 -2.4020156860351562
9.885563850402832 22.983793258666992 -2.4020156860351562
8.819975852966309 21.708965301513672 -2.2496156692504883
8.37796401977539 21.883373260498047 -2.2496156692504883
7.483762264251709 22.205062866210938 -2.2496156692504883
5.657354831695557 22.727994918823242 -2.2485811710357666
5.194281101226807 22.83354949951172 -2.248141050338745
3.1344616413116455 16.9251708984375 -1.6525503396987915
2.7545177936553955 16.765583038330078 -1.6311607360839844
2.405874013900757 16.76152992248535 -1.6256835460662842
1.0302343368530273 16.745534896850586 -1.610695719718933
0.6895849704742432 16.741575241088867 -1.6086336374282837
0.34965941309928894 16.737621307373047 -1.6072454452514648
0.010179443284869194 16.733673095703125 -1.6065154075622559
-0.6685412526130676 16.72578239440918 -1.6070432662963867
-1.4059338569641113 17.425565719604492 -1.6783853769302368
-2.348599910736084 23.22378921508789 -2.2409725189208984
-3.2870311737060547 23.10025978088379 -2.2400805950164795
-4.682666301727295 22.844135284423828 -2.2387540340423584
-5.143911838531494 22.740036010742188 -2.2383155822753906
-5.60289192199707 22.626638412475586 -2.237879514694214
-6.059377193450928 22.504005432128906 -2.237445592880249
10.537426948547363 17.258813858032227 -2.4020156860351562
8.867854118347168 16.73393440246582 -2.2496156692504883
8.52669906616211 16.910308837890625 -2.2496156692504883
6.771218299865723 17.68654441833496 -2.2496156692504883
6.046728610992432 17.941234588623047 -2.2489492893218994
4.942416667938232 18.267152786254883 -2.2478997707366943
4.570269584655762 18.360727310180664 -2.247546434402466
2.7545177936553955 16.765583038330078 -2.0182149410247803
2.405874013900757 16.76152992248535 -2.011439085006714
2.059429883956909 16.75750160217285 -2.005531072616577
0.34965941309928894 16.737621307373047 -1.9886270761489868
-0.6685436964035034 16.72578239440918 -1.988375186920166
-1.356512427330017 16.813030242919922 -2.003640651702881
-2.278480291366577 18.728097915649414 -2.241037368774414
-3.4112956523895264 18.546005249023438 -2.2399606704711914
-3.7860593795776367 18.470077514648438 -2.2396044731140137
-4.530426979064941 18.295595169067383 -2.2388970851898193
6.286022663116455 9.414769172668457 -1.6039550304412842
8.273612976074219 13.551000595092773 -2.2496156692504883
7.717353343963623 13.875327110290527 -2.2496156692504883
6.859458923339844 14.318873405456543 -2.2496156692504883
6.567189693450928 14.453920364379883 -2.249444007873535
5.371729850769043 14.930965423583984 -2.248307704925537
4.760673522949219 15.132577896118164 -2.2477262020111084
4.452258110046387 15.224016189575195 -2.2474329471588135
3.8303050994873047 15.38797664642334 -2.2468419075012207
3.517010450363159 15.460433959960938 -2.246544122695923
1.9327220916748047 15.72647762298584 -2.2450385093688965
0.6517407298088074 15.822786331176758 -2.243821144104004
-0.6321349740028381 15.814959526062012 -2.242600917816162
-2.228215217590332 15.65915584564209 -2.2410848140716553
-2.8605194091796875 15.5517578125 -2.2404844760894775
-3.174877166748047 15.488492965698242 -2.2401859760284424
-3.4878411293029785 15.418889999389648 -2.239888906478882
-4.109070777893066 15.260770797729492 -2.23930025100708
6.286030292510986 9.414776802062988 -1.8649177551269531
6.39326286315918 12.064302444458008 -2.2492856979370117
6.146668434143066 12.190190315246582 -2.2490508556365967
5.392412185668945 12.537351608276367 -2.248332977294922
4.878568172454834 12.74290943145752 -2.2478432655334473
3.0080296993255615 8.36094856262207 -1.4638034105300903
4.356912612915039 12.927388191223145 -2.247347593307495
3.2936413288116455 13.231956481933594 -2.2463371753692627
1.5460180044174194 8.348017692565918 -1.3986294269561768
2.209643602371216 13.449153900146484 -2.245307207107544
1.9362438917160034 13.489639282226562 -2.2450475692749023
1.3873668909072876 13.553903579711914 -2.2445261478424072
0.5605322122573853 13.608417510986328 -2.2437407970428467
0.005096435546875 8.36707878112793 -1.378385305404663
-0.2678014934062958 13.61254596710205 -2.2429542541503906
-0.8193420171737671 13.587321281433105 -2.2424304485321045
-1.0945630073547363 13.566329002380371 -2.242169141769409
-1.3692662715911865 13.53977108001709 -2.241908311843872
-1.6433581113815308 13.507655143737793 -2.241647958755493
-1.9166979789733887 13.469992637634277 -2.2413885593414307
-1.3633239269256592 8.361607551574707 -1.3956729173660278
-1.5558397769927979 8.458576202392578 -1.4168349504470825
-2.7311851978302 13.32393741607666 -2.240615129470825
6.286030292510986 9.414774894714355 -2.1277971267700195
6.013419151306152 9.414421081542969 -2.099721670150757
6.236855506896973 10.215076446533203 -2.249619245529175
6.030672550201416 10.343293190002441 -2.250455856323242
5.604939937591553 10.576704025268555 -2.249901056289673
5.388665676116943 10.686935424804688 -2.2496376037597656
5.167404651641846 10.786773681640625 -2.2481298446655273
3.817784309387207 11.327742576599121 -2.2468457221984863
2.4715282917022705 8.45111083984375 -1.6550121307373047
3.1210827827453613 11.535507202148438 -2.246183156967163
1.9227343797683716 8.452128410339355 -1.6292552947998047
1.546016812324524 8.348018646240234 -1.5957807302474976
1.9364354610443115 11.786264419555664 -2.2450575828552246
1.213375210762024 8.45344352722168 -1.6051998138427734
0.3476965129375458 8.441141128540039 -1.5879478454589844
0.17524291574954987 8.38828182220459 -1.5770111083984375
0.005096435546875 8.36707878112793 -1.5726820230484009
-0.1663488745689392 8.456000328063965 -1.589703917503357
-0.47655394673347473 11.92257308959961 -2.2427666187286377
-0.7181494235992432 11.90924072265625 -2.242537498474121
-1.9135204553604126 8.45923900604248 -1.6301772594451904
-2.865151882171631 11.570582389831543 -2.240501880645752
-2.27789306640625 8.459915161132812 -1.6467657089233398
5.909627437591553 8.851028442382812 -2.249626398086548
5.545888423919678 9.083373069763184 -2.2496273517608643
5.360552787780762 9.193957328796387 -2.2496259212493896
4.989587306976318 9.415510177612305 -2.252439260482788
4.797133445739746 9.513763427734375 -2.252204656600952
4.406562328338623 9.698537826538086 -2.2517611980438232
3.807731866836548 9.9458589553833 -2.2511610984802246
3.008028507232666 8.36094856262207 -1.8782352209091187
3.400792121887207 10.090479850769043 -2.250805616378784
2.361182689666748 10.37952709197998 -2.2500767707824707
2.150106191635132 10.424723625183105 -2.2499589920043945
1.0830297470092773 10.580659866333008 -2.248224973678589
0.6527416706085205 10.607152938842773 -2.24637770652771
0.43730711936950684 10.615041732788086 -2.245708703994751
0.17524413764476776 8.38828182220459 -1.7735003232955933
-0.20885252952575684 10.616886138916016 -2.244631052017212
-0.42403075098991394 10.610285758972168 -2.2445919513702393
-0.6391357183456421 10.600075721740723 -2.244713068008423
-1.0684667825698853 10.568793296813965 -2.2454235553741455
-1.497322916984558 10.523056030273438 -2.2467687129974365
-1.3633251190185547 8.36160659790039 -1.7908140420913696
-2.5582799911499023 10.331287384033203 -2.249784231185913
-2.7673773765563965 10.277754783630371 -2.2498867511749268
5.152616024017334 8.06678295135498 -2.249630928039551
4.987984657287598 8.169605255126953 -2.249630928039551
4.821293830871582 8.269073486328125 -2.249630928039551
4.143593788146973 8.649603843688965 -2.254077911376953
3.967000722885132 8.731091499328613 -2.2538819313049316
3.788823127746582 8.809000015258789 -2.2536938190460205
3.6091320514678955 8.883309364318848 -2.2535135746002197
3.427995443344116 8.953980445861816 -2.2533414363861084
2.6904821395874023 9.199816703796387 -2.2527332305908203
2.50323486328125 9.25193977355957 -2.2526018619537354
2.3149876594543457 9.300292015075684 -2.252478837966919
1.9357861280441284 9.385586738586426 -2.252257823944092
1.546016812324524 8.348018646240234 -1.9953356981277466
1.3614062070846558 9.484790802001953 -2.2519900798797607
1.1687597036361694 9.51014232635498 -2.251917839050293
0.782147228717804 9.549209594726562 -2.2517993450164795
0.5883386135101318 9.562911033630371 -2.251753091812134
0.005096435546875 8.36707878112793 -1.9664549827575684
-0.382636696100235 9.57291316986084 -2.2516517639160156
-0.576678454875946 9.563212394714355 -2.251657724380493
-0.963977038860321 9.532125473022461 -2.251695394515991
-1.3633239269256592 8.361607551574707 -1.991119384765625
-2.1141138076782227 9.34598445892334 -2.25201678276062
-2.491523265838623 9.253299713134766 -2.252192735671997
4.82461404800415 7.2259721755981445 -2.249630928039551
4.677093505859375 7.322322845458984 -2.249630928039551
3.9178662300109863 7.769986629486084 -2.2530672550201416
3.75981068611145 7.848469257354736 -2.2532498836517334
3.4390013217926025 7.995672225952148 -2.2535901069641113
3.2763965129852295 8.064330101013184 -2.2537474632263184
3.1124022006988525 8.129647254943848 -2.253896474838257
2.61283802986145 8.305291175842285 -2.254291534423828
2.44401478767395 8.356987953186035 -2.2544057369232178
2.274103879928589 8.405072212219238 -2.2544710636138916
2.1030969619750977 8.449039459228516 -2.254359006881714
1.585302710533142 8.560173988342285 -2.2540693283081055
1.4113415479660034 8.590250015258789 -2.253988027572632
1.236818790435791 8.616827011108398 -2.2539148330688477
1.0618078708648682 8.639883995056152 -2.2538490295410156
0.8863720297813416 8.659416198730469 -2.253791332244873
0.5345056056976318 8.68787956237793 -2.2536990642547607
0.3582202196121216 8.696799278259277 -2.253664970397949
0.17524291574954987 8.38828182220459 -2.1723484992980957
-0.347625732421875 8.697005271911621 -2.2536070346832275
-0.523913562297821 8.688183784484863 -2.253612518310547
-0.6999853253364563 8.675829887390137 -2.2536256313323975
-1.226226806640625 8.617552757263184 -2.2537128925323486
-1.3633251190185547 8.36160659790039 -2.1935548782348633
-1.57470703125 8.561111450195312 -2.253810405731201
-1.7480261325836182 8.52764892578125 -2.253870725631714
-1.9206457138061523 8.490713119506836 -2.253939151763916
-2.0924949645996094 8.450300216674805 -2.2540152072906494
4.004726409912109 6.868562698364258 -2.250809669494629
3.8649487495422363 6.948938369750977 -2.2509987354278564
3.723541259765625 7.0264434814453125 -2.251180410385132
3.290175676345825 7.2414445877075195 -2.251680612564087
2.9942479133605957 7.36986780166626 -2.2519757747650146
2.8443603515625 7.429518222808838 -2.2521119117736816
2.5410594940185547 7.53956937789917 -2.2523603439331055
2.233476400375366 7.637129783630371 -2.252577066421509
2.078244686126709 7.681183338165283 -2.252673387527466
1.9221373796463013 7.722048282623291 -2.2527616024017334
1.449221134185791 7.82537841796875 -2.252977132797241
1.1307836771011353 7.87806510925293 -2.253080129623413
0.6497326493263245 7.932558536529541 -2.2531723976135254
0.4887475371360779 7.944161415100098 -2.2531867027282715
0.32756224274635315 7.952458381652832 -2.253192663192749
-0.3178735375404358 7.952639102935791 -2.2531330585479736
-0.4790612757205963 7.9444260597229 -2.2530975341796875
-0.6400476098060608 7.932923316955566 -2.253053665161133
-1.1210925579071045 7.878708362579346 -2.2528727054595947
-1.5978612899780273 7.795083045959473 -2.2526183128356934
-1.9124401807785034 7.7231621742248535 -2.252408266067505
4.151939392089844 6.218489170074463 -2.299819231033325
3.975637197494507 6.22413969039917 -2.2716212272644043
3.811354875564575 6.242456436157227 -2.249630928039551
3.683985471725464 6.318459987640381 -2.249630928039551
3.160491943359375 6.597414493560791 -2.2500498294830322
3.0262560844421387 6.660579204559326 -2.2501959800720215
2.890749454498291 6.720992088317871 -2.250335454940796
2.6161608695983887 6.833456993103027 -2.2505927085876465
2.4771862030029297 6.88546085357666 -2.2507104873657227
2.337172746658325 6.9346184730529785 -2.2508208751678467
2.196174383163452 6.980903148651123 -2.2509241104125977
2.054252862930298 7.024300575256348 -2.2510199546813965
1.767885684967041 7.102352142333984 -2.251189708709717
1.6235522031784058 7.136973857879639 -2.25126314163208
1.478542447090149 7.168638706207275 -2.251329183578491
1.332910180091858 7.197333812713623 -2.25138783454895
1.0400243997573853 7.245765686035156 -2.2514824867248535
0.89289790391922 7.26547908782959 -2.2515182495117188
0.597582995891571 7.295868396759033 -2.2515673637390137
0.4495190382003784 7.306528568267822 -2.2515804767608643
0.15289306640625 7.318755149841309 -2.2515835762023926
0.0044531249441206455 7.320321559906006 -2.2515738010406494
-0.1439843773841858 7.318846702575684 -2.251556158065796
-0.5886767506599426 7.29623556137085 -2.251458168029785
-0.7364892363548279 7.2826457023620605 -2.2514102458953857
-0.8839953541755676 7.266032695770264 -2.251354694366455
-1.0311230421066284 7.2464118003845215 -2.2512917518615723
-1.1778124570846558 7.223786354064941 -2.251221179962158
-1.4696422815322876 7.169569492340088 -2.2510581016540527
-1.6146557331085205 7.13800048828125 -2.250965118408203
-1.7589892148971558 7.103474140167236 -2.2508649826049805
4.012579441070557 6.009762287139893 -2.4020309448242188
3.8898887634277344 6.0898919105529785 -2.4020309448242188
3.7656004428863525 6.167518138885498 -2.4020309448242188
3.1354002952575684 6.218178749084473 -2.3148531913757324
2.829078197479248 6.226603984832764 -2.2733798027038574
2.682443857192993 6.236678123474121 -2.2567296028137207
2.419726610183716 6.320369720458984 -2.249630928039551
2.2910680770874023 6.368136405944824 -2.249630928039551
2.030992269515991 6.455826759338379 -2.2496421337127686
1.899688720703125 6.49578332901001 -2.2496774196624756
1.367281436920166 6.629194259643555 -2.2499632835388184
0.9617577791213989 6.70048189163208 -2.2501046657562256
0.41569089889526367 6.756649494171143 -2.250195264816284
0.2785961925983429 6.763705253601074 -2.250200033187866
0.0041174315847456455 6.769405841827393 -2.2501890659332275
-0.40745481848716736 6.756923198699951 -2.25011944770813
-1.0891857147216797 6.680215358734131 -2.249863386154175
-1.2243847846984863 6.656543254852295 -2.249791383743286
-1.3590649366378784 6.6301140785217285 -2.2497122287750244
-1.493162751197815 6.601061820983887 -2.2496681213378906
-1.6267187595367432 6.569406986236572 -2.249662160873413
3.6157567501068115 5.6607208251953125 -2.4020309448242188
3.264897346496582 5.870082378387451 -2.4020309448242188
3.145192861557007 5.93508243560791 -2.4020309448242188
3.024193048477173 5.9976396560668945 -2.4020309448242188
2.9019556045532227 6.057730197906494 -2.4020309448242188
2.520911693572998 6.204826354980469 -2.395030975341797
2.3768811225891113 6.20845365524292 -2.3773348331451416
2.2348461151123047 6.211862087249756 -2.360797882080078
2.094658136367798 6.215057373046875 -2.345384120941162
1.8192797899246216 6.220836639404297 -2.3177969455718994
1.6838304996490479 6.2234320640563965 -2.305565357208252
1.5497082471847534 6.225836753845215 -2.294340133666992
1.4167858362197876 6.22805643081665 -2.284099578857422
1.285009741783142 6.230096340179443 -2.2748217582702637
1.0247302055358887 6.237104892730713 -2.2603373527526855
0.7675146460533142 6.247211933135986 -2.2508561611175537
0.6405724883079529 6.258086204528809 -2.249630928039551
0.5135400295257568 6.2697906494140625 -2.249630928039551
0.3862976133823395 6.278913974761963 -2.249630928039551
0.25889769196510315 6.28545618057251 -2.249630928039551
0.003826904110610485 6.29078483581543 -2.249630928039551
-0.2512475550174713 6.285767078399658 -2.249630928039551
-0.6333837509155273 6.258864402770996 -2.249630928039551
-0.7605114579200745 6.250192165374756 -2.2515952587127686
-1.0175879001617432 6.241084575653076 -2.26132869720459
-1.5434398651123047 6.233004093170166 -2.296288251876831
-1.6778051853179932 6.231218338012695 -2.307692766189575
3.2663049697875977 5.349742889404297 -2.4020309448242188
3.15714955329895 5.41487455368042 -2.4020309448242188
2.822084903717041 5.596812725067139 -2.4020309448242188
2.4766528606414795 5.7580413818359375 -2.4020309448242188
2.359311580657959 5.807075023651123 -2.4020309448242188
2.2410740852355957 5.853723049163818 -2.4020309448242188
2.1219139099121094 5.89796257019043 -2.4020309448242188
2.001879930496216 5.93977689743042 -2.4020309448242188
1.8810253143310547 5.9791483879089355 -2.4020309448242188
1.5140173435211182 6.082454681396484 -2.4020309448242188
1.0162206888198853 6.185129165649414 -2.4020309448242188
0.8905749320983887 6.204463958740234 -2.4020309448242188
0.6356444954872131 6.209939479827881 -2.392195701599121
0.3821740746498108 6.211887836456299 -2.3850080966949463
0.2558960020542145 6.212603569030762 -2.382800579071045
0.12979735434055328 6.213149070739746 -2.3815102577209473
-0.12224365025758743 6.213732719421387 -2.3816754817962646
-0.8829931616783142 6.205545425415039 -2.4020309448242188
-1.0086376667022705 6.186362266540527 -2.4020309448242188
-1.382928490638733 6.113591194152832 -2.4020309448242188
-1.506618618965149 6.084288597106934 -2.4020309448242188
-1.6296813488006592 6.052488803863525 -2.4020309448242188
3.2589428424835205 4.881019592285156 -2.4020309448242188
3.058354377746582 5.009146213531494 -2.4020309448242188
2.956153392791748 5.070132255554199 -2.4020309448242188
2.427755117416382 5.343319416046143 -2.4020309448242188
2.2091064453125 5.4373626708984375 -2.4020309448242188
1.5328185558319092 5.665290832519531 -2.4020309448242188
1.4176158905029297 5.695208549499512 -2.4020309448242188
1.3018286228179932 5.722784519195557 -2.4020309448242188
1.0687609910964966 5.770864009857178 -2.4020309448242188
0.9514428377151489 5.791347026824951 -2.4020309448242188
0.47910642623901367 5.84940242767334 -2.4020309448242188
0.36039671301841736 5.85791540145874 -2.4020309448242188
0.24153807759284973 5.864018440246582 -2.4020309448242188
0.12258056551218033 5.867710590362549 -2.4020309448242188
0.0035693359095603228 5.868989944458008 -2.4020309448242188
-0.11543945223093033 5.867855548858643 -2.4020309448242188
-0.7088024616241455 5.8260321617126465 -2.4020309448242188
-0.8267529010772705 5.81046199798584 -2.4020309448242188
-0.9444201588630676 5.7925028800964355 -2.4020309448242188
-1.061678409576416 5.772160530090332 -2.4020309448242188
-1.178505778312683 5.749440670013428 -2.4020309448242188
-1.525933861732483 5.667151927947998 -2.4020309448242188
2.966893196105957 4.644874572753906 -2.4020309448242188
2.872095823287964 4.704080581665039 -2.4020309448242188
2.776113271713257 4.761354923248291 -2.4020309448242188
2.580772638320923 4.870001792907715 -2.4020309448242188
2.4814867973327637 4.921332836151123 -2.4020309448242188
2.177685499191284 5.063103675842285 -2.4020309448242188
2.074566602706909 5.10621976852417 -2.4020309448242188
1.9705992937088013 5.147237300872803 -2.4020309448242188
1.7602734565734863 5.222906589508057 -2.4020309448242188
1.4394677877426147 5.3202667236328125 -2.4020309448242188
1.222561001777649 5.3742594718933105 -2.4020309448242188
1.1133325099945068 5.397943496704102 -2.4020309448242188
1.0036474466323853 5.41940975189209 -2.4020309448242188
0.8935485482215881 5.4386467933654785 -2.4020309448242188
0.7830786108970642 5.4556474685668945 -2.4020309448242188
0.3384472727775574 5.501160144805908 -2.4020309448242188
-0.2201245129108429 5.5071635246276855 -2.4020309448242188
-0.4432458281517029 5.493708610534668 -2.4020309448242188
-0.9970556497573853 5.420627117156982 -2.4020309448242188
-1.1067663431167603 5.399294376373291 -2.4020309448242188
-1.3247827291488647 5.349977970123291 -2.4020309448242188
-1.4333019256591797 5.322014808654785 -2.4020309448242188
2.8815014362335205 4.315713882446289 -2.4020309448242188
2.79339599609375 4.373256683349609 -2.4020309448242188
2.704144239425659 4.429001331329346 -2.4020309448242188
2.6137754917144775 4.482925891876221 -2.4020309448242188
2.522336483001709 4.535005569458008 -2.4020309448242188
2.429857015609741 4.585220813751221 -2.4020309448242188
2.3363780975341797 4.633549213409424 -2.4020309448242188
2.241940975189209 4.679971694946289 -2.4020309448242188
2.1465795040130615 4.7244720458984375 -2.4020309448242188
2.05033802986145 4.767027854919434 -2.4020309448242188
1.953253149986267 4.807624816894531 -2.4020309448242188
1.8553625345230103 4.846244812011719 -2.4020309448242188
1.756712555885315 4.882867813110352 -2.4020309448242188
1.557283878326416 4.950082302093506 -2.4020309448242188
1.1510692834854126 5.059988975524902 -2.4020309448242188
0.9449560046195984 5.1025004386901855 -2.4020309448242188
0.8412988185882568 5.120611667633057 -2.4020309448242188
0.737288773059845 5.136618614196777 -2.4020309448242188
0.5284106135368347 5.162289142608643 -2.4020309448242188
0.4236169457435608 5.171942234039307 -2.4020309448242188
0.21356201171875 5.184867858886719 -2.4020309448242188
-0.4173217713832855 5.172453880310059 -2.4020309448242188
-0.5221203565597534 5.162928581237793 -2.4020309448242188
-0.6267077326774597 5.151280879974365 -2.4020309448242188
-0.9387475252151489 5.103645324707031 -2.4020309448242188
-1.247308373451233 5.03712797164917 -2.4020309448242188
-1.3491954803466797 5.010799884796143 -2.4020309448242188
2.6360020637512207 4.1268463134765625 -2.4020309448242188
2.551778554916382 4.179449558258057 -2.4020309448242188
2.4665026664733887 4.230335712432861 -2.4020309448242188
2.380216121673584 4.279479503631592 -2.4020309448242188
1.6577318906784058 4.607744216918945 -2.4020309448242188
1.5639550685882568 4.640411853790283 -2.4020309448242188
1.4695385694503784 4.671170711517334 -2.4020309448242188
1.3745166063308716 4.700008392333984 -2.4020309448242188
1.2789281606674194 4.726914405822754 -2.4020309448242188
1.086214542388916 4.77488374710083 -2.4020309448242188
0.8917187452316284 4.815000057220459 -2.4020309448242188
0.6957470774650574 4.847196102142334 -2.4020309448242188
0.30070677399635315 4.887632369995117 -2.4020309448242188
0.2015344202518463 4.892724514007568 -2.4020309448242188
-0.29475218057632446 4.887994289398193 -2.4020309448242188
-0.4927014112472534 4.872023582458496 -2.4020309448242188
-0.5913940072059631 4.861031532287598 -2.4020309448242188
-0.8858569264411926 4.8160810470581055 -2.4020309448242188
-1.0804015398025513 4.7762017250061035 -2.4020309448242188
-1.2731701135635376 4.728466510772705 -2.4020309448242188
2.5710437297821045 3.8507299423217773 -2.4020309448242188
2.4924278259277344 3.902073383331299 -2.4020309448242188
2.250574827194214 4.046393394470215 -2.4020309448242188
2.0846519470214844 4.134321212768555 -2.4020309448242188
2.0003881454467773 4.175740718841553 -2.4020309448242188
1.9153039455413818 4.215447902679443 -2.4020309448242188
1.8294286727905273 4.253417491912842 -2.4020309448242188
1.655462622642517 4.324099063873291 -2.4020309448242188
1.4787744283676147 4.387667179107666 -2.4020309448242188
1.389498233795166 4.416750431060791 -2.4020309448242188
1.2996509075164795 4.44401741027832 -2.4020309448242188
1.1183923482894897 4.493059158325195 -2.4020309448242188
0.9352892637252808 4.534711837768555 -2.4020309448242188
0.8431445360183716 4.552745342254639 -2.4020309448242188
0.7506542801856995 4.568906307220459 -2.4020309448242188
0.4714758098125458 4.606092929840088 -2.4020309448242188
0.37797605991363525 4.614706516265869 -2.4020309448242188
0.09670531749725342 4.629148960113525 -2.4020309448242188
0.0028173828031867743 4.630159378051758 -2.4020309448242188
-0.18492065370082855 4.626465797424316 -2.4020309448242188
-0.27869749069213867 4.621763706207275 -2.4020309448242188
-0.37236204743385315 4.615162372589111 -2.4020309448242188
-0.5591845512390137 4.596268653869629 -2.4020309448242188
-0.7450891137123108 4.569815158843994 -2.4020309448242188
-0.9297680258750916 4.535845756530762 -2.4020309448242188
-1.0215563774108887 4.516061305999756 -2.4020309448242188
2.4352660179138184 3.647372245788574 -2.4020309448242188
2.131721258163452 3.832703113555908 -2.4020309448242188
1.8947484493255615 3.955220937728882 -2.4020309448242188
1.5680370330810547 4.095742225646973 -2.4020309448242188
1.4006799459457397 4.155953884124756 -2.4020309448242188
1.3161193132400513 4.18350076675415 -2.4020309448242188
1.2310168743133545 4.209328651428223 -2.4020309448242188
1.1454088687896729 4.233425140380859 -2.4020309448242188
0.8858959674835205 4.295233249664307 -2.4020309448242188
0.44657713174819946 4.362844944000244 -2.4020309448242188
0.18049193918704987 4.381925106048584 -2.4020309448242188
0.09159912168979645 4.3846845626831055 -2.4020309448242188
-0.08626342564821243 4.384791851043701 -2.4020309448242188
-0.2639831602573395 4.377689838409424 -2.4020309448242188
-0.44126829504966736 4.363384246826172 -2.4020309448242188
-0.5296569466590881 4.35353946685791 -2.4020309448242188
-1.0541528463363647 4.257065773010254 -2.4020309448242188
-1.1402587890625 4.23481559753418 -2.4020309448242188
2.310215950012207 3.4600818157196045 -2.4020309448242188
2.2395787239074707 3.506215810775757 -2.4020309448242188
1.9481152296066284 3.6761553287506104 -2.4020309448242188
1.873167634010315 3.7149035930633545 -2.4020309448242188
1.7209997177124023 3.7877988815307617 -2.4020309448242188
1.6438366174697876 3.8219189643859863 -2.4020309448242188
1.5660009384155273 3.8544652462005615 -2.4020309448242188
1.4084277153015137 3.91479229927063 -2.4020309448242188
1.3287549018859863 3.9425463676452637 -2.4020309448242188
1.2485363483428955 3.968679189682007 -2.4020309448242188
1.1678038835525513 3.993180513381958 -2.4020309448242188
1.0865930318832397 4.016040325164795 -2.4020309448242188
1.0049328804016113 4.037248611450195 -2.4020309448242188
0.9228600859642029 4.056796073913574 -2.4020309448242188
0.8404064774513245 4.074674129486084 -2.4020309448242188
0.7576086521148682 4.090877056121826 -2.4020309448242188
0.5074865818023682 4.129372596740723 -2.4020309448242188
0.4236462414264679 4.1388139724731445 -2.4020309448242188
0.3396325707435608 4.146554470062256 -2.4020309448242188
0.25548216700553894 4.152588844299316 -2.4020309448242188
0.08689697086811066 4.15953254699707 -2.4020309448242188
-0.08183349668979645 4.159634113311768 -2.4020309448242188
-0.16616332530975342 4.157121658325195 -2.4020309448242188
-0.2504260241985321 4.152895927429199 -2.4020309448242188
-0.33458372950553894 4.1469645500183105 -2.4020309448242188
-0.6695044040679932 4.1062188148498535 -2.4020309448242188
-0.83544921875 4.075694561004639 -2.4020309448242188
-0.91792231798172 4.057918071746826 -2.4020309448242188
