ply
format ascii 1.0
element vertex 842
property float x
property float y
property float z
end_header
-0.5690234303474426 18.768659591674805 2.876574754714966
-16.95975112915039 34.88994216918945 5.942957401275635
-17.24673843383789 22.523597717285156 4.345871448516846
-17.42109489440918 20.949926376342773 4.174075603485107
-17.246736526489258 19.121444702148438 3.9448063373565674
-17.246734619140625 18.365314483642578 3.859570264816284
-17.246728897094727 15.013572692871094 3.5029540061950684
-17.26783561706543 13.852225303649902 3.3913187980651855
-17.519969940185547 13.48477840423584 3.3869073390960693
2.560168504714966 19.504802703857422 2.561718702316284
2.113039493560791 19.06035614013672 2.4972620010375977
1.3154956102371216 18.7071475982666 2.4420769214630127
0.9543957114219666 19.03312873840332 2.481625556945801
0.5781481862068176 19.26608657836914 2.509976863861084
-17.191062927246094 33.62923049926758 4.91824197769165
-17.569047927856445 32.728179931640625 4.8371477127075195
-17.246747970581055 26.725996017456055 4.142025470733643
-17.24674415588379 24.504701614379883 3.9021317958831787
-17.246742248535156 23.48703956604004 3.7945268154144287
-17.24673843383789 21.609464645385742 3.60036301612854
-17.837158203125 20.593727111816406 3.54781174659729
-17.306243896484375 18.428678512573242 3.2920947074890137
-17.30707550048828 17.70262908935547 3.2238993644714355
-10.484354972839355 8.762655258178711 1.7793431282043457
-17.31363296508789 13.888964653015137 2.890385627746582
-17.568706512451172 13.522292137145996 2.8870043754577637
-18.019927978515625 13.301457405090332 2.916616201400757
-18.74307632446289 13.261598587036133 2.9899017810821533
2.128756046295166 19.202129364013672 2.0745911598205566
1.7287425994873047 19.090927124023438 2.058406114578247
1.3453404903411865 19.13155746459961 2.0594544410705566
0.5745788216590881 19.14706802368164 2.0569725036621094
-17.246747970581055 26.72599983215332 3.4155664443969727
-17.310209274291992 25.6763858795166 3.325230598449707
-17.30778694152832 23.570173263549805 3.1400914192199707
-17.306673049926758 22.601877212524414 3.056828498840332
-17.837158203125 20.593725204467773 2.925570011138916
-17.305374145507812 19.18645477294922 2.7745165824890137
-17.308639526367188 16.335783004760742 2.5557010173797607
-17.31009292602539 15.068731307983398 2.464419364929199
-18.019927978515625 13.301457405090332 2.4050803184509277
-18.743072509765625 13.261598587036133 2.4655113220214844
-19.566267013549805 13.262020111083984 2.538210868835449
2.6947741508483887 17.756330490112305 1.5203348398208618
2.363405704498291 18.00575065612793 1.5373117923736572
1.639766812324524 18.108306884765625 1.539191722869873
1.2734228372573853 18.108850479125977 1.5367509126663208
0.17506347596645355 17.6883487701416 1.4974418878555298
-0.614001452922821 20.252309799194336 1.7152036428451538
-17.103635787963867 35.18593978881836 3.3118438720703125
-17.308961868286133 24.593109130859375 2.5458133220672607
-17.307785034179688 23.570175170898438 2.475443124771118
-17.306671142578125 22.60187530517578 2.409804582595825
-17.837158203125 20.593727111816406 2.3063275814056396
-17.246736526489258 19.121444702148438 2.179837465286255
-17.246732711791992 16.945636749267578 2.0467851161956787
-17.24673080444336 16.277355194091797 2.0075418949127197
-17.519969940185547 13.484777450561523 1.871550440788269
-17.963186264038086 13.25957202911377 1.8900370597839355
4.235616207122803 19.782745361328125 1.2545374631881714
3.8384153842926025 19.87070083618164 1.2549678087234497
3.0014805793762207 19.77727508544922 1.24043869972229
2.566426992416382 19.552494049072266 1.222856879234314
0.18874511122703552 19.070524215698242 1.1826276779174805
-16.41054916381836 33.760093688964844 2.3277008533477783
-17.10218048095703 33.45536422729492 2.3299262523651123
-17.84731674194336 33.246551513671875 2.339901924133301
-17.246747970581055 26.725996017456055 1.9724042415618896
-17.246746063232422 25.58225440979004 1.9131999015808105
-17.24674415588379 24.50472640991211 1.8581727743148804
-17.24673843383789 22.52359962463379 1.7591288089752197
-17.24673843383789 21.609466552734375 1.7144694328308105
-17.24673080444336 16.277353286743164 1.4705750942230225
-17.246728897094727 15.01357364654541 1.417931318283081
-17.267833709716797 13.852226257324219 1.3727436065673828
-17.963186264038086 13.25957202911377 1.3845012187957764
-19.474666595458984 13.199929237365723 1.4588907957077026
3.155535936355591 18.304046630859375 0.7323945164680481
2.46002197265625 18.741832733154297 0.7453489303588867
2.094805955886841 18.895885467529297 0.749649167060852
1.4428564310073853 20.518291473388672 0.8110554218292236
0.48497435450553894 49.00123977661133 1.9322642087936401
-1.0200695991516113 20.218219757080078 0.79823899269104
-1.8502428531646729 20.36264419555664 0.8062278628349304
-16.733041763305664 32.733253479003906 1.4495713710784912
-17.58951759338379 32.76632308959961 1.4664008617401123
-17.246746063232422 25.582250595092773 1.2165616750717163
-17.24674415588379 24.50470733642578 1.181570291519165
-17.246742248535156 23.487043380737305 1.1489872932434082
-17.591028213500977 22.97321891784668 1.1409220695495605
-17.837160110473633 19.776046752929688 1.0501213073730469
-17.837154388427734 16.834592819213867 0.9671189785003662
-18.609498977661133 16.19989013671875 0.9728754758834839
-10.48076057434082 8.759652137756348 0.5384867787361145
-19.438764572143555 15.59373950958252 0.9826390147209167
-20.314775466918945 14.995401382446289 0.9956245422363281
-20.8763370513916 14.770983695983887 1.0083903074264526
1.495430827140808 49.833553314208984 0.8421565294265747
-1.152429223060608 22.84170913696289 0.3863282799720764
-13.258035659790039 38.47499084472656 0.6874144077301025
-15.957306861877441 34.57872009277344 0.643291175365448
-16.217933654785156 33.36383819580078 0.6266294717788696
-18.7894287109375 33.37384796142578 0.6469477415084839
-17.8371639251709 23.294673919677734 0.4955967664718628
-17.837162017822266 22.349239349365234 0.48301437497138977
-17.837158203125 21.450246810913086 0.4712409973144531
-17.837158203125 20.59370994567871 0.4602088928222656
-17.837160110473633 19.77602767944336 0.4498588442802429
-17.837158203125 18.24481964111328 0.43100082874298096
-17.837154388427734 16.834590911865234 0.41430190205574036
-18.194360733032227 16.49299430847168 0.414813369512558
-19.68544578552246 15.791630744934082 0.42629286646842957
4.386319637298584 48.43913650512695 -0.2738383412361145
-13.258035659790039 38.47499465942383 -0.22912199795246124
-16.135963439941406 34.965843200683594 -0.21681563556194305
-17.179601669311523 33.6068115234375 -0.21250274777412415
-16.855823516845703 31.399572372436523 -0.2006477266550064
-18.870216369628906 33.51734161376953 -0.21656112372875214
-17.837162017822266 23.2946720123291 -0.16518646478652954
-17.837158203125 20.59372329711914 -0.15339186787605286
-17.837160110473633 19.776029586791992 -0.14994293451309204
-17.837158203125 18.994028091430664 -0.14670318365097046
-17.837154388427734 16.83458137512207 -0.13809111714363098
-18.194360733032227 16.49299430847168 -0.13826186954975128
-10.478439331054688 8.757713317871094 -0.07689132541418076
-19.68545150756836 15.7916259765625 -0.14208786189556122
-20.314769744873047 14.995401382446289 -0.14216125011444092
3.5273962020874023 31.818342208862305 -0.9014219641685486
0.9552075266838074 31.831138610839844 -0.8966967463493347
-0.9747045636177063 32.14981460571289 -0.9056816101074219
-2.2634692192077637 32.04682159423828 -0.9046136140823364
-4.194499969482422 31.879852294921875 -0.9054011106491089
-4.8753838539123535 32.05802536010742 -0.9130610227584839
-5.5017547607421875 31.854894638061523 -0.9102424383163452
-6.223491191864014 32.16437530517578 -0.9224746227264404
-6.837186336517334 31.885467529296875 -0.9182320833206177
-7.54745626449585 32.041770935058594 -0.9269160032272339
-11.364789962768555 40.819618225097656 -1.19310462474823
-11.175582885742188 32.43170166015625 -0.965900719165802
-11.71177864074707 31.89154624938965 -0.9566327929496765
-12.455449104309082 31.918746948242188 -0.9647656083106995
-13.130049705505371 31.747821807861328 -0.9673829674720764
-16.408815383911133 32.09907913208008 -1.0150871276855469
-17.139484405517578 31.9279842376709 -1.0203666687011719
-17.95930290222168 31.899372100830078 -1.030783772468567
-18.802902221679688 31.881200790405273 -1.0422019958496094
-20.63385009765625 31.974735260009766 -1.0715272426605225
-22.421648025512695 31.857370376586914 -1.0969300270080566
-17.837162017822266 23.29467010498047 -0.8261340260505676
-17.837162017822266 22.3492431640625 -0.8051600456237793
-17.837158203125 20.593725204467773 -0.7671455144882202
-17.837160110473633 19.776046752929688 -0.7498939633369446
-17.837156295776367 17.52574920654297 -0.704122006893158
-18.194360733032227 16.49299430847168 -0.6914743185043335
-18.845130920410156 16.40501594543457 -0.703528106212616
-20.314769744873047 14.995400428771973 -0.7109774351119995
-20.876338958740234 14.770983695983887 -0.7200915217399597
-22.477270126342773 15.235095024108887 -0.7645947337150574
22.389047622680664 41.737640380859375 -2.4020156860351562
21.54547119140625 42.17978286743164 -2.4020156860351562
20.69326400756836 42.60422897338867 -2.4020156860351562
19.83272361755371 43.01144027709961 -2.4020156860351562
18.96414566040039 43.401405334472656 -2.4020156860351562
18.0878849029541 43.77384567260742 -2.4020156860351562
17.204336166381836 44.128578186035156 -2.4020156860351562
15.416740417480469 44.78443145751953 -2.4020156860351562
12.68951416015625 45.63216018676758 -2.4020156860351562
9.9161376953125 46.31404113769531 -2.4020156860351562
8.413209915161133 43.553489685058594 -2.2496156692504883
7.536064147949219 43.713783264160156 -2.2496156692504883
6.655609130859375 43.85492706298828 -2.249537944793701
4.196769714355469 31.973365783691406 -1.6354141235351562
1.4412767887115479 20.495861053466797 -1.0419994592666626
1.5983288288116455 31.874679565429688 -1.6185327768325806
0.2456323206424713 24.81855010986328 -1.2587159872055054
-0.2532983422279358 24.81855010986328 -1.2587202787399292
-0.7524425983428955 24.81855010986328 -1.2592328786849976
-1.6048204898834229 31.808223724365234 -1.6151823997497559
-2.2673425674438477 32.10166931152344 -1.6320687532424927
-2.901799201965332 31.935487747192383 -1.6262556314468384
-4.196563720703125 31.895586013793945 -1.631502389907837
-4.883596897125244 32.111995697021484 -1.6472612619400024
-5.508879661560059 31.89618492126465 -1.641540765762329
-6.226552486419678 32.180198669433594 -1.662264108657837
-6.842127323150635 31.908475875854492 -1.6549999713897705
-9.955309867858887 42.26401138305664 -2.2020480632781982
-11.646011352539062 41.829715728759766 -2.2020480632781982
-12.477362632751465 31.97490882873535 -1.740673542022705
-13.164529800415039 31.831178665161133 -1.7469052076339722
-14.013493537902832 32.0444221496582 -1.7737112045288086
-14.722783088684082 31.903560638427734 -1.7819384336471558
-16.435094833374023 32.15042495727539 -1.831173062324524
-18.861886978149414 31.981204986572266 -1.882973551750183
-20.615108489990234 31.94569206237793 -1.9281507730484009
-21.599878311157227 32.0392951965332 -1.959613561630249
-25.699607849121094 34.99836730957031 -2.2020480632781982
-17.837162017822266 23.294673919677734 -1.4879310131072998
-17.837162017822266 22.3492431640625 -1.45015549659729
-17.837158203125 21.450265884399414 -1.4148082733154297
-17.837158203125 20.59371566772461 -1.3816869258880615
-17.837158203125 18.994028091430664 -1.3214328289031982
-17.837156295776367 17.52574348449707 -1.2681770324707031
-17.837154388427734 16.8345890045166 -1.2438629865646362
-18.194366455078125 16.492990493774414 -1.2453984022140503
-20.314769744873047 14.995400428771973 -1.2805248498916626
-20.8763370513916 14.770983695983887 -1.2969417572021484
-22.47726821899414 15.235095024108887 -1.3770906925201416
16.06283950805664 28.551483154296875 -2.4020156860351562
15.48568058013916 28.868587493896484 -2.4020156860351562
14.902253150939941 29.17403221130371 -2.4020156860351562
14.312800407409668 29.46770477294922 -2.4020156860351562
13.116808891296387 30.01919174194336 -2.4020156860351562
11.899616241455078 30.52214241027832 -2.4020156860351562
11.28369140625 30.755165100097656 -2.4020156860351562
10.663195610046387 30.975770950317383 -2.4020156860351562
10.038395881652832 31.183847427368164 -2.4020156860351562
6.309915542602539 22.690805435180664 -1.7268656492233276
7.624176979064941 29.7188720703125 -2.2496156692504883
5.816836833953857 30.112579345703125 -2.2487354278564453
3.1206042766571045 23.77448272705078 -1.7581439018249512
2.751394033432007 24.81855010986328 -1.8308953046798706
2.247396230697632 24.81855010986328 -1.8271907567977905
1.4408849477767944 20.490280151367188 -1.5061010122299194
1.2445019483566284 24.81855010986328 -1.8220359086990356
0.2456347644329071 24.81855010986328 -1.8198384046554565
-0.2533020079135895 24.81855010986328 -1.819844126701355
-1.4079662561416626 19.934370040893555 -1.4652718305587769
-2.7176878452301025 29.909286499023438 -2.2020480632781982
-3.318361759185791 29.84861946105957 -2.2020480632781982
-5.705163478851318 29.48563003540039 -2.2020480632781982
-6.885714530944824 29.232484817504883 -2.2020480632781982
-8.635085105895996 28.76433753967285 -2.2020480632781982
-9.246390342712402 28.693180084228516 -2.2103850841522217
-9.887325286865234 28.693178176879883 -2.2252490520477295
-10.499621391296387 28.590782165527344 -2.2332277297973633
-12.19489574432373 27.88585090637207 -2.231616258621216
-13.299640655517578 27.36026954650879 -2.2305662631988525
-14.381994247436523 26.791221618652344 -2.22953724861145
-14.914213180541992 26.4907169342041 -2.2290313243865967
-15.95984172821045 25.85828971862793 -2.2280373573303223
-17.96985626220703 24.471797943115234 -2.2261266708374023
-17.837162017822266 22.349245071411133 -2.0966193675994873
-17.837160110473633 21.450265884399414 -2.0455145835876465
-17.837158203125 20.593713760375977 -1.9976284503936768
-17.837158203125 18.244815826416016 -1.8708468675613403
-17.837156295776367 17.5257511138916 -1.8335174322128296
-17.837154388427734 16.834592819213867 -1.7983633279800415
-10.474955558776855 8.75479793548584 -1.0009928941726685
-19.68544578552246 15.791627883911133 -1.8504079580307007
-20.11229705810547 15.480046272277832 -1.860903263092041
-20.314767837524414 14.995402336120605 -1.85136878490448
-20.8763427734375 14.770983695983887 -1.8751031160354614
-22.477264404296875 15.235095024108887 -1.9909826517105103
11.826926231384277 22.04789924621582 -2.4020156860351562
11.38134765625 22.28118133544922 -2.4020156860351562
10.93114948272705 22.505434036254883 -2.4020156860351562
10.017744064331055 22.926639556884766 -2.4020156860351562
9.554850578308105 23.123348236083984 -2.4020156860351562
8.070952415466309 21.99842643737793 -2.2496156692504883
7.627133846282959 22.156219482421875 -2.2496156692504883
7.18022346496582 22.3050537109375 -2.2496156692504883
6.730369567871094 22.44473648071289 -2.249600887298584
6.276646614074707 22.57115936279297 -2.2491695880889893
4.901995658874512 22.895118713378906 -2.247863292694092
3.12060546875 20.56216049194336 -1.9966775178909302
2.2886998653411865 20.644878387451172 -1.9941520690917969
-0.17076537013053894 16.731571197509766 -1.606398582458496
-0.5071471929550171 16.727659225463867 -1.606677532196045
-0.8437621593475342 16.723745346069336 -1.607607126235962
-2.112495183944702 23.248796463012695 -2.241196870803833
-2.5788769721984863 23.19704818725586 -2.240753650665283
-3.5078039169311523 23.065553665161133 -2.23987078666687
-4.888748645782471 22.798839569091797 -2.238558053970337
-5.798929691314697 22.57518768310547 -2.2376930713653564
-7.144928455352783 22.171981811523438 -2.2364137172698975
-7.587728023529053 22.01971435546875 -2.235992670059204
-8.027320861816406 21.858652114868164 -2.235574960708618
-8.896120071411133 21.510395050048828 -2.2347490787506104
-9.325011253356934 21.323333740234375 -2.2343413829803467
-9.749995231628418 21.127782821655273 -2.2339375019073486
-10.170880317687988 20.92375946044922 -2.233537435531616
-10.587556838989258 20.71143341064453 -2.2331411838531494
-10.999807357788086 20.49080467224121 -2.2327494621276855
-11.40750503540039 20.26205825805664 -2.2323617935180664
-12.20854663848877 19.780414581298828 -2.231600284576416
-12.601577758789062 19.527719497680664 -2.231226682662964
-13.74887752532959 18.723562240600586 -2.2301361560821533
-14.120230674743652 18.440492630004883 -2.229783058166504
-14.845430374145508 17.852516174316406 -2.229093551635742
-15.546353340148926 17.236236572265625 -2.2284274101257324
-16.221954345703125 16.59267234802246 -2.227787494659424
-16.5499267578125 16.260953903198242 -2.2274768352508545
-17.185457229614258 15.578462600708008 -2.2268784046173096
-11.853743553161621 8.387080192565918 -1.3940719366073608
-19.184328079223633 13.00313663482666 -2.2249975204467773
9.914992332458496 17.62377166748047 -2.4020156860351562
9.558732986450195 17.81951332092285 -2.4020156860351562
8.274226188659668 17.035266876220703 -2.2496156692504883
7.930124282836914 17.198148727416992 -2.2496156692504883
7.58282470703125 17.354074478149414 -2.2496156692504883
7.232453346252441 17.502994537353516 -2.2496156692504883
6.879164695739746 17.64483642578125 -2.2496156692504883
6.162868499755859 17.902650833129883 -2.2490596771240234
5.800873756408691 18.020158767700195 -2.248715877532959
2.898488759994507 16.813030242919922 -2.026611328125
2.5516138076782227 16.813030242919922 -2.020019292831421
2.206850528717041 16.813030242919922 -2.0142812728881836
1.8639013767242432 16.813030242919922 -2.009385585784912
1.5224719047546387 16.813030242919922 -2.005321979522705
1.1776708364486694 16.747249603271484 -1.9942498207092285
0.16562987864017487 16.73548126220703 -1.9880367517471313
-0.17076537013053894 16.731571197509766 -1.9875783920288086
-0.5071471929550171 16.727659225463867 -1.987923264503479
-1.1875048875808716 16.813030242919922 -2.0021259784698486
-1.7076451778411865 18.793331146240234 -2.241580009460449
-2.0847387313842773 18.752208709716797 -2.2412216663360596
-3.581970691680908 18.51240348815918 -2.2397985458374023
-4.689011096954346 18.254283905029297 -2.238746404647827
-6.845071792602539 17.541399002075195 -2.23669695854187
-8.227103233337402 16.924955368041992 -2.2353832721710205
-9.228293418884277 16.3913516998291 -2.2344322204589844
-11.12454605102539 15.149720191955566 -2.2326385974884033
-11.721562385559082 14.686629295349121 -2.232074499130249
-12.580832481384277 13.948356628417969 -2.231259822845459
-13.394026756286621 13.160200119018555 -2.2304916381835938
-8.872176170349121 8.373506546020508 -1.4491442441940308
-10.139561653137207 8.474488258361816 -1.5697170495986938
-10.4187593460083 8.357912063598633 -1.5865979194641113
-11.012491226196289 8.476106643676758 -1.6507363319396973
-11.48403549194336 8.476981163024902 -1.6955304145812988
-11.853742599487305 8.387081146240234 -1.7248685359954834
7.505168437957764 13.99123477935791 -2.2496156692504883
7.222410678863525 14.139274597167969 -2.2496156692504883
6.647972106933594 14.417539596557617 -2.249520778656006
6.356040954589844 14.54646110534668 -2.2492430210113525
4.556130409240723 15.193979263305664 -2.2475316524505615
4.249243259429932 15.280513763427734 -2.2472400665283203
3.3192381858825684 15.502739906311035 -2.246356248855591
2.692730665206909 15.619485855102539 -2.245760917663574
1.7457250356674194 15.747071266174316 -2.244860887527466
1.428643822669983 15.776864051818848 -2.2445595264434814
0.793139636516571 15.817278861999512 -2.243955612182617
0.4749694764614105 15.82789421081543 -2.2436532974243164
0.15669067203998566 15.832106590270996 -2.2433507442474365
-0.4796691834926605 15.821342468261719 -2.242745876312256
-1.4317370653152466 15.757308959960938 -2.2418413162231445
-2.3779356479644775 15.636101722717285 -2.2409427165985107
-2.691357374191284 15.5830717086792 -2.240644931793213
-3.0036962032318115 15.523770332336426 -2.2403485774993896
-3.314695358276367 15.458219528198242 -2.240053176879883
-3.6242918968200684 15.386448860168457 -2.239759683609009
-3.9322991371154785 15.308493614196777 -2.2394678592681885
-4.543278217315674 15.134156227111816 -2.238889217376709
-5.14658784866333 14.935500144958496 -2.2383179664611816
-5.741292476654053 14.712862968444824 -2.2377541065216064
-6.035110950469971 14.592668533325195 -2.2374751567840576
-6.61514139175415 14.334769248962402 -2.236924886703491
-6.901111125946045 14.19717788696289 -2.2366533279418945
-4.311224937438965 8.433659553527832 -1.3420394659042358
-4.495747089385986 8.374831199645996 -1.3467904329299927
-7.741523265838623 13.75052261352539 -2.235856056213379
-8.015437126159668 13.590546607971191 -2.235596179962158
-5.885317325592041 8.362055778503418 -1.448844313621521
-9.333515167236328 12.710590362548828 -2.2343525886535645
-9.834753036499023 12.322579383850098 -2.2338826656341553
-10.079429626464844 12.121146202087402 -2.233651876449585
-7.31171178817749 8.441676139831543 -1.5823783874511719
-10.556376457214355 11.70384693145752 -2.233201742172241
-7.954520225524902 8.470438003540039 -1.6464195251464844
-8.872173309326172 8.37350845336914 -1.72855806350708
-10.418755531311035 8.357913970947266 -1.8925296068191528
-12.586234092712402 9.68739128112793 -2.2504043579101562
-12.781538963317871 9.434728622436523 -2.2509517669677734
-13.156982421875 8.917806625366211 -2.2520735263824463
6.695528507232666 11.90121078491211 -2.2495734691619873
6.210477352142334 12.158218383789062 -2.2491116523742676
5.964205265045166 12.279319763183594 -2.2488772869110107
5.211642742156982 12.612449645996094 -2.2481610774993896
2.908961057662964 8.450300216674805 -1.4722700119018555
4.179887771606445 12.984634399414062 -2.2471792697906494
3.653785228729248 13.139225006103516 -2.2466793060302734
3.122014045715332 13.272480964660645 -2.2461740970611572
2.854264974594116 13.331048011779785 -2.245919704437256
1.612117886543274 8.345576286315918 -1.4002586603164673
1.4572631120681763 8.452991485595703 -1.413079857826233
2.0449059009552 13.47422981262207 -2.2451508045196533
1.2286498546600342 13.568294525146484 -2.244375467300415
0.6821374297142029 13.60356616973877 -2.243856191635132
-0.13895629346370697 13.615218162536621 -2.2430765628814697
-0.4125646948814392 13.60809326171875 -2.242816686630249
-1.2315564155578613 13.553789138793945 -2.2420389652252197
-1.5035864114761353 13.524734497070312 -2.2417807579040527
-2.0455174446105957 13.45028305053711 -2.2412660121917725
-3.382920980453491 13.169679641723633 -2.2399966716766357
-3.908655881881714 13.020161628723145 -2.239497661590576
-4.16912841796875 12.937545776367188 -2.2392516136169434
-4.939682483673096 12.658635139465332 -2.2385244369506836
-5.443337917327881 12.447219848632812 -2.2380495071411133
-5.691847324371338 12.333991050720215 -2.2378146648406982
-5.938028812408447 12.215813636779785 -2.237581729888916
-4.495747089385986 8.374832153320312 -1.565878987312317
-6.897280216217041 11.694629669189453 -2.2366745471954346
-5.463133335113525 8.4658203125 -1.6598321199417114
-7.587352752685547 11.254386901855469 -2.2360222339630127
-8.032069206237793 10.93826961517334 -2.2356019020080566
-8.249574661254883 10.773602485656738 -2.235393524169922
-8.46434211730957 10.605443954467773 -2.2353603839874268
-8.689826011657715 10.449956893920898 -2.238959550857544
-7.311712265014648 8.441676139831543 -1.8397889137268066
-9.349967002868652 9.956368446350098 -2.250067949295044
-10.126953125 9.179986000061035 -2.2517354488372803
-10.311453819274902 8.976309776306152 -2.2521743774414062
-10.37878131866455 8.674422264099121 -2.2283360958099365
-10.66821002960205 8.558018684387207 -2.253077983856201
-11.001052856445312 8.120453834533691 -2.252562999725342
-11.159171104431152 7.895644187927246 -2.251983404159546
5.658461570739746 10.548582077026367 -2.2499680519104004
5.44464111328125 10.658937454223633 -2.249704599380493
4.566524505615234 11.051273345947266 -2.2475578784942627
3.059828996658325 8.339948654174805 -1.669756531715393
3.662696361541748 11.378008842468262 -2.2466981410980225
2.9694042205810547 11.574681282043457 -2.2460391521453857
2.5012707710266113 11.682366371154785 -2.2455942630767822
1.612117886543274 8.345576286315918 -1.5976394414901733
2.0292859077453613 11.771110534667969 -2.245145797729492
1.3157384395599365 11.86844253540039 -2.2444679737091064
1.076790690422058 11.891289710998535 -2.244241237640381
0.8374682664871216 11.90932559967041 -2.244014024734497
0.3580285608768463 11.930938720703125 -2.243558645248413
-0.12179076671600342 11.93326473236084 -2.243103265762329
-0.25636595487594604 8.456168174743652 -1.590158224105835
-1.0794836282730103 11.880106925964355 -2.242194890975952
-1.317934513092041 11.854811668395996 -2.2419686317443848
-1.1127978563308716 8.457755088806152 -1.603426456451416
-2.264988899230957 11.705964088439941 -2.2410707473754883
-2.733130931854248 11.603161811828613 -2.2406270503997803
-2.355400323867798 8.460058212280273 -1.6506388187408447
-3.6548736095428467 11.341719627380371 -2.2397537231445312
-2.880059242248535 8.35798454284668 -1.6616270542144775
-4.330564498901367 11.09764289855957 -2.2391138076782227
-3.499727725982666 8.462180137634277 -1.7212178707122803
-3.7007932662963867 8.462552070617676 -1.7360761165618896
-4.990147590637207 10.813444137573242 -2.2384884357452393
-5.206038475036621 10.709953308105469 -2.238281011581421
-4.495747089385986 8.374832153320312 -1.7866098880767822
-6.07847785949707 10.306196212768555 -2.24897837638855
-6.286664962768555 10.185683250427246 -2.2498059272766113
-6.4908905029296875 10.058445930480957 -2.250072956085205
-6.69257116317749 9.927163124084473 -2.2503490447998047
-5.885317325592041 8.362055778503418 -1.9219874143600464
-7.472329139709473 9.362492561340332 -2.25154447555542
-8.026531219482422 8.899005889892578 -2.252532720565796
-8.205049514770508 8.73720645904541 -2.2528786659240723
-8.380332946777344 8.571864128112793 -2.253232955932617
-8.879150390625 8.04886531829834 -2.252580165863037
-9.037259101867676 7.867098331451416 -2.252108573913574
-9.770684242248535 6.913233280181885 -2.2497241497039795
4.264980316162109 9.76085090637207 -2.25161075592041
4.067551136016846 9.843732833862305 -2.2514097690582275
3.8685302734375 9.922659873962402 -2.251217842102051
2.645362377166748 10.311610221862793 -2.250251293182373
2.437415599822998 10.362104415893555 -2.250121831893921
2.2285094261169434 10.408451080322266 -2.2500014305114746
1.6121190786361694 8.345577239990234 -1.796699047088623
1.596923828125 10.522415161132812 -2.2496962547302246
1.1722412109375 10.573423385620117 -2.2487008571624756
0.7457616925239563 10.602596282958984 -2.246708869934082
0.5320507884025574 10.612028121948242 -2.245988368988037
0.08251586556434631 8.336792945861816 -1.7623156309127808
-0.10845336318016052 10.618732452392578 -2.244704008102417
-0.3217236399650574 10.613875389099121 -2.2445905208587646
-0.7481908798217773 10.59351921081543 -2.244835615158081
-0.961077868938446 10.578028678894043 -2.24519419670105
-1.5983153581619263 10.510244369506836 -2.2471985816955566
-2.0213513374328613 10.446574211120605 -2.249152421951294
-2.232015371322632 10.405966758728027 -2.2496182918548584
-2.4401965141296387 10.359554290771484 -2.2497308254241943
-2.854872465133667 10.254018783569336 -2.2499325275421143
-3.265078067779541 10.13205623626709 -2.250170946121216
-3.6701300144195557 9.993854522705078 -2.250446081161499
-4.266719341278076 9.756569862365723 -2.2509267330169678
-4.462324142456055 9.669595718383789 -2.2511045932769775
-5.2264404296875 9.283221244812012 -2.251903772354126
-5.4125213623046875 9.177186012268066 -2.252124786376953
-5.59647274017334 9.06745719909668 -2.252354621887207
-5.885321617126465 8.362053871154785 -2.1614670753479004
-6.309512138366699 8.592453002929688 -2.2533555030822754
-6.48173713684082 8.464903831481934 -2.2536256313323975
-6.815266132354736 8.19577407836914 -2.253140926361084
-6.977488040924072 8.055809020996094 -2.252774238586426
-7.136833190917969 7.912609577178955 -2.252399444580078
-7.596823692321777 7.464195251464844 -2.251229763031006
-7.743929386138916 7.308671474456787 -2.2508251667022705
-7.887827396392822 7.150232791900635 -2.250413417816162
-8.028474807739258 6.988926887512207 -2.249994993209839
-8.166291236877441 6.825263023376465 -2.2497079372406006
-8.301736831665039 6.659633636474609 -2.24967622756958
-8.433784484863281 6.491326808929443 -2.2496440410614014
-8.562522888183594 6.320450305938721 -2.249630928039551
-9.208380699157715 6.241442680358887 -2.351451873779297
4.693346977233887 8.34235668182373 -2.249630928039551
4.36334228515625 8.542089462280273 -2.254335403442383
4.015756607055664 8.70902156829834 -2.2539350986480713
3.839566469192505 8.787245750427246 -2.253746509552002
2.5679235458374023 9.234393119812012 -2.2526462078094482
2.3816540241241455 9.283629417419434 -2.252521276473999
2.1944432258605957 9.329144477844238 -2.2524046897888184
0.8640783429145813 9.542240142822266 -2.251821517944336
0.6720849275588989 9.557470321655273 -2.251771926879883
0.28737547993659973 9.576448440551758 -2.2516984939575195
-0.09777587652206421 9.58009147644043 -2.2516589164733887
-0.4827539026737213 9.56839656829834 -2.2516536712646484
-0.6749975681304932 9.556802749633789 -2.25166392326355
-1.249819278717041 9.499093055725098 -2.2517459392547607
-1.441805362701416 8.3480224609375 -1.9910237789154053
-1.8201953172683716 9.407156944274902 -2.2519044876098633
-2.384111166000366 9.281317710876465 -2.252139091491699
-2.755483388900757 9.17879867553711 -2.2523374557495117
-3.484614133834839 8.929778099060059 -2.252833127975464
-3.663640022277832 8.858499526977539 -2.2529776096343994
-4.017297267913818 8.705290794372559 -2.2532904148101807
-4.535737037658691 8.449318885803223 -2.2538187503814697
-5.357909202575684 7.947425365447998 -2.252652168273926
-5.975732326507568 7.48734712600708 -2.2514383792877197
-6.270037651062012 7.239009380340576 -2.250786781311035
-6.553957462310791 6.979031085968018 -2.2501070499420166
-6.69187593460083 6.844815731048584 -2.2497568130493164
-6.827907085418701 6.708700180053711 -2.2496864795684814
-6.961291790008545 6.570023536682129 -2.249659776687622
-7.091863632202148 6.4286956787109375 -2.2496325969696045
-7.476325035095215 6.248607158660889 -2.290006160736084
-8.09385871887207 6.229659080505371 -2.400441884994507
-8.2228364944458 6.069720268249512 -2.4020309448242188
-8.343199729919434 5.903203010559082 -2.4020309448242188
-8.460149765014648 5.734307765960693 -2.4020309448242188
4.265878677368164 7.582544803619385 -2.2526233196258545
4.112969875335693 7.66745138168335 -2.2528276443481445
3.9583470821380615 7.749231815338135 -2.253018856048584
3.6442527770996094 7.90333366394043 -2.2533769607543945
3.4849119186401367 7.975579738616943 -2.2535438537597656
3.324122190475464 8.04457950592041 -2.253702402114868
3.1619555950164795 8.11031436920166 -2.253852605819702
2.998481273651123 8.172747611999512 -2.2539942264556885
2.833760976791382 8.231856346130371 -2.2541275024414062
2.5008764266967773 8.34000015258789 -2.254368305206299
1.8227441310882568 8.513263702392578 -2.2541933059692383
1.651182770729065 8.547840118408203 -2.2541022300720215
1.478979468345642 8.578989028930664 -2.254018545150757
1.1328845024108887 8.630952835083008 -2.2538747787475586
0.9591345191001892 8.651747703552246 -2.253814220428467
0.6105871200561523 8.682930946350098 -2.253716468811035
0.4359179735183716 8.693302154541016 -2.253679037094116
0.2610815465450287 8.700199127197266 -2.2536494731903076
0.08251708745956421 8.336792945861816 -2.1586480140686035
-1.308721899986267 8.605485916137695 -2.253732919692993
-1.8251391649246216 8.511595726013184 -2.2539002895355225
-2.5029125213623047 8.33748722076416 -2.2538974285125732
-2.835618257522583 8.229033470153809 -2.253593921661377
-3.000251293182373 8.169775009155273 -2.253429889678955
-3.3256726264953613 8.041324615478516 -2.2530767917633057
-3.4863481521606445 7.972186088562012 -2.2528879642486572
-4.113921642303467 7.663550853729248 -2.25205397605896
-4.417722225189209 7.490453243255615 -2.2515907287597656
-4.566906452178955 7.3993449211120605 -2.2513480186462402
-5.002851963043213 7.1082024574279785 -2.2505757808685303
-5.144100189208984 7.005361080169678 -2.2503039836883545
-5.420158386230469 6.791234493255615 -2.2497403621673584
-5.555415630340576 6.680738925933838 -2.2496817111968994
-5.688533306121826 6.567655563354492 -2.249660015106201
-5.819316387176514 6.451914310455322 -2.2496376037597656
-5.947854042053223 6.333616256713867 -2.249630928039551
-6.1114044189453125 6.251249313354492 -2.263561248779297
-6.353788375854492 6.242854595184326 -2.3063137531280518
-6.60632848739624 6.235007286071777 -2.352006435394287
-6.869121551513672 6.226672172546387 -2.4004695415496826
-7.679403305053711 5.205102920532227 -2.4020309448242188
3.7589123249053955 7.007416248321533 -2.25113582611084
3.474741220474243 7.1539177894592285 -2.2514777183532715
3.0378711223602295 7.351837635040283 -2.25193452835083
2.8896484375 7.41185998916626 -2.2520716190338135
2.740239143371582 7.468876838684082 -2.2522010803222656
2.5896923542022705 7.52285623550415 -2.2523229122161865
1.6661242246627808 7.78175163269043 -2.252887725830078
1.5094091892242432 7.813901424407959 -2.2529540061950684
1.1941759586334229 7.868632793426514 -2.2530624866485596
0.8769652843475342 7.910549163818359 -2.253138303756714
0.7177832126617432 7.926668643951416 -2.253164052963257
0.5583129525184631 7.939558029174805 -2.2531814575195312
0.2387353479862213 7.955618858337402 -2.253192186355591
0.0787683054804802 7.958785057067871 -2.253185272216797
-0.7201879620552063 7.925961971282959 -2.253028631210327
-0.8793432712554932 7.909687519073486 -2.2529730796813965
-1.1964855194091797 7.867478847503662 -2.2528374195098877
-1.354339599609375 7.841568470001221 -2.2527577877044678
-1.8242675065994263 7.744698524475098 -2.2524707317352295
-1.9794738292694092 7.706075191497803 -2.25235915184021
-2.1338634490966797 7.6643290519714355 -2.25223970413208
-2.287365674972534 7.61945915222168 -2.252112865447998
-2.439915657043457 7.571487903594971 -2.2519781589508057
-2.7419164180755615 7.4663286209106445 -2.251685857772827
-2.891240119934082 7.409187316894531 -2.251528263092041
-3.186232805252075 7.285897254943848 -2.2511911392211914
-3.8995659351348877 6.926421165466309 -2.2502212524414062
-4.037624359130859 6.845980167388916 -2.2500061988830566
-4.174008846282959 6.76276969909668 -2.249784469604492
-4.3089094161987305 6.677187919616699 -2.2496814727783203
-4.4422125816345215 6.589183807373047 -2.249664783477783
-4.831206321716309 6.309375286102295 -2.249630928039551
-4.986860752105713 6.24876070022583 -2.263312578201294
-5.1901750564575195 6.241555690765381 -2.2980337142944336
-5.400577068328857 6.235186576843262 -2.3351943492889404
-5.808455467224121 6.185176849365234 -2.4020309448242188
-5.931603908538818 6.067168235778809 -2.4020309448242188
-6.052366256713867 5.946703910827637 -2.4020309448242188
-6.170738220214844 5.823851585388184 -2.4020309448242188
-6.618537902832031 5.3093791007995605 -2.4020309448242188
-6.826582431793213 5.039063453674316 -2.4020309448242188
3.327435255050659 6.514102458953857 -2.2498559951782227
2.9293506145477295 6.704122066497803 -2.2502965927124023
2.5203857421875 6.869640827178955 -2.2506744861602783
2.2424449920654297 6.966064453125 -2.2508909702301025
2.1020567417144775 7.010036945343018 -2.250988483428955
1.6759215593338013 7.124771595001221 -2.251237392425537
1.532412052154541 7.157237529754639 -2.25130558013916
1.388269066810608 7.186790466308594 -2.25136661529541
1.2435595989227295 7.213415145874023 -2.251420021057129
0.6601709127426147 7.290445804595947 -2.2515594959259033
0.3666113317012787 7.3111701011657715 -2.251584529876709
0.219573974609375 7.3170671463012695 -2.2515854835510254
-0.2218310534954071 7.316862106323242 -2.2515439987182617
-0.36885496973991394 7.3108344078063965 -2.2515153884887695
-0.6623864769935608 7.2898383140563965 -2.2514352798461914
-0.9548168778419495 7.2569708824157715 -2.2513253688812256
-1.2456542253494263 7.212282180786133 -2.2511861324310303
-1.3903295993804932 7.1855292320251465 -2.251105546951294
-1.534426212310791 7.155848026275635 -2.2510173320770264
-1.677886962890625 7.123256683349609 -2.250922203063965
-1.820648193359375 7.087769508361816 -2.2508199214935303
-1.9626586437225342 7.049394607543945 -2.2507100105285645
-2.2441747188568115 6.964068412780762 -2.25046968460083
-2.3835716247558594 6.917145729064941 -2.2503387928009033
-2.521977424621582 6.867415428161621 -2.2502007484436035
-2.6593358516693115 6.814896583557129 -2.250056028366089
-2.9307000637054443 6.701578140258789 -2.249746084213257
-3.0646965503692627 6.641104698181152 -2.2496752738952637
-3.197591543197632 6.578123092651367 -2.2496631145477295
-3.459329128265381 6.444206237792969 -2.2496373653411865
-3.588214635848999 6.373350620269775 -2.249630928039551
-3.8576531410217285 6.2502121925354 -2.2591137886047363
-4.204329967498779 6.236319541931152 -2.3133513927459717
-4.38556432723999 6.231147289276123 -2.3436670303344727
-4.747856140136719 6.200497150421143 -2.4020309448242188
-5.112915515899658 5.903069496154785 -2.4020309448242188
-5.2304606437683105 5.799100399017334 -2.4020309448242188
-5.67944860458374 5.360225200653076 -2.4020309448242188
-5.786043167114258 5.2449846267700195 -2.4020309448242188
-5.992192268371582 5.008175373077393 -2.4020309448242188
-6.091648578643799 4.8867106437683105 -2.4020309448242188
-6.1886491775512695 4.763276100158691 -2.4020309448242188
-6.283139705657959 4.637917995452881 -2.4020309448242188
3.1756834983825684 6.217021465301514 -2.320570945739746
3.0217955112457275 6.221380710601807 -2.299056053161621
2.8705992698669434 6.225501537322998 -2.2787907123565674
2.723261594772339 6.232466220855713 -2.2608420848846436
2.584550619125366 6.254776954650879 -2.249630928039551
2.458300828933716 6.305466175079346 -2.249630928039551
2.331059455871582 6.3536057472229 -2.249630928039551
2.202890634536743 6.399179935455322 -2.249631404876709
2.073819637298584 6.442191123962402 -2.2496395111083984
1.8132665157318115 6.520607948303223 -2.2497317790985107
1.5498119592666626 6.588648319244385 -2.249878168106079
1.2837988138198853 6.645972728729248 -2.249997615814209
0.8809570074081421 6.711644649505615 -2.2501251697540283
0.7458776831626892 6.728084564208984 -2.2501540184020996
0.6104906797409058 6.74178409576416 -2.250175952911377
0.4748559594154358 6.7527384757995605 -2.2501907348632812
0.20305053889751434 6.766393661499023 -2.250199794769287
-0.2051354944705963 6.766214370727539 -2.250161647796631
-0.47691649198532104 6.752322196960449 -2.250101327896118
-0.8829638361930847 6.710879325866699 -2.2499594688415527
-1.4189733266830444 6.617435932159424 -2.2496750354766846
-1.8151891231536865 6.519817352294922 -2.249652624130249
-1.9458837509155273 6.481990814208984 -2.249645233154297
-2.0757579803466797 6.441544532775879 -2.2496376037597656
-2.460247755050659 6.304707050323486 -2.249630928039551
-2.587578058242798 6.2559099197387695 -2.2503247261047363
-2.729403018951416 6.241981029510498 -2.264598846435547
-3.185474157333374 6.231438636779785 -2.3263185024261475
-3.6679747104644775 6.218974590301514 -2.399972677230835
-3.795356273651123 6.149261474609375 -2.4020309448242188
-4.159067153930664 5.909330368041992 -2.4020309448242188
-4.276921272277832 5.824535369873047 -2.4020309448242188
-4.393304824829102 5.737387180328369 -2.4020309448242188
-4.507628917694092 5.647921562194824 -2.4020309448242188
-4.7310357093811035 5.4621734619140625 -2.4020309448242188
-5.051643371582031 5.16710090637207 -2.4020309448242188
-5.1544928550720215 5.064507484436035 -2.4020309448242188
-5.353888034820557 4.853241920471191 -2.4020309448242188
-5.450364112854004 4.744636535644531 -2.4020309448242188
-5.544637203216553 4.634119033813477 -2.4020309448242188
-5.636668682098389 4.521726608276367 -2.4020309448242188
-5.813858985900879 4.291515350341797 -2.4020309448242188
-5.898948669433594 4.173781871795654 -2.4020309448242188
3.2934703826904297 5.854099750518799 -2.4020309448242188
3.1751294136047363 5.9191203117370605 -2.4020309448242188
2.934648275375366 6.041959285736084 -2.4020309448242188
2.8126049041748047 6.099728107452393 -2.4020309448242188
2.6894261837005615 6.155032157897949 -2.4020309448242188
2.139147996902466 6.214062213897705 -2.35017728805542
1.8651317358016968 6.219920635223389 -2.322139263153076
1.3337682485580444 6.2293596267700195 -2.2781522274017334
1.2037633657455444 6.231270790100098 -2.2695419788360596
0.6930224299430847 6.252481460571289 -2.249630928039551
0.31504881381988525 6.282892227172852 -2.249630928039551
0.06225829944014549 6.290477752685547 -2.249630928039551
-0.06420166045427322 6.2904582023620605 -2.249630928039551
-0.4432153105735779 6.275153160095215 -2.249630928039551
-0.6953319907188416 6.252267837524414 -2.249630928039551
-0.82209712266922 6.248258113861084 -2.2536799907684326
-0.9495507478713989 6.24376106262207 -2.2584874629974365
-1.2067211866378784 6.236743450164795 -2.2716705799102783
-1.3370410203933716 6.235421657562256 -2.28052020072937
-1.4684020280838013 6.233928680419922 -2.2903084754943848
-1.6008923053741455 6.232260704040527 -2.301055669784546
-2.0063867568969727 6.226170063018799 -2.33927583694458
-2.1446361541748047 6.223762035369873 -2.354095935821533
-2.2846434116363525 6.221157073974609 -2.3700053691864014
-2.426605224609375 6.218347549438477 -2.387037992477417
-2.567125082015991 6.207057952880859 -2.4020309448242188
-2.691309690475464 6.15420389175415 -2.4020309448242188
-2.936513662338257 6.041053771972656 -2.4020309448242188
-3.4122021198272705 5.785660266876221 -2.4020309448242188
-3.5277934074401855 5.715901851654053 -2.4020309448242188
-3.6420469284057617 5.643831729888916 -2.4020309448242188
-3.8659629821777344 5.492884635925293 -2.4020309448242188
-3.975594997406006 5.414064407348633 -2.4020309448242188
-4.294679641723633 5.164609909057617 -2.4020309448242188
-4.3976263999938965 5.077237606048584 -2.4020309448242188
-4.498797416687012 4.9878153800964355 -2.4020309448242188
-4.598145008087158 4.89637565612793 -2.4020309448242188
-4.79124641418457 4.7075958251953125 -2.4020309448242188
-4.976582050323486 4.5112199783325195 -2.4020309448242188
-5.06626033782959 4.4102678298950195 -2.4020309448242188
-5.15389347076416 4.30753755569458 -2.4020309448242188
-5.239439010620117 4.203065872192383 -2.4020309448242188
-5.483231067657471 3.879642963409424 -2.4020309448242188
3.0733642578125 5.462864875793457 -2.4020309448242188
2.624636173248291 5.692079544067383 -2.4020309448242188
2.5096728801727295 5.743686199188232 -2.4020309448242188
2.158952474594116 5.884504318237305 -2.4020309448242188
1.8003612756729126 6.003931045532227 -2.4020309448242188
1.6793115139007568 6.038904666900635 -2.4020309448242188
1.55758535861969 6.071441650390625 -2.4020309448242188
1.3122875690460205 6.129141807556152 -2.4020309448242188
1.1888427734375 6.154282569885254 -2.4020309448242188
1.064884066581726 6.176933288574219 -2.4020309448242188
0.8149511814117432 6.20815372467041 -2.399484157562256
0.6883556842803955 6.209449291229248 -2.394150495529175
0.5623852610588074 6.210572242736816 -2.389742136001587
0.4367956519126892 6.211524963378906 -2.3862464427948
-0.1883886605501175 6.213773250579834 -2.382324457168579
-0.9423949718475342 6.196802139282227 -2.4020309448242188
-1.0667906999588013 6.176608085632324 -2.4020309448242188
-1.3141515254974365 6.12873649597168 -2.4020309448242188
-1.5594592094421387 6.070960998535156 -2.4020309448242188
-2.042060613632202 5.926084041595459 -2.4020309448242188
-2.160771369934082 5.883837699890137 -2.4020309448242188
-2.3955066204071045 5.792236328125 -2.4020309448242188
-2.5114684104919434 5.742912292480469 -2.4020309448242188
-2.626345157623291 5.691269874572754 -2.4020309448242188
-2.8530285358428955 5.5811052322387695 -2.4020309448242188
-3.075051784515381 5.461917400360107 -2.4020309448242188
-3.6075987815856934 5.125790119171143 -2.4020309448242188
-3.709904193878174 5.0522379875183105 -2.4020309448242188
-3.9099724292755127 4.899040222167969 -2.4020309448242188
-4.007658004760742 4.819456100463867 -2.4020309448242188
-4.103731632232666 4.73792028427124 -2.4020309448242188
-4.471041679382324 4.392982482910156 -2.4020309448242188
-4.64399528503418 4.209730625152588 -2.4020309448242188
-4.72767972946167 4.115525245666504 -2.4020309448242188
-4.809455394744873 4.019662380218506 -2.4020309448242188
-4.889279842376709 3.9221720695495605 -2.4020309448242188
-5.116781711578369 3.6203625202178955 -2.4020309448242188
-5.188520431518555 3.5167815685272217 -2.4020309448242188
2.877697706222534 5.115067005157471 -2.4020309448242188
2.6697752475738525 5.226601600646973 -2.4020309448242188
2.349907159805298 5.378010272979736 -2.4020309448242188
2.241328001022339 5.424160003662109 -2.4020309448242188
2.131845712661743 5.468117713928223 -2.4020309448242188
2.021501302719116 5.509864330291748 -2.4020309448242188
1.9103368520736694 5.549384593963623 -2.4020309448242188
1.7984020709991455 5.586663722991943 -2.4020309448242188
1.6857409477233887 5.621685028076172 -2.4020309448242188
1.2287756204605103 5.738925457000732 -2.4020309448242188
0.9971374273300171 5.78367280960083 -2.4020309448242188
0.5292882919311523 5.8450751304626465 -2.4020309448242188
0.41169431805610657 5.854532718658447 -2.4020309448242188
-0.1778540015220642 5.8662943840026855 -2.4020309448242188
-0.29573118686676025 5.86153507232666 -2.4020309448242188
-0.41349729895591736 5.854405879974365 -2.4020309448242188
-0.7655969262123108 5.818840980529785 -2.4020309448242188
-0.9987768530845642 5.783366680145264 -2.4020309448242188
-1.687475562095642 5.621164321899414 -2.4020309448242188
-1.8001269102096558 5.586108207702637 -2.4020309448242188
-2.023203134536743 5.509239196777344 -2.4020309448242188
-2.133532762527466 5.467459201812744 -2.4020309448242188
-2.2430052757263184 5.423468112945557 -2.4020309448242188
-2.459475040435791 5.328929424285889 -2.4020309448242188
-2.8792741298675537 5.114179611206055 -2.4020309448242188
-2.9814982414245605 5.055267810821533 -2.4020309448242188
-3.0825114250183105 4.994316101074219 -2.4020309448242188
-3.182277202606201 4.931344509124756 -2.4020309448242188
-3.280756711959839 4.866382122039795 -2.4020309448242188
-3.3779191970825195 4.7994513511657715 -2.4020309448242188
-3.661041259765625 4.587138652801514 -2.4020309448242188
-3.752511501312256 4.512619495391846 -2.4020309448242188
-3.8424601554870605 4.436277866363525 -2.4020309448242188
-3.930853843688965 4.358142375946045 -2.4020309448242188
-4.1028547286987305 4.196624755859375 -2.4020309448242188
-4.186380386352539 4.113300800323486 -2.4020309448242188
-4.268221378326416 4.028319835662842 -2.4020309448242188
-4.348329544067383 3.941713809967041 -2.4020309448242188
-4.426686763763428 3.853506326675415 -2.4020309448242188
-4.65089225769043 3.579702138900757 -2.4020309448242188
-4.721909046173096 3.485490560531616 -2.4020309448242188
-4.791018962860107 3.389869213104248 -2.4020309448242188
2.605336904525757 4.856904029846191 -2.4020309448242188
2.5071825981140137 4.9082932472229 -2.4020309448242188
2.408012628555298 4.957698822021484 -2.4020309448242188
2.307871103286743 5.005102634429932 -2.4020309448242188
1.8983935117721558 5.174304008483887 -2.4020309448242188
1.7939953804016113 5.211419105529785 -2.4020309448242188
1.6888768672943115 5.246427059173584 -2.4020309448242188
1.369600772857666 5.338679790496826 -2.4020309448242188
0.93635493516922 5.4314398765563965 -2.4020309448242188
0.71728515625 5.464687824249268 -2.4020309448242188
0.49705320596694946 5.489101886749268 -2.4020309448242188
0.3866210877895355 5.497984409332275 -2.4020309448242188
-0.05624999850988388 5.511274814605713 -2.4020309448242188
-0.1670190393924713 5.509029865264893 -2.4020309448242188
-0.4987500011920929 5.488948345184326 -2.4020309448242188
-0.6089843511581421 5.477813720703125 -2.4020309448242188
