ply
format ascii 1.0
element vertex 279
property float x
property float y
property float z
end_header
-39.07130432128906 -25.542308807373047 5.012523651123047
-41.4776496887207 -20.414379119873047 -0.2602795362472534
-43.19491195678711 -20.1824893951416 -1.3424928188323975
-39.59897232055664 -20.497108459472656 -1.2555359601974487
-39.59682846069336 -21.524648666381836 -1.2690434455871582
-39.60268783569336 -23.65592384338379 -1.2988760471343994
-39.66557693481445 -24.79795265197754 -1.3171985149383545
-28.401023864746094 -20.25596809387207 -0.9822669625282288
-27.226036071777344 -20.262908935546875 -0.9556406736373901
-26.13072395324707 -20.283519744873047 -0.9314368963241577
-26.019609451293945 -21.056163787841797 -0.9424995183944702
-35.96186828613281 -31.597902297973633 -1.3479604721069336
-34.54813766479492 -31.619388580322266 -1.3187205791473389
-41.11094665527344 -14.345958709716797 -2.2082066535949707
-40.8133544921875 -15.176898002624512 -2.2082955837249756
-31.56832504272461 -12.473078727722168 -1.7214016914367676
-40.16891860961914 -16.820404052734375 -2.2085280418395996
-39.82230758666992 -17.632291793823242 -2.2086715698242188
-39.459617614746094 -18.437198638916016 -2.2088329792022705
-25.289031982421875 -12.446707725524902 -1.429437279701233
-38.30889892578125 -19.829322814941406 -2.1876437664031982
-38.27640151977539 -20.806865692138672 -2.2094249725341797
-37.85077667236328 -21.580726623535156 -2.209657907485962
-37.40903091430664 -22.34559440612793 -2.2098631858825684
-36.95156478881836 -23.101215362548828 -2.2100508213043213
-36.47910690307617 -23.847692489624023 -2.210256576538086
-35.99248123168945 -24.5850830078125 -2.2105166912078857
-28.018617630004883 -19.983226776123047 -1.7453150749206543
-24.786733627319336 -20.058469772338867 -1.6170803308486938
-31.61978530883789 -30.139528274536133 -2.2153499126434326
-28.96915054321289 -10.108990669250488 -2.2496907711029053
-28.759666442871094 -10.694619178771973 -2.249802589416504
-28.313636779785156 -11.85610580444336 -2.250678539276123
-27.1962890625 -13.38541316986084 -2.2225286960601807
-26.92105484008789 -13.93479061126709 -2.2226669788360596
-26.63488006591797 -14.478590965270996 -2.2228176593780518
-26.337860107421875 -15.016602516174316 -2.2229809761047363
-25.7117862701416 -16.07438087463379 -2.223344326019287
-25.382963180541992 -16.593746185302734 -2.2235443592071533
-25.04378890991211 -17.106456756591797 -2.2237565517425537
-24.69440460205078 -17.612356185913086 -2.2239809036254883
-24.33489227294922 -18.111196517944336 -2.224217176437378
-23.585712432861328 -19.0865478515625 -2.2246739864349365
-23.196264266967773 -19.562623977661133 -2.2248926162719727
-21.97164535522461 -20.943065643310547 -2.2256202697753906
-23.62288475036621 -8.243376731872559 -2.4020309448242188
-23.269338607788086 -9.194043159484863 -2.4020309448242188
-21.229570388793945 -9.919353485107422 -2.249650716781616
-21.024974822998047 -10.348002433776855 -2.249732732772827
-20.812101364135742 -10.772701263427734 -2.249868631362915
-20.599428176879883 -11.197750091552734 -2.2509543895721436
-20.37795066833496 -11.618553161621094 -2.2520298957824707
-20.08917808532715 -12.000030517578125 -2.2465665340423584
-18.64251708984375 -13.87464427947998 -2.2310574054718018
-18.068037033081055 -14.6214017868042 -2.23144793510437
-14.135847091674805 -12.420463562011719 -1.8065537214279175
-18.95348358154297 -7.048062801361084 -2.4020309448242188
-18.806726455688477 -7.430800437927246 -2.4020309448242188
-18.49009895324707 -8.186945915222168 -2.4020309448242188
-17.958110809326172 -9.295549392700195 -2.4020309448242188
-16.924211502075195 -9.649383544921875 -2.3141591548919678
-16.25878143310547 -9.711874008178711 -2.249630928039551
-16.058866500854492 -10.0396146774292 -2.249671459197998
-14.97936725616455 -11.62747573852539 -2.2524876594543457
-13.887012481689453 -12.709766387939453 -2.236165761947632
-13.02917194366455 -12.419225692749023 -2.138134717941284
-16.00624656677246 -5.5854949951171875 -2.4020309448242188
-15.358952522277832 -7.176351070404053 -2.4020309448242188
-15.210335731506348 -7.486194133758545 -2.4020309448242188
-14.553373336791992 -8.693570137023926 -2.4020309448242188
-14.189682006835938 -9.276310920715332 -2.4020309448242188
-13.998760223388672 -9.562015533447266 -2.4020309448242188
-13.530497550964355 -9.65012264251709 -2.354769706726074
-12.983386993408203 -9.662860870361328 -2.2931768894195557
-12.542061805725098 -9.735583305358887 -2.249630928039551
-12.342316627502441 -9.987937927246094 -2.249659776687622
-12.13759994506836 -10.23627758026123 -2.2497072219848633
-11.928361892700195 -10.480875015258789 -2.2498512268066406
-13.76668930053711 -4.803987503051758 -2.4020309448242188
-13.44927978515625 -5.631775856018066 -2.4020309448242188
-13.33236312866211 -5.903231143951416 -2.4020309448242188
-13.209969520568848 -6.172255516052246 -2.4020309448242188
-12.948948860168457 -6.702596664428711 -2.4020309448242188
-12.810429573059082 -6.963686943054199 -2.4020309448242188
-12.20431137084961 -7.978394031524658 -2.4020309448242188
-11.870915412902832 -8.466490745544434 -2.4020309448242188
-11.518045425415039 -8.940658569335938 -2.4020309448242188
-11.334555625915527 -9.17228889465332 -2.4020309448242188
-11.14623737335205 -9.400152206420898 -2.4020309448242188
-10.953340530395508 -9.624154090881348 -2.4020309448242188
-12.065888404846191 -4.210479259490967 -2.4020309448242188
-11.978068351745605 -4.454177379608154 -2.4020309448242188
-11.885313034057617 -4.696053981781006 -2.4020309448242188
-11.685212135314941 -5.173916339874268 -2.4020309448242188
-11.577947616577148 -5.409703731536865 -2.4020309448242188
-11.465917587280273 -5.643270969390869 -2.4020309448242188
-11.349201202392578 -5.874527931213379 -2.4020309448242188
-11.227700233459473 -6.10335636138916 -2.4020309448242188
-10.971166610717773 -6.553421497344971 -2.4020309448242188
-10.404318809509277 -7.420497417449951 -2.4020309448242188
-10.095015525817871 -7.836082458496094 -2.4020309448242188
-9.934113502502441 -8.039102554321289 -2.4020309448242188
-9.769119262695312 -8.238810539245605 -2.4020309448242188
-9.600107192993164 -8.435136795043945 -2.4020309448242188
-9.427165031433105 -8.627996444702148 -2.4020309448242188
-9.250252723693848 -8.81729507446289 -2.4020309448242188
-10.650996208190918 -3.960691213607788 -2.4020309448242188
-10.091778755187988 -5.223677635192871 -2.4020309448242188
-9.635529518127441 -6.023899555206299 -2.4020309448242188
-9.511449813842773 -6.217972278594971 -2.4020309448242188
-9.383460998535156 -6.40948486328125 -2.4020309448242188
-8.686784744262695 -7.326019763946533 -2.4020309448242188
-8.5364990234375 -7.500596523284912 -2.4020309448242188
-9.649754524230957 -3.3673510551452637 -2.4020309448242188
-9.345315933227539 -4.13786506652832 -2.4020309448242188
-9.259526252746582 -4.32643985748291 -2.4020309448242188
-8.878676414489746 -5.062202453613281 -2.4020309448242188
-8.320923805236816 -5.934579372406006 -2.4020309448242188
-8.073542594909668 -6.26694917678833 -2.4020309448242188
-7.812896728515625 -6.589028835296631 -2.4020309448242188
-7.67772912979126 -6.746044158935547 -2.4020309448242188
-7.539419174194336 -6.90028190612793 -2.4020309448242188
-8.759207725524902 -3.056588649749756 -2.4020309448242188
-8.628119468688965 -3.409090518951416 -2.4020309448242188
-8.557252883911133 -3.5832772254943848 -2.4020309448242188
-8.238901138305664 -4.264596939086914 -2.4020309448242188
-7.765122413635254 -5.0763373374938965 -2.4020309448242188
-7.552999496459961 -5.386895656585693 -2.4020309448242188
-7.328464984893799 -5.688591957092285 -2.4020309448242188
-7.211574554443359 -5.83596134185791 -2.4020309448242188
-6.969179630279541 -6.123467445373535 -2.4020309448242188
-6.84363317489624 -6.2634735107421875 -2.4020309448242188
-7.95289421081543 -2.957371473312378 -2.4020309448242188
-7.758458137512207 -3.4352476596832275 -2.4020309448242188
-7.687232971191406 -3.591799736022949 -2.4020309448242188
-7.612849712371826 -3.746877670288086 -2.4020309448242188
-7.45472526550293 -4.052353858947754 -2.4020309448242188
-7.3710551261901855 -4.2026286125183105 -2.4020309448242188
-7.2843523025512695 -4.3511738777160645 -2.4020309448242188
-7.19466495513916 -4.497929573059082 -2.4020309448242188
-7.0064520835876465 -4.785836219787598 -2.4020309448242188
-6.8067169189453125 -5.065881729125977 -2.4020309448242188
-6.70263147354126 -5.2028021812438965 -2.4020309448242188
-6.59578800201416 -5.337594032287598 -2.4020309448242188
-6.374033451080322 -5.600551128387451 -2.4020309448242188
-6.259216785430908 -5.728598117828369 -2.4020309448242188
-6.141820430755615 -5.854290008544922 -2.4020309448242188
-7.373447895050049 -2.5730180740356445 -2.4020309448242188
-7.203444480895996 -3.016380786895752 -2.4020309448242188
-7.140820026397705 -3.161773920059204 -2.4020309448242188
-7.075268268585205 -3.305863618850708 -2.4020309448242188
-6.935463905334473 -3.5899126529693604 -2.4020309448242188
-6.861277103424072 -3.7297558784484863 -2.4020309448242188
-6.7842631340026855 -3.8680663108825684 -2.4020309448242188
-6.536642074584961 -4.273233413696289 -2.4020309448242188
-6.448676586151123 -4.404847145080566 -2.4020309448242188
-6.358066082000732 -4.53465461730957 -2.4020309448242188
-6.070723056793213 -4.912685871124268 -2.4020309448242188
-5.969895362854004 -5.034726619720459 -2.4020309448242188
-5.866621017456055 -5.154702186584473 -2.4020309448242188
-5.760928153991699 -5.272556781768799 -2.4020309448242188
-6.546821594238281 -3.0589511394500732 -2.4020309448242188
-6.048416614532471 -3.9540677070617676 -2.4020309448242188
-5.967030048370361 -4.075850009918213 -2.4020309448242188
-5.796930313110352 -4.314352512359619 -2.4020309448242188
-5.617307662963867 -4.545760631561279 -2.4020309448242188
-5.524012565612793 -4.658686637878418 -2.4020309448242188
-5.330648899078369 -4.878752708435059 -2.4020309448242188
-5.230669021606445 -4.9857964515686035 -2.4020309448242188
-6.2957658767700195 -2.34114670753479 -2.4020309448242188
-6.247002601623535 -2.468278408050537 -2.4020309448242188
-6.141831398010254 -2.719444513320923 -2.4020309448242188
-6.026569843292236 -2.9661431312561035 -2.4020309448242188
-5.965203285217285 -3.0876901149749756 -2.4020309448242188
-5.90139102935791 -3.2079668045043945 -2.4020309448242188
-5.835155010223389 -3.3269288539886475 -2.4020309448242188
-5.766519546508789 -3.444523572921753 -2.4020309448242188
-5.622170448303223 -3.67541241645813 -2.4020309448242188
-5.546517372131348 -3.7886130809783936 -2.4020309448242188
-5.468588829040527 -3.900264263153076 -2.4020309448242188
-5.38840389251709 -4.010305881500244 -2.4020309448242188
-5.306011199951172 -4.11870002746582 -2.4020309448242188
-5.221433639526367 -4.225405693054199 -2.4020309448242188
-5.1347198486328125 -4.330377101898193 -2.4020309448242188
-4.95496940612793 -4.534928321838379 -2.4020309448242188
-5.918076515197754 -2.0651559829711914 -2.4020309448242188
-5.678752422332764 -2.653352975845337 -2.4020309448242188
-5.566542625427246 -2.8813371658325195 -2.4020309448242188
-5.506997585296631 -2.9935760498046875 -2.4020309448242188
-5.445184707641602 -3.1045894622802734 -2.4020309448242188
-5.381134510040283 -3.214322328567505 -2.4020309448242188
-5.246437072753906 -3.429781913757324 -2.4020309448242188
-5.103111267089844 -3.639604091644287 -2.4020309448242188
-5.028289794921875 -3.7422938346862793 -2.4020309448242188
-4.791558742523193 -4.04097318649292 -2.4020309448242188
-4.7086639404296875 -4.137267589569092 -2.4020309448242188
-4.623838901519775 -4.231860637664795 -2.4020309448242188
-5.5413079261779785 -1.9336755275726318 -2.4020309448242188
-5.3172101974487305 -2.484424114227295 -2.4020309448242188
-5.265758991241455 -2.591689348220825 -2.4020309448242188
-5.098513126373291 -2.9069314002990723 -2.4020309448242188
-5.038541316986084 -3.009678840637207 -2.4020309448242188
-4.976502418518066 -3.1111881732940674 -2.4020309448242188
-4.7782206535339355 -3.4078872203826904 -2.4020309448242188
-4.636172771453857 -3.598747491836548 -2.4020309448242188
-4.40887975692749 -3.8738644123077393 -2.4020309448242188
-4.2483320236206055 -4.049394130706787 -2.4020309448242188
-5.203826904296875 -1.8159127235412598 -2.4020309448242188
-5.165966033935547 -1.9210152626037598 -2.4020309448242188
-5.125953197479248 -2.0253331661224365 -2.4020309448242188
-5.039648532867432 -2.2314279079437256 -2.4020309448242188
-4.993382930755615 -2.3331189155578613 -2.4020309448242188
-4.945061683654785 -2.4338526725769043 -2.4020309448242188
-4.842353820800781 -2.632281541824341 -2.4020309448242188
-4.788002967834473 -2.7298946380615234 -2.4020309448242188
-4.731687545776367 -2.826385498046875 -2.4020309448242188
-4.4214277267456055 -3.2906363010406494 -2.4020309448242188
-4.353823661804199 -3.3795785903930664 -2.4020309448242188
-4.065790176391602 -3.721116781234741 -2.4020309448242188
-4.899521350860596 -1.7097234725952148 -2.4020309448242188
-4.863861083984375 -1.8086800575256348 -2.4020309448242188
-4.786567687988281 -2.004331588745117 -2.4020309448242188
-4.744946002960205 -2.1009411811828613 -2.4020309448242188
-4.7013840675354 -2.196685552597046 -2.4020309448242188
-4.655895709991455 -2.291529417037964 -2.4020309448242188
-4.608493328094482 -2.385432481765747 -2.4020309448242188
-4.5080180168151855 -2.5702595710754395 -2.4020309448242188
-4.285031795501709 -2.9269397258758545 -2.4020309448242188
-4.162879467010498 -3.0982120037078857 -2.4020309448242188
-4.033884048461914 -3.2643883228302 -2.4020309448242188
-3.898258686065674 -3.4252049922943115 -2.4020309448242188
-4.6234588623046875 -1.613389253616333 -2.4020309448242188
-4.5542097091674805 -1.7994531393051147 -2.4020309448242188
-4.516824722290039 -1.8913969993591309 -2.4020309448242188
-4.477593421936035 -1.9825636148452759 -2.4020309448242188
-4.348822593688965 -2.2510251998901367 -2.4020309448242188
-4.302302837371826 -2.3387107849121094 -2.4020309448242188
-4.2540202140808105 -2.4254374504089355 -2.4020309448242188
-4.098743915557861 -2.6794939041137695 -2.4020309448242188
-3.806594133377075 -3.080456495285034 -2.4020309448242188
-4.27089262008667 -1.788379430770874 -2.4020309448242188
-3.9750077724456787 -2.3743934631347656 -2.4020309448242188
-3.9260716438293457 -2.4544758796691895 -2.4020309448242188
-3.875502824783325 -2.5335521697998047 -2.4020309448242188
-3.823350191116333 -2.6115851402282715 -2.4020309448242188
-3.7696282863616943 -2.6885464191436768 -2.4020309448242188
-3.714362144470215 -2.7644026279449463 -2.4020309448242188
-3.6575658321380615 -2.839121103286743 -2.4020309448242188
-3.5992631912231445 -2.9126765727996826 -2.4020309448242188
-3.4782543182373047 -3.0561656951904297 -2.4020309448242188
-3.4155900478363037 -3.126039981842041 -2.4020309448242188
-3.351527690887451 -3.194628953933716 -2.4020309448242188
-4.110631465911865 -1.5285837650299072 -2.4020309448242188
-4.07880163192749 -1.6115914583206177 -2.4020309448242188
-4.010134220123291 -1.77558434009552 -2.4020309448242188
-3.973318338394165 -1.856500506401062 -2.4020309448242188
-3.934878349304199 -1.93665611743927 -2.4020309448242188
-3.8531439304351807 -2.094550132751465 -2.4020309448242188
-3.621458053588867 -2.473665714263916 -2.4020309448242188
-3.5182065963745117 -2.6184141635894775 -2.4020309448242188
-3.3525683879852295 -2.8273937702178955 -2.4020309448242188
-3.294567108154297 -2.8947694301605225 -2.4020309448242188
-3.235217809677124 -2.960953950881958 -2.4020309448242188
-3.9281437397003174 -1.3707540035247803 -2.4020309448242188
-3.899553060531616 -1.450092077255249 -2.4020309448242188
-3.8693559169769287 -1.5288364887237549 -2.4020309448242188
-3.8042125701904297 -1.684409499168396 -2.4020309448242188
-3.769301652908325 -1.7611713409423828 -2.4020309448242188
-3.6948394775390625 -1.9124975204467773 -2.4020309448242188
-3.655294179916382 -1.9869956970214844 -2.4020309448242188
-3.571749210357666 -2.133517026901245 -2.4020309448242188
-3.5277698040008545 -2.205474853515625 -2.4020309448242188
-3.482337474822998 -2.2765283584594727 -2.4020309448242188
-3.435480833053589 -2.3466451168060303 -2.4020309448242188
-3.387211799621582 -2.415801525115967 -2.4020309448242188
-3.337543249130249 -2.483962059020996 -2.4020309448242188
-3.234125852584839 -2.617191791534424 -2.4020309448242188
-3.1804161071777344 -2.6822099685668945 -2.4020309448242188
-3.06908917427063 -2.808911085128784 -2.4020309448242188
