ply
format ascii 1.0
element vertex 434
property float x
property float y
property float z
end_header
-17.24673080444336 16.263696670532227 4.179943084716797
-17.246728897094727 15.002886772155762 4.030666351318359
-17.271434783935547 13.846977233886719 3.903326988220215
-17.52315902709961 13.480130195617676 3.8982794284820557
-17.968433380126953 13.257308959960938 3.937345504760742
-18.663328170776367 13.199931144714355 4.0307488441467285
-19.481143951416016 13.199929237365723 4.149316787719727
-20.348913192749023 13.19992733001709 4.276849746704102
-29.742231369018555 14.552069664001465 5.838425636291504
-29.74220085144043 13.819341659545898 5.782804012298584
-30.113449096679688 13.26370906829834 5.802055358886719
-31.677108764648438 13.19991397857666 6.051064968109131
-33.55854415893555 13.199908256530762 6.35856819152832
-35.7171745300293 13.227619171142578 6.715921401977539
-17.24673080444336 15.621844291687012 3.564829111099243
-10.486689567565918 8.75890827178955 2.0930867195129395
-17.27143669128418 13.846976280212402 3.391245126724243
-17.52315902709961 13.480131149291992 3.386861562728882
-17.96843147277832 13.257311820983887 3.420802593231201
-18.663328170776367 13.199931144714355 3.5019524097442627
-19.481142044067383 13.199929237365723 3.6049633026123047
-20.348915100097656 13.19992733001709 3.7157647609710693
-24.442230224609375 13.199918746948242 4.255552291870117
-27.2332706451416 13.324503898620605 4.644580364227295
-29.74220085144043 13.819345474243164 5.024155616760254
-31.828107833862305 13.262824058532715 5.282277584075928
-33.71601104736328 13.261847496032715 5.550303936004639
-35.807952880859375 13.261236190795898 5.849678039550781
-17.307096481323242 17.685482025146484 3.222304105758667
-17.31010627746582 15.058016777038574 2.9876623153686523
-10.486106872558594 8.758424758911133 1.7791285514831543
-18.025224685668945 13.299200057983398 2.916996955871582
-18.75052261352539 13.261603355407715 2.9906933307647705
-21.37364387512207 13.262944221496582 3.275611400604248
-24.668901443481445 13.322331428527832 3.650920867919922
-26.79991912841797 13.785808563232422 3.9245641231536865
-28.409086227416992 13.19992733001709 4.079289436340332
-29.968603134155273 13.199921607971191 4.264321327209473
-17.30709457397461 17.68549346923828 2.657155752182007
-17.30939483642578 15.678606986999512 2.5078492164611816
-17.31010627746582 15.058013916015625 2.4636638164520264
-17.317312240600586 13.88375473022461 2.383406400680542
-18.750526428222656 13.261603355407715 2.4661645889282227
-19.572782516479492 13.26202392578125 2.5387895107269287
-20.445329666137695 13.262469291687012 2.616910457611084
-21.37364387512207 13.262944221496582 2.7011120319366455
-22.364105224609375 13.263449668884277 2.792073965072632
-28.28731918334961 14.550925254821777 3.4158568382263184
-29.74220085144043 13.819342613220215 3.5216851234436035
-29.968605041503906 13.199921607971191 3.516414165496826
-35.71717834472656 13.227619171142578 4.089942932128906
-17.24673080444336 16.263708114624023 2.006749153137207
-17.246728897094727 15.621843338012695 1.9698679447174072
-17.246728897094727 15.002885818481445 1.9350812435150146
-10.484842300415039 8.757369041442871 1.1563524007797241
-17.27143669128418 13.846973419189453 1.8739478588104248
-17.52315902709961 13.480131149291992 1.8715254068374634
-17.96843147277832 13.25731086730957 1.890280842781067
-19.48114585876465 13.199929237365723 1.9920454025268555
-20.34891700744629 13.19992733001709 2.0532724857330322
-21.2720947265625 13.199925422668457 2.119263172149658
-22.25699234008789 13.19992446899414 2.1905479431152344
-23.31087875366211 13.199921607971191 2.2677383422851562
-29.74220085144043 13.819342613220215 2.7762718200683594
-30.11342430114746 13.263710975646973 2.7855076789855957
-31.828081130981445 13.262824058532715 2.918900728225708
-35.807945251464844 13.261235237121582 3.232438802719116
-17.246734619140625 17.623804092407227 1.5290898084640503
-17.246732711791992 16.930341720581055 1.4986573457717896
-17.24673080444336 16.26370620727539 1.4699946641921997
-17.246728897094727 15.621845245361328 1.4429783821105957
-17.246728897094727 15.002883911132812 1.4174964427947998
-18.663328170776367 13.199931144714355 1.4175267219543457
-20.348915100097656 13.19992733001709 1.5040748119354248
-21.272090911865234 13.199925422668457 1.5524134635925293
-22.256994247436523 13.19992446899414 1.604631781578064
-23.310880661010742 13.199921607971191 1.6611762046813965
-24.442228317260742 13.199918746948242 1.7225699424743652
-26.79991912841797 13.785810470581055 1.8688523769378662
-27.2332706451416 13.324503898620605 1.880035161972046
-28.409080505371094 13.19992733001709 1.9425315856933594
-29.96860694885254 13.199921607971191 2.030642509460449
-17.837156295776367 18.227130889892578 1.0056006908416748
-17.837156295776367 17.509925842285156 0.9855872988700867
-17.837154388427734 16.820476531982422 0.966736912727356
-18.61669921875 16.19462776184082 0.9729530215263367
-10.482513427734375 8.755419731140137 0.5384480357170105
-20.319427490234375 14.991899490356445 0.995690107345581
-22.815698623657227 14.800079345703125 1.0723475217819214
-25.02641487121582 14.842374801635742 1.147311806678772
-25.682411193847656 13.869673728942871 1.1509214639663696
-26.79991912841797 13.785810470581055 1.1883625984191895
-28.409086227416992 13.19992733001709 1.2352133989334106
-29.96860122680664 13.199921607971191 1.2912412881851196
-31.6771183013916 13.19991397857666 1.3531665802001953
-33.55854415893555 13.199907302856445 1.4219303131103516
-35.7171745300293 13.227620124816895 1.5018454790115356
-17.837158203125 18.227136611938477 0.4307868778705597
-17.837156295776367 17.50993537902832 0.4222135841846466
-17.837156295776367 16.820476531982422 0.41413864493370056
-18.852434158325195 16.399682998657227 0.42208021879196167
-19.691503524780273 15.787209510803223 0.4263255298137665
-20.11774444580078 15.47607707977295 0.4287422001361847
-20.319425582885742 14.991899490356445 0.42654159665107727
-20.884628295898438 14.770983695983887 0.4320976138114929
-22.484975814819336 15.235251426696777 0.45878705382347107
-23.518972396850586 15.2562837600708 0.47354140877723694
-24.622142791748047 15.27872371673584 0.4894792139530182
-25.802656173706055 15.30273723602295 0.5067393183708191
-26.175127029418945 14.821823120117188 0.5081101655960083
-28.294315338134766 15.280226707458496 0.5431840419769287
-29.651418685913086 15.25261402130127 0.5632466077804565
-36.79613494873047 16.207149505615234 0.6791725158691406
-38.038841247558594 14.962181091308594 0.6904621720314026
-17.837156295776367 18.22713279724121 -0.14358611404895782
-18.201507568359375 16.486669540405273 -0.1382676661014557
-10.48019027709961 8.753484725952148 -0.07690902799367905
-19.691503524780273 15.78720760345459 -0.14209884405136108
-20.11774253845215 15.47607707977295 -0.14290420711040497
-20.884634017944336 14.770983695983887 -0.14402054250240326
-22.4849796295166 15.235251426696777 -0.15291915833950043
-24.62213897705078 15.27872371673584 -0.16314849257469177
-25.802658081054688 15.30273723602295 -0.16890151798725128
-26.17513084411621 14.821821212768555 -0.16935744881629944
-29.65141487121582 15.25261402130127 -0.18773514032363892
-38.03883361816406 14.96218204498291 -0.2301379293203354
-41.19460678100586 15.256145477294922 -0.24732817709445953
-17.837156295776367 17.509923934936523 -0.7038096189498901
-17.837154388427734 16.820472717285156 -0.6903495788574219
-19.69150161743164 15.787206649780273 -0.7106648087501526
-20.117740631103516 15.476076126098633 -0.7146926522254944
-22.4849796295166 15.235251426696777 -0.7647756934165955
-28.294313430786133 15.280227661132812 -0.9054604768753052
-29.65142059326172 15.25261402130127 -0.9389042258262634
-36.79612350463867 16.207155227661133 -1.1321476697921753
-37.558467864990234 15.65068244934082 -1.1457070112228394
-38.03883743286133 14.962181091308594 -1.1509668827056885
-41.194602966308594 15.256147384643555 -1.2369416952133179
-17.837156295776367 18.22713279724121 -1.293355941772461
-17.837156295776367 16.820478439331055 -1.2433717250823975
-18.201507568359375 16.486669540405273 -1.2454514503479004
-18.852434158325195 16.399682998657227 -1.2672094106674194
-10.47787094116211 8.751541137695312 -0.6923409700393677
-19.69150161743164 15.787205696105957 -1.2799590826034546
-20.117740631103516 15.476075172424316 -1.2872159481048584
-20.88463020324707 14.770983695983887 -1.297284483909607
-22.4849796295166 15.235251426696777 -1.3774213790893555
-23.51898193359375 15.2562837600708 -1.421715497970581
-25.80265998840332 15.30273723602295 -1.521386981010437
-26.17513084411621 14.821821212768555 -1.5254998207092285
-28.294321060180664 15.280226707458496 -1.630804419517517
-31.790306091308594 14.770971298217773 -1.7777538299560547
-36.796119689941406 16.207157135009766 -2.0390820503234863
-38.03883743286133 14.962181091308594 -2.07297945022583
-17.837156295776367 17.50992774963379 -1.8327044248580933
-17.837154388427734 16.820478439331055 -1.7976531982421875
-18.201507568359375 16.486671447753906 -1.8006600141525269
-10.476707458496094 8.750571250915527 -1.0008436441421509
-19.691499710083008 15.78720760345459 -1.8505518436431885
-20.11773109436035 15.476078987121582 -1.8610427379608154
-20.319433212280273 14.991890907287598 -1.851491093635559
-23.197914123535156 15.048019409179688 -2.0274417400360107
-23.8837890625 14.820554733276367 -2.0609707832336426
-25.02528953552246 14.841705322265625 -2.133336067199707
-26.325361251831055 14.906851768493652 -2.2182040214538574
-27.164936065673828 13.291069030761719 -2.2174174785614014
-27.906879425048828 11.628849029541016 -2.21673583984375
-21.598962783813477 8.495732307434082 -1.7017885446548462
-28.344932556152344 10.497476577758789 -2.216282367706299
-16.229936599731445 16.584749221801758 -2.2277798652648926
-16.557268142700195 16.253448486328125 -2.2274696826934814
-17.498268127441406 15.221653938293457 -2.2265846729278564
-18.090410232543945 14.503572463989258 -2.2260262966156006
-18.375593185424805 14.135895729064941 -2.2257561683654785
-11.856745719909668 8.385876655578613 -1.3942407369613647
-13.667433738708496 8.481027603149414 -1.5442386865615845
-14.838339805603027 8.402301788330078 -1.63709557056427
-16.33920669555664 8.404850959777832 -1.7640173435211182
-21.216455459594727 9.857922554016113 -2.2460081577301025
-19.312341690063477 8.506285667419434 -2.0259509086608887
-21.64436149597168 9.019248008728027 -2.251157283782959
-21.830181121826172 8.586676597595215 -2.2521066665649414
-13.134722709655762 13.421890258789062 -2.2307348251342773
-8.877395629882812 8.371413230895996 -1.449424386024475
-14.162639617919922 12.32005786895752 -2.2297744750976562
-11.01830768585205 8.476117134094238 -1.6512845754623413
-11.489364624023438 8.476990699768066 -1.6960400342941284
-11.856745719909668 8.385876655578613 -1.7250771522521973
-15.534550666809082 10.525495529174805 -2.2289180755615234
-16.08059310913086 9.978841781616211 -2.248103141784668
-14.838339805603027 8.402301788330078 -2.0255558490753174
-16.678300857543945 9.007046699523926 -2.2515883445739746
-16.33920669555664 8.404850006103516 -2.1826045513153076
-17.190555572509766 7.987381458282471 -2.2516539096832275
-17.48330307006836 7.285325527191162 -2.2498621940612793
-8.289809226989746 8.471059799194336 -1.6793608665466309
-11.915392875671387 10.365448951721191 -2.237734317779541
-10.42283821105957 8.356276512145996 -1.8928264379501343
-14.121844291687012 7.2642388343811035 -2.2501213550567627
-14.399124145507812 6.69038200378418 -2.2496793270111084
-15.031810760498047 6.2637810707092285 -2.307363748550415
-15.776254653930664 6.20542573928833 -2.4020309448242188
-15.897754669189453 5.887574195861816 -2.4020309448242188
-9.5546875 9.763580322265625 -2.250481128692627
-10.130552291870117 9.176107406616211 -2.251743793487549
-10.314663887023926 8.972701072692871 -2.2521822452545166
-10.840436935424805 8.339279174804688 -2.2531280517578125
-11.002802848815918 8.118000030517578 -2.252556800842285
-11.160635948181152 7.893537521362305 -2.2519776821136475
-11.313859939575195 7.665980815887451 -2.251391649246216
-11.46239948272705 7.4354248046875 -2.250798463821411
-11.606203079223633 7.2019782066345215 -2.2501983642578125
-11.745989799499512 6.966169834136963 -2.2497334480285645
-11.883162498474121 6.728912353515625 -2.249687910079956
-12.015578269958496 6.488953590393066 -2.2496418952941895
-12.777389526367188 6.251624584197998 -2.3433775901794434
-13.223148345947266 6.1439714431762695 -2.4020309448242188
-13.343843460083008 5.87737512588501 -2.4020309448242188
-13.459038734436035 5.608407974243164 -2.4020309448242188
-13.568880081176758 5.337180137634277 -2.4020309448242188
-13.673256874084473 5.0637993812561035 -2.4020309448242188
-8.72077751159668 8.223715782165527 -2.2530343532562256
-9.039993286132812 7.863880634307861 -2.2521002292633057
-9.344290733337402 7.491573333740234 -2.251136064529419
-10.169757843017578 6.310618877410889 -2.249630928039551
-10.544173240661621 6.253439426422119 -2.3042328357696533
-11.364049911499023 5.845649719238281 -2.4020309448242188
-11.58948802947998 5.384916305541992 -2.4020309448242188
-11.695219039916992 5.151259422302246 -2.4020309448242188
-11.796236038208008 4.915516376495361 -2.4020309448242188
-11.892508506774902 4.67779541015625 -2.4020309448242188
-7.600159645080566 7.460733413696289 -2.251220703125
-8.030911445617676 6.986073017120361 -2.2499876022338867
-8.168456077575684 6.822646141052246 -2.2497076988220215
-8.303616523742676 6.657250881195068 -2.249675750732422
-8.563918113708496 6.318556785583496 -2.249630928039551
-9.21131706237793 6.241357326507568 -2.3519558906555176
-9.655653953552246 5.991599082946777 -2.4020309448242188
-9.773941040039062 5.7966179847717285 -2.4020309448242188
-10.207305908203125 4.994161128997803 -2.4020309448242188
-10.399487495422363 4.580543041229248 -2.4020309448242188
-10.489316940307617 4.370920181274414 -2.4020309448242188
-10.574922561645508 4.1595377922058105 -2.4020309448242188
-10.656269073486328 3.9464800357818604 -2.4020309448242188
-6.9640350341796875 6.567108154296875 -2.249659299850464
-7.094327926635742 6.425954818725586 -2.2496321201324463
-7.782327175140381 6.239302158355713 -2.3442704677581787
-8.097952842712402 6.229531288146973 -2.4011874198913574
-8.224201202392578 6.067902565002441 -2.4020309448242188
-8.344303131103516 5.901639938354492 -2.4020309448242188
-8.460956573486328 5.732999801635742 -2.4020309448242188
-8.574371337890625 5.562044620513916 -2.4020309448242188
-8.684301376342773 5.388851165771484 -2.4020309448242188
-8.790699005126953 5.213484287261963 -2.4020309448242188
-8.893550872802734 5.036025047302246 -2.4020309448242188
-8.992819786071777 4.856535911560059 -2.4020309448242188
-9.180465698242188 4.491752624511719 -2.4020309448242188
-9.353312492370605 4.119744300842285 -2.4020309448242188
-9.43410587310791 3.931208372116089 -2.4020309448242188
-9.584260940551758 3.5494678020477295 -2.4020309448242188
-6.117724895477295 6.250473976135254 -2.2643518447875977
-6.359325885772705 6.242683410644531 -2.307309627532959
-6.874159336090088 6.226507663726807 -2.4014296531677246
-7.120253086090088 5.94712495803833 -2.4020309448242188
-7.238067626953125 5.803035736083984 -2.4020309448242188
-7.4651665687561035 5.507911682128906 -2.4020309448242188
-7.574227809906006 5.356993198394775 -2.4020309448242188
-8.072784423828125 4.571263313293457 -2.4020309448242188
-8.162901878356934 4.408339977264404 -2.4020309448242188
-8.24972152709961 4.243637561798096 -2.4020309448242188
-8.413366317749023 3.9091668128967285 -2.4020309448242188
-8.490124702453613 3.7395458221435547 -2.4020309448242188
-8.633343696594238 3.3958373069763184 -2.4020309448242188
-8.699758529663086 3.221898078918457 -2.4020309448242188
-5.934518814086914 6.064296722412109 -2.4020309448242188
-6.055055618286133 5.943976402282715 -2.4020309448242188
-6.173074245452881 5.821261882781982 -2.4020309448242188
-6.288652420043945 5.69621467590332 -2.4020309448242188
-6.401703357696533 5.568863868713379 -2.4020309448242188
-6.512207508087158 5.4392619132995605 -2.4020309448242188
-6.620053768157959 5.307476043701172 -2.4020309448242188
-6.7252373695373535 5.173560619354248 -2.4020309448242188
-6.827703475952148 5.037553787231445 -2.4020309448242188
-6.92742395401001 4.899528503417969 -2.4020309448242188
-7.29801607131958 4.328225135803223 -2.4020309448242188
-7.383401393890381 4.180892467498779 -2.4020309448242188
-7.621596336364746 3.7290360927581787 -2.4020309448242188
-7.6949005126953125 3.575340509414673 -2.4020309448242188
-7.76509952545166 3.42020320892334 -2.4020309448242188
-7.896086692810059 3.1058435440063477 -2.4020309448242188
-5.6816887855529785 5.357847213745117 -2.4020309448242188
-5.788065433502197 5.242748737335205 -2.4020309448242188
-5.892110347747803 5.125535011291504 -2.4020309448242188
-5.993791580200195 5.006257057189941 -2.4020309448242188
-6.093048572540283 4.8849639892578125 -2.4020309448242188
-6.189858436584473 4.7617034912109375 -2.4020309448242188
-6.284168720245361 4.636526584625244 -2.4020309448242188
-6.375940322875977 4.509486675262451 -2.4020309448242188
-6.465154647827148 4.380627155303955 -2.4020309448242188
-6.551764488220215 4.249999523162842 -2.4020309448242188
-6.717037677764893 3.9836621284484863 -2.4020309448242188
-6.871481895446777 3.710914134979248 -2.4020309448242188
-7.014860153198242 3.4321775436401367 -2.4020309448242188
-7.082326412200928 3.2907159328460693 -2.4020309448242188
-7.208671569824219 3.00386643409729 -2.4020309448242188
-7.267499923706055 2.858595609664917 -2.4020309448242188
-7.323401927947998 2.712175130844116 -2.4020309448242188
-5.054149627685547 5.164649963378906 -2.4020309448242188
-5.156780242919922 5.0621795654296875 -2.4020309448242188
-5.452033996582031 4.742715358734131 -2.4020309448242188
-5.546117305755615 4.632344722747803 -2.4020309448242188
-5.814803123474121 4.290231227874756 -2.4020309448242188
-5.899729251861572 4.172677516937256 -2.4020309448242188
-6.062418460845947 3.932570219039917 -2.4020309448242188
-6.21534538269043 3.6861255168914795 -2.4020309448242188
-6.3582587242126465 3.4337518215179443 -2.4020309448242188
-6.553351879119873 3.044934034347534 -2.4020309448242188
-4.697968482971191 4.8006815910339355 -2.4020309448242188
-4.793368339538574 4.7054314613342285 -2.4020309448242188
-4.8868327140808105 4.6082916259765625 -2.4020309448242188
-5.240646839141846 4.201563835144043 -2.4020309448242188
-5.560688495635986 3.7677831649780273 -2.4020309448242188
-5.635182857513428 3.655430316925049 -2.4020309448242188
-5.7773332595825195 3.42635440826416 -2.4020309448242188
-5.97303581237793 3.072514057159424 -2.4020309448242188
-6.091516017913818 2.830350160598755 -2.4020309448242188
-6.147092342376709 2.707536458969116 -2.4020309448242188
-6.25078010559082 2.458682060241699 -2.4020309448242188
-6.29887056350708 2.3327460289001465 -2.4020309448242188
-4.383996486663818 4.479848384857178 -2.4020309448242188
-4.4730224609375 4.390964984893799 -2.4020309448242188
-4.560239791870117 4.3003153800964355 -2.4020309448242188
-4.729133605957031 4.113857746124268 -2.4020309448242188
-4.968101501464844 3.8218395709991455 -2.4020309448242188
-5.043797016143799 3.7213706970214844 -2.4020309448242188
-5.189064025878906 3.5159802436828613 -2.4020309448242188
-5.454306125640869 3.0885331630706787 -2.4020309448242188
-5.573850631713867 2.8671746253967285 -2.4020309448242188
-5.6302666664123535 2.7547380924224854 -2.4020309448242188
-5.833045482635498 2.2943668365478516 -2.4020309448242188
-5.877933979034424 2.176846981048584 -2.4020309448242188
-4.1882429122924805 4.111410617828369 -2.4020309448242188
-4.42804479598999 3.8519463539123535 -2.4020309448242188
-4.858697414398193 3.292130708694458 -2.4020309448242188
-4.923787593841553 3.1939611434936523 -2.4020309448242188
-5.047990798950195 2.9938037395477295 -2.4020309448242188
-5.271812438964844 2.579354763031006 -2.4020309448242188
-5.322512626647949 2.473038673400879 -2.4020309448242188
-5.41746187210083 2.25746750831604 -2.4020309448242188
-5.461699485778809 2.1482954025268555 -2.4020309448242188
-5.503695964813232 2.038255214691162 -2.4020309448242188
-3.854893207550049 3.939176559448242 -2.4020309448242188
-3.9331719875335693 3.8610198497772217 -2.4020309448242188
-4.009863376617432 3.78131103515625 -2.4020309448242188
-4.158370494842529 3.617356538772583 -2.4020309448242188
-4.230128765106201 3.533175468444824 -2.4020309448242188
-4.300181865692139 3.4475719928741455 -2.4020309448242188
-4.368500709533691 3.360581636428833 -2.4020309448242188
-4.562796592712402 3.09163498878479 -2.4020309448242188
-4.683183670043945 2.906046152114868 -2.4020309448242188
-4.740560054779053 2.811476469039917 -2.4020309448242188
-4.849562644958496 2.6189849376678467 -2.4020309448242188
-4.901142597198486 2.5211341381073 -2.4020309448242188
-4.950750827789307 2.4222681522369385 -2.4020309448242188
-5.043964862823486 2.2216551303863525 -2.4020309448242188
-5.129044532775879 2.017458915710449 -2.4020309448242188
-5.168511867523193 1.9141221046447754 -2.4020309448242188
-3.703172445297241 3.6352391242980957 -2.4020309448242188
-4.113044261932373 3.164064884185791 -2.4020309448242188
-4.175712585449219 3.0808873176574707 -2.4020309448242188
-4.353527545928955 2.8240458965301514 -2.4020309448242188
-4.409328460693359 2.736110210418701 -2.4020309448242188
-4.463347911834717 2.6470696926116943 -2.4020309448242188
-4.515567302703857 2.55696702003479 -2.4020309448242188
-4.61453914642334 2.3737077713012695 -2.4020309448242188
-4.661244869232178 2.2806220054626465 -2.4020309448242188
-4.749035358428955 2.091742753982544 -2.4020309448242188
-4.866267204284668 1.8021900653839111 -2.4020309448242188
-3.4249682426452637 3.499852180480957 -2.4020309448242188
-3.494516611099243 3.4304113388061523 -2.4020309448242188
-3.629359006881714 3.2874224185943604 -2.4020309448242188
-3.881296396255493 2.985785484313965 -2.4020309448242188
-3.9404313564300537 2.907296657562256 -2.4020309448242188
-4.053920745849609 2.7468347549438477 -2.4020309448242188
-4.160882949829102 2.581943988800049 -2.4020309448242188
-4.30869722366333 2.326897382736206 -2.4020309448242188
-4.354551792144775 2.239961624145508 -2.4020309448242188
-4.440920829772949 2.063415050506592 -2.4020309448242188
-4.557024002075195 1.7924586534500122 -2.4020309448242188
-4.592076778411865 1.700646162033081 -2.4020309448242188
-3.2384252548217773 3.30922794342041 -2.4020309448242188
-3.3041868209838867 3.2435693740844727 -2.4020309448242188
-3.431680917739868 3.108368396759033 -2.4020309448242188
-3.493370294570923 3.038872003555298 -2.4020309448242188
-3.6125011444091797 2.896240234375 -2.4020309448242188
-3.669898509979248 2.8231616020202637 -2.4020309448242188
-3.7258129119873047 2.74894642829895 -2.4020309448242188
-3.780226945877075 2.673625946044922 -2.4020309448242188
-3.8844707012176514 2.519777297973633 -2.4020309448242188
-3.934255838394165 2.4413156509399414 -2.4020309448242188
-4.117355823516846 2.1179585456848145 -2.4020309448242188
-4.159031867980957 2.034902334213257 -2.4020309448242188
-4.1990227699279785 1.951027274131775 -2.4020309448242188
-4.273941516876221 1.7809584140777588 -2.4020309448242188
-4.34196662902832 1.6080180406570435 -2.4020309448242188
-3.06740403175354 3.134467124938965 -2.4020309448242188
-3.1907153129577637 3.0088517665863037 -2.4020309448242188
-3.2504539489746094 2.9442155361175537 -2.4020309448242188
-3.3088841438293457 2.8783910274505615 -2.4020309448242188
-3.421725273132324 2.743290424346924 -2.4020309448242188
-3.4760899543762207 2.6740710735321045 -2.4020309448242188
-3.5290539264678955 2.603771924972534 -2.4020309448242188
-3.630692720413208 2.4600656032562256 -2.4020309448242188
-3.679331064224243 2.386707305908203 -2.4020309448242188
-3.726487874984741 2.3123891353607178 -2.4020309448242188
-3.772142171859741 2.2371387481689453 -2.4020309448242188
-3.816274404525757 2.1609883308410645 -2.4020309448242188
-3.858877420425415 2.083970069885254 -2.4020309448242188
-3.939370632171631 1.9274375438690186 -2.4020309448242188
-4.013565540313721 1.7678080797195435 -2.4020309448242188
-4.112665176391602 1.5230988264083862 -2.4020309448242188
-2.909893035888672 2.973513126373291 -2.4020309448242188
-2.968981981277466 2.9145164489746094 -2.4020309448242188
-3.026872396469116 2.8543481826782227 -2.4020309448242188
-3.083544969558716 2.7930328845977783 -2.4020309448242188
-3.1931402683258057 2.6670422554016113 -2.4020309448242188
-3.2460217475891113 2.6024229526519775 -2.4020309448242188
-3.396731376647949 2.402392625808716 -2.4020309448242188
-3.4904022216796875 2.2641520500183105 -2.4020309448242188
-3.699660539627075 1.903096079826355 -2.4020309448242188
-3.737107992172241 1.8284657001495361 -2.4020309448242188
-3.7730486392974854 1.7531013488769531 -2.4020309448242188
-3.807471752166748 1.6770319938659668 -2.4020309448242188
-3.8717002868652344 1.5228928327560425 -2.4020309448242188
