ply
format ascii 1.0
element vertex 354
property float x
property float y
property float z
end_header
-17.246732711791992 16.79054832458496 4.2442169189453125
-17.246728897094727 15.509061813354492 4.089798450469971
-10.514755249023438 8.727806091308594 2.4095239639282227
-17.3065128326416 13.795857429504395 3.902529716491699
-19.553218841552734 13.199929237365723 4.159844398498535
-20.41337013244629 13.19992733001709 4.2863898277282715
-27.48162269592285 14.828457832336426 5.506153583526611
-28.537845611572266 14.6764497756958 5.6584391593933105
-29.742231369018555 14.558603286743164 5.83893346786499
-29.74220085144043 13.83553695678711 5.784010887145996
-30.0550537109375 13.263739585876465 5.792635917663574
-17.246732711791992 17.468856811523438 3.760636568069458
-17.24673080444336 16.137954711914062 3.618382453918457
-17.24673080444336 15.509055137634277 3.5532524585723877
-17.3065128326416 13.795859336853027 3.390552282333374
-17.556100845336914 13.435102462768555 3.386664867401123
-18.02200698852539 13.234209060668945 3.4253153800964355
-18.74208641052246 13.199931144714355 3.5118095874786377
-22.302852630615234 13.19992446899414 3.970233678817749
-23.345346450805664 13.199921607971191 4.108475208282471
-24.463459014892578 13.199918746948242 4.258414268493652
-29.74220085144043 13.835541725158691 5.025198936462402
-30.055049896240234 13.263739585876465 5.0326948165893555
-17.308801651000977 16.19603157043457 3.0868260860443115
-10.513494491577148 8.726759910583496 1.7792658805847168
-19.64525032043457 13.262060165405273 3.086585521697998
-20.51014518737793 13.26250171661377 3.180588960647583
-21.429738998413086 13.262971878051758 3.28182315826416
-22.3028507232666 13.19992446899414 3.374843120574951
-24.40532112121582 13.7992525100708 3.650920867919922
-26.801237106323242 13.783344268798828 3.9245688915252686
-27.225751876831055 13.326804161071777 3.94731068611145
-17.30727195739746 17.530174255371094 2.6452746391296387
-17.30805206298828 16.85024070739746 2.593884229660034
-17.30952262878418 15.565530776977539 2.499725103378296
-17.31022071838379 14.957015037536621 2.456569194793701
-17.609907150268555 13.476276397705078 2.381162405014038
-18.07918357849121 13.276192665100098 2.408594846725464
-20.51013946533203 13.26250171661377 2.622753143310547
-26.120189666748047 14.76887321472168 3.2221391201019287
-27.48162841796875 14.828457832336426 3.353206157684326
-28.293771743774414 14.550925254821777 3.416473865509033
-29.72653579711914 14.550918579101562 3.553989887237549
-29.74220085144043 13.835537910461426 3.5224180221557617
-29.91043472290039 13.199921607971191 3.5106987953186035
-17.246732711791992 16.790546417236328 2.037604808807373
-17.246728897094727 15.509064674377441 1.963471531867981
-17.3065128326416 13.795859336853027 1.873565435409546
-18.02200698852539 13.234210014343262 1.8927723169326782
-18.742082595825195 13.199931144714355 1.9405686855316162
-19.55322265625 13.199929237365723 1.997099757194519
-20.41337776184082 13.19992733001709 2.0578529834747314
-23.345348358154297 13.199921607971191 2.270278215408325
-29.74220085144043 13.835542678833008 2.776843786239624
-17.246732711791992 16.79054832458496 1.4925974607467651
-17.24673080444336 16.137950897216797 1.4646555185317993
-17.24673080444336 15.509061813354492 1.438292384147644
-10.510865211486816 8.724575996398926 0.8470631241798401
-17.556100845336914 13.435102462768555 1.3708585500717163
-18.02200698852539 13.234209060668945 1.386504888534546
-18.742082595825195 13.199931144714355 1.4215161800384521
-19.553220748901367 13.199929237365723 1.4629251956939697
-20.413381576538086 13.19992733001709 1.5074290037155151
-21.327871322631836 13.199925422668457 1.5553537607192993
-22.3028564453125 13.19992446899414 1.6070783138275146
-23.345348358154297 13.199921607971191 1.6630359888076782
-24.463457107543945 13.199918746948242 1.7237284183502197
-26.801237106323242 13.783345222473145 1.8688547611236572
-28.375823974609375 13.199929237365723 1.9406614303588867
-17.837156295776367 18.066877365112305 1.0010942220687866
-18.268218994140625 16.427629470825195 0.9687467813491821
-18.68487548828125 16.144800186157227 0.9736970067024231
-10.509605407714844 8.723532676696777 0.538564920425415
-20.366910934448242 14.956154823303223 0.9963627457618713
-20.972761154174805 14.770983695983887 1.0114952325820923
-22.889970779418945 14.801374435424805 1.0748337507247925
-25.408002853393555 14.36618709564209 1.1509217023849487
-25.687440872192383 13.8603515625 1.1509217023849487
-26.801237106323242 13.783345222473145 1.188364028930664
-28.375831604003906 13.199929237365723 1.2340245246887207
-29.910436630249023 13.199921607971191 1.2891426086425781
-17.837156295776367 17.365354537963867 0.42050641775131226
-18.268218994140625 16.427631378173828 0.4149995446205139
-20.36690902709961 14.956154823303223 0.42682966589927673
-20.972763061523438 14.770983695983887 0.4333125352859497
-23.59589385986328 15.257848739624023 0.4746461510658264
-24.68889617919922 15.280081748962402 0.49045026302337646
-28.317995071411133 15.279746055603027 0.5435319542884827
-31.099803924560547 15.223142623901367 0.584890604019165
-31.753089904785156 14.770971298217773 0.5915571451187134
-17.837156295776367 17.365352630615234 -0.14015914499759674
-17.90235137939453 16.751420974731445 -0.13803832232952118
-20.17167091369629 15.436712265014648 -0.14301040768623352
-20.366907119750977 14.956154823303223 -0.14226654171943665
-20.972761154174805 14.770983695983887 -0.1444268822669983
-22.570756912231445 15.236995697021484 -0.15332503616809845
-23.595905303955078 15.257848739624023 -0.15820449590682983
-24.688899993896484 15.280082702636719 -0.163471981883049
-26.19112205505371 14.808979988098145 -0.16940002143383026
-29.65791893005371 15.252481460571289 -0.18776747584342957
-31.099843978881836 15.223142623901367 -0.19494949281215668
-31.753089904785156 14.770971298217773 -0.19717209041118622
-36.76921081542969 16.22679901123047 -0.22628097236156464
-17.837156295776367 17.365354537963867 -0.7009643316268921
-17.90235137939453 16.751422882080078 -0.6903561353683472
-18.268213272094727 16.427635192871094 -0.6917847990989685
-19.75053596496582 15.744114875793457 -0.7112056016921997
-20.972761154174805 14.770983695983887 -0.7223098874092102
-23.59589385986328 15.257848739624023 -0.7912127375602722
-25.857704162597656 15.30385684967041 -0.846059262752533
-28.317995071411133 15.279746055603027 -0.9060410857200623
-29.65792465209961 15.252481460571289 -0.9390641450881958
-31.099803924560547 15.223142623901367 -0.9749825596809387
-36.76921463012695 16.226797103881836 -1.1316759586334229
-18.268218994140625 16.427631378173828 -1.2459572553634644
-18.921510696411133 16.349260330200195 -1.2681828737258911
-20.36690902709961 14.956154823303223 -1.281473994255066
-22.570756912231445 15.2369966506958 -1.381073236465454
-26.19112205505371 14.808981895446777 -1.5258851051330566
-28.317996978759766 15.279746055603027 -1.6318485736846924
-31.099809646606445 15.223142623901367 -1.7560176849365234
-17.837156295776367 18.066879272460938 -1.8615398406982422
-17.837156295776367 17.3653507232666 -1.8252944946289062
-18.268217086791992 16.42763328552246 -1.8013910055160522
-10.503323554992676 8.718318939208984 -1.0008643865585327
-19.750534057617188 15.744115829467773 -1.8519610166549683
-20.171674728393555 15.436704635620117 -1.862423300743103
-20.36690902709961 14.956154823303223 -1.852741003036499
-25.078510284423828 14.842691421508789 -2.1367299556732178
-26.334657669067383 14.890119552612305 -2.2181951999664307
-26.62100601196289 14.36408519744873 -2.2179253101348877
-19.22099494934082 8.482514381408691 -1.5404620170593262
-16.938810348510742 15.849825859069824 -2.2271101474761963
-17.54857063293457 15.162900924682617 -2.2265372276306152
-18.130563735961914 14.452750205993652 -2.2259883880615234
-18.684091567993164 13.720407485961914 -2.225464105606079
-19.208391189575195 12.967156410217285 -2.224975109100342
-19.45937728881836 12.583013534545898 -2.2247426509857178
-13.703377723693848 8.481094360351562 -1.547174096107483
-14.848212242126465 8.395478248596191 -1.6375901699066162
-16.339879989624023 8.403278350830078 -1.764006495475769
-20.86821174621582 10.214923858642578 -2.2306084632873535
-21.208538055419922 9.86586856842041 -2.245654821395874
-19.320951461791992 8.526626586914062 -2.0274930000305176
-13.193516731262207 13.36344051361084 -2.2306790351867676
-8.92940616607666 8.355348587036133 -1.4526208639144897
-10.17885971069336 8.449000358581543 -1.5713661909103394
-11.076155662536621 8.476223945617676 -1.6567442417144775
-15.123954772949219 11.106067657470703 -2.228870391845703
-11.888625144958496 8.373089790344238 -1.7273017168045044
-15.554306030273438 10.500301361083984 -2.2292234897613525
-15.819191932678223 10.22909164428711 -2.2377095222473145
-14.848212242126465 8.395478248596191 -2.0261733531951904
-16.681665420532227 9.001046180725098 -2.251601457595825
-16.339879989624023 8.403278350830078 -2.182581663131714
-17.032081604003906 8.337079048156738 -2.2525475025177
-17.335269927978516 7.6503119468688965 -2.250793218612671
-8.363470077514648 8.471196174621582 -1.6866909265518188
-11.289748191833496 10.991127967834473 -2.2325098514556885
-11.717721939086914 10.536977767944336 -2.2328062057495117
-10.396613121032715 8.629743576049805 -1.9144426584243774
-12.417028427124023 9.898205757141113 -2.249948263168335
-12.613531112670898 9.652714729309082 -2.2504794597625732
-12.805238723754883 9.403348922729492 -2.2510199546813965
-11.888625144958496 8.373089790344238 -2.060338020324707
-13.173930168151855 8.893417358398438 -2.252126455307007
-13.520622253417969 8.367981910705566 -2.2529513835906982
-13.67940616607666 8.096144676208496 -2.252253293991089
-14.261083602905273 6.980707168579102 -2.249734878540039
-14.396120071411133 6.696832656860352 -2.249680519104004
-14.525593757629395 6.410362243652344 -2.249630928039551
-9.59808349609375 9.72169017791748 -2.2505710124969482
-9.790454864501953 9.531485557556152 -2.25097918510437
-8.92940616607666 8.355348587036133 -2.0145795345306396
-10.163900375366211 9.13985538482666 -2.251821756362915
-10.344876289367676 8.93855094909668 -2.252255916595459
-10.380847930908203 8.616655349731445 -2.2225069999694824
-11.175992012023926 7.871177673339844 -2.251920223236084
-11.326701164245605 7.646409034729004 -2.2513413429260254
-11.614450454711914 7.188250541687012 -2.2501630783081055
-11.752250671386719 6.9555583000183105 -2.2497313022613525
-11.887421607971191 6.721381664276123 -2.2496864795684814
-13.2203950881958 6.1498918533325195 -2.4020309448242188
-8.590071678161621 8.362885475158691 -2.2533962726593018
-8.752216339111328 8.189554214477539 -2.2529454231262207
-8.910816192626953 8.013040542602539 -2.2524871826171875
-9.217219352722168 7.650792598724365 -2.2515480518341064
-9.508804321289062 7.27677583694458 -2.2505810260772705
-9.648892402648926 7.085529804229736 -2.2500874996185303
-9.78568172454834 6.891992092132568 -2.2497200965881348
-9.920040130615234 6.69679594039917 -2.249682664871216
-10.050511360168457 6.498978614807129 -2.2496447563171387
-10.177055358886719 6.2986884117126465 -2.249630928039551
-11.036222457885742 6.240052223205566 -2.3829877376556396
-11.364588737487793 5.844595432281494 -2.4020309448242188
-11.478107452392578 5.6184515953063965 -2.4020309448242188
-11.69151782989502 5.159643650054932 -2.4020309448242188
-7.630734920501709 7.428898334503174 -2.2511377334594727
-7.774929046630859 7.275083065032959 -2.2507376670837402
-7.916007995605469 7.118441581726074 -2.250330924987793
-8.053911209106445 6.959039211273193 -2.249917507171631
-8.18934154510498 6.797576904296875 -2.2497026920318604
-8.322199821472168 6.63401985168457 -2.249671459197998
-8.451766967773438 6.467863082885742 -2.2496395111083984
-8.578433990478516 6.299239158630371 -2.249630928039551
-9.243979454040527 6.240398406982422 -2.357560873031616
-9.662668228149414 5.9802727699279785 -2.4020309448242188
-9.77912425994873 5.7877960205078125 -2.4020309448242188
-10.105508804321289 5.197062969207764 -2.4020309448242188
-10.303329467773438 4.792925834655762 -2.4020309448242188
-10.39620304107666 4.5879998207092285 -2.4020309448242188
-7.117635250091553 6.400343418121338 -2.249630928039551
-7.251147747039795 6.265366077423096 -2.252218008041382
-7.825364112854004 6.237980365753174 -2.3519766330718994
-8.355916976928711 5.885075092315674 -2.4020309448242188
-8.795393943786621 5.205550193786621 -2.4020309448242188
-8.896735191345215 5.030392169952393 -2.4020309448242188
-9.179670333862305 4.493378639221191 -2.4020309448242188
-9.35035228729248 4.1264519691467285 -2.4020309448242188
-6.168982028961182 6.2484869956970215 -2.2734763622283936
-6.410672664642334 6.2411017417907715 -2.316526174545288
-7.3673996925354 5.6380438804626465 -2.4020309448242188
-7.477590560913086 5.49107027053833 -2.4020309448242188
-7.689121723175049 5.19074821472168 -2.4020309448242188
-7.790379047393799 5.037502288818359 -2.4020309448242188
-8.075678825378418 4.566149711608887 -2.4020309448242188
-8.487435340881348 3.745631694793701 -2.4020309448242188
-6.0796332359313965 5.918823719024658 -2.4020309448242188
-6.195558547973633 5.797311305999756 -2.4020309448242188
-6.309163570404053 5.673514366149902 -2.4020309448242188
-6.420302391052246 5.547486305236816 -2.4020309448242188
-6.738266468048096 5.156575679779053 -2.4020309448242188
-6.839035511016846 5.02215576171875 -2.4020309448242188
-6.937124252319336 4.885776042938232 -2.4020309448242188
-7.1251068115234375 4.607320308685303 -2.4020309448242188
-7.301917552947998 4.3216352462768555 -2.4020309448242188
-7.386050224304199 4.176219463348389 -2.4020309448242188
-7.467278957366943 4.0291748046875 -2.4020309448242188
-7.545584678649902 3.8805460929870605 -2.4020309448242188
-7.693297386169434 3.578788995742798 -2.4020309448242188
-7.762637138366699 3.425767183303833 -2.4020309448242188
-5.48673677444458 5.557361125946045 -2.4020309448242188
-5.595649719238281 5.447643280029297 -2.4020309448242188
-5.806923866271973 5.2218546867370605 -2.4020309448242188
-5.909171104431152 5.105861186981201 -2.4020309448242188
-6.009096145629883 4.987872123718262 -2.4020309448242188
-6.201846599578857 4.746071815490723 -2.4020309448242188
-6.384875774383545 4.496830463409424 -2.4020309448242188
-6.557889461517334 4.240540027618408 -2.4020309448242188
-6.640560150146484 4.10987663269043 -2.4020309448242188
-6.79805850982666 3.843759775161743 -2.4020309448242188
-6.872828006744385 3.708420991897583 -2.4020309448242188
-7.080852508544922 3.2938859462738037 -2.4020309448242188
-7.144673824310303 3.1530516147613525 -2.4020309448242188
-5.076897621154785 5.1422882080078125 -2.4020309448242188
-5.177715301513672 5.040763854980469 -2.4020309448242188
-5.467820167541504 4.724509239196777 -2.4020309448242188
-5.650569915771484 4.504344940185547 -2.4020309448242188
-5.738637447357178 4.3915910720825195 -2.4020309448242188
-5.82445764541626 4.277114391326904 -2.4020309448242188
-6.068089962005615 3.923818349838257 -2.4020309448242188
-6.218669891357422 3.6805150508880615 -2.4020309448242188
-6.359501838684082 3.43144154548645 -2.4020309448242188
-6.490363121032715 3.176987886428833 -2.4020309448242188
-6.55198860168457 3.047868013381958 -2.4020309448242188
-4.994544982910156 4.491324424743652 -2.4020309448242188
-5.082487106323242 4.3915581703186035 -2.4020309448242188
-5.252356052398682 4.1869096755981445 -2.4020309448242188
-5.640450954437256 3.647294282913208 -2.4020309448242188
-5.973317623138428 3.07196044921875 -2.4020309448242188
-6.032966613769531 2.9530937671661377 -2.4020309448242188
-6.145144939422607 2.711944580078125 -2.4020309448242188
-4.491180419921875 4.3723883628845215 -2.4020309448242188
-4.823024272918701 4.0033674240112305 -2.4020309448242188
-4.901338577270508 3.907094717025757 -2.4020309448242188
-4.977728843688965 3.8092925548553467 -2.4020309448242188
-5.05217170715332 3.7099931240081787 -2.4020309448242188
-5.329847812652588 3.2986700534820557 -2.4020309448242188
-5.456259727478027 3.085078716278076 -2.4020309448242188
-5.683234214782715 2.6437394618988037 -2.4020309448242188
-5.734460830688477 2.530702590942383 -2.4020309448242188
-4.123363494873047 4.1764726638793945 -2.4020309448242188
-4.285472869873047 4.009962558746338 -2.4020309448242188
-4.364022254943848 3.924332857131958 -2.4020309448242188
-4.440864562988281 3.837158679962158 -2.4020309448242188
-4.515962600708008 3.7484874725341797 -2.4020309448242188
-4.660818576812744 3.5667686462402344 -2.4020309448242188
-4.92839241027832 3.186851739883423 -2.4020309448242188
-5.050690650939941 2.9892468452453613 -2.4020309448242188
-5.108884334564209 2.8886637687683105 -2.4020309448242188
-5.165071487426758 2.7869536876678467 -2.4020309448242188
-5.271353721618652 2.5802910327911377 -2.4020309448242188
-5.3693695068359375 2.3695831298828125 -2.4020309448242188
-4.098247051239014 3.685333728790283 -2.4020309448242188
-4.170408248901367 3.6034703254699707 -2.4020309448242188
-4.240932464599609 3.5201995372772217 -2.4020309448242188
-4.309794902801514 3.4355461597442627 -2.4020309448242188
-4.37696647644043 3.34954833984375 -2.4020309448242188
-4.506138801574707 3.173645496368408 -2.4020309448242188
-4.686587810516357 2.900552272796631 -2.4020309448242188
-4.743096351623535 2.807197093963623 -2.4020309448242188
-4.901376247406006 2.5206799507141113 -2.4020309448242188
-3.789142370223999 3.545542001724243 -2.4020309448242188
-3.8585941791534424 3.469827890396118 -2.4020309448242188
-3.9265356063842773 3.392751455307007 -2.4020309448242188
-3.9929356575012207 3.314349889755249 -2.4020309448242188
-4.057771682739258 3.2346484661102295 -2.4020309448242188
-4.18264627456665 3.0714683532714844 -2.4020309448242188
-4.242635250091553 2.98806095123291 -2.4020309448242188
-4.412530899047852 2.7309374809265137 -2.4020309448242188
-4.465733528137207 2.643040657043457 -2.4020309448242188
-4.566868782043457 2.4641778469085693 -2.4020309448242188
-4.614760875701904 2.373278856277466 -2.4020309448242188
-4.747504711151123 2.0951449871063232 -2.4020309448242188
-3.641181468963623 3.2743213176727295 -2.4020309448242188
-3.829139232635498 3.052391290664673 -2.4020309448242188
-3.9469738006591797 2.898406982421875 -2.4020309448242188
-4.163907527923584 2.5770623683929443 -2.4020309448242188
-4.262665748596191 2.4101972579956055 -2.4020309448242188
-4.309553623199463 2.3253345489501953 -2.4020309448242188
-3.2530016899108887 3.2948999404907227 -2.4020309448242188
-3.317598819732666 3.2298474311828613 -2.4020309448242188
-3.3808915615081787 3.16353702545166 -2.4020309448242188
-3.503483772277832 3.027209520339966 -2.4020309448242188
-3.620577812194824 2.886139392852783 -2.4020309448242188
-3.6770079135894775 2.813894033432007 -2.4020309448242188
-3.731999397277832 2.740541934967041 -2.4020309448242188
-3.7855236530303955 2.6661205291748047 -2.4020309448242188
-3.8375658988952637 2.5906524658203125 -2.4020309448242188
-3.888103485107422 2.514169454574585 -2.4020309448242188
-3.9371159076690674 2.4367003440856934 -2.4020309448242188
-3.9845874309539795 2.358273983001709 -2.4020309448242188
-4.074819087982178 2.198681354522705 -2.4020309448242188
-4.117552280426025 2.1175758838653564 -2.4020309448242188
-4.235997200012207 1.8694093227386475 -2.4020309448242188
-3.1423985958099365 3.059279680252075 -2.4020309448242188
-3.202346086502075 2.996469736099243 -2.4020309448242188
-3.3745806217193604 2.8010809421539307 -2.4020309448242188
-3.5349113941192627 2.595813512802124 -2.4020309448242188
-3.6349034309387207 2.4538393020629883 -2.4020309448242188
-3.6827709674835205 2.3813960552215576 -2.4020309448242188
-3.900106191635132 2.005746841430664 -2.4020309448242188
-3.9764556884765625 1.8497748374938965 -2.4020309448242188
-4.012296676635742 1.7706857919692993 -2.4020309448242188
-2.9229931831359863 2.960639476776123 -2.4020309448242188
-3.0379083156585693 2.8426029682159424 -2.4020309448242188
-3.0935888290405273 2.781900644302368 -2.4020309448242188
-3.2012994289398193 2.65724778175354 -2.4020309448242188
-3.303985595703125 2.528430461883545 -2.4020309448242188
-3.401491641998291 2.395648956298828 -2.4020309448242188
-3.6216063499450684 2.0477309226989746 -2.4020309448242188
-3.736785888671875 1.829131007194519 -2.4020309448242188
-3.7722654342651367 1.7547898292541504 -2.4020309448242188
-3.8062658309936523 1.6797617673873901 -2.4020309448242188
