ply
format ascii 1.0
element vertex 225
property float x
property float y
property float z
end_header
-22.597614288330078 -31.009939193725586 5.8780951499938965
-20.439409255981445 -34.872371673583984 -0.2275778204202652
-20.638471603393555 -26.07282829284668 -0.9363203048706055
-19.908721923828125 -26.20705795288086 -0.9267131090164185
-22.102901458740234 -34.48448181152344 -1.1533403396606445
-21.138404846191406 -34.47222900390625 -1.1386208534240723
-20.204723358154297 -34.471988677978516 -1.1250948905944824
-19.283851623535156 -34.45610427856445 -1.1118180751800537
-18.400331497192383 -34.47102355957031 -1.1002519130706787
-18.13872528076172 -35.67360305786133 -1.1268802881240845
-31.01117515563965 -30.78301239013672 -2.21597957611084
-29.77772331237793 -32.01206588745117 -2.217254877090454
-29.14286994934082 -32.60842514038086 -2.2179110050201416
-28.496191024780273 -33.192413330078125 -2.2185792922973633
-20.353681564331055 -25.713048934936523 -1.663116455078125
-19.536928176879883 -25.717641830444336 -1.637911319732666
-24.382150650024414 -36.42274475097656 -2.222827911376953
-19.30462646484375 -34.493221282958984 -2.004626750946045
-19.90690803527832 -39.1511116027832 -2.227444648742676
-20.21322250366211 -22.616899490356445 -2.2240893840789795
-19.32481575012207 -23.43844985961914 -2.2273638248443604
-18.85803985595703 -23.82359504699707 -2.2278223037719727
-17.41485023498535 -24.926122665405273 -2.2295103073120117
-15.391429901123047 -26.259857177734375 -2.2317845821380615
-14.869046211242676 -26.56777572631836 -2.232337713241577
-14.340511322021484 -26.86538314819336 -2.232896089553833
-13.806071281433105 -27.15253448486328 -2.233459949493408
-16.504226684570312 -16.382810592651367 -2.2325801849365234
-15.5012845993042 -17.344640731811523 -2.233278512954712
-14.801365852355957 -17.952077865600586 -2.2337582111358643
-12.95088005065918 -19.34640121459961 -2.2350997924804688
-7.94667911529541 -12.398237228393555 -1.4138058423995972
-10.14645004272461 -20.979183197021484 -2.2373013496398926
-13.097134590148926 -13.529203414916992 -2.236755609512329
-12.826268196105957 -13.788663864135742 -2.2369635105133057
-12.550301551818848 -14.042729377746582 -2.237177610397339
-12.269309997558594 -14.291325569152832 -2.237398386001587
-11.692811965942383 -14.771674156188965 -2.2378592491149902
-11.097654342651367 -15.228934288024902 -2.238344430923462
-10.793344497680664 -15.448678970336914 -2.238596200942993
-9.854632377624512 -16.0707950592041 -2.2393088340759277
-7.269473552703857 -12.40269660949707 -1.7076776027679443
-9.208849906921387 -16.4542236328125 -2.2398130893707275
-6.616086483001709 -12.394518852233887 -1.6689175367355347
-8.21268367767334 -16.980878829956055 -2.2406136989593506
-11.278629302978516 -11.195639610290527 -2.2517004013061523
-11.0562744140625 -11.4210205078125 -2.2522847652435303
-10.324633598327637 -12.026060104370117 -2.2457759380340576
-9.81283950805664 -12.396283149719238 -2.240093946456909
-9.565682411193848 -12.591907501220703 -2.240567684173584
-8.799128532409668 -13.144405364990234 -2.241201877593994
-8.536429405212402 -13.318363189697266 -2.2414233684539795
-8.270308494567871 -13.487106323242188 -2.2416493892669678
-7.728208541870117 -13.808652877807617 -2.2421157360076904
-6.616086959838867 -12.394518852233887 -1.9907063245773315
-7.17368221282959 -14.108538627624512 -2.242600202560425
-9.498102188110352 -9.811448097229004 -2.249630928039551
-9.100066184997559 -10.182225227355957 -2.2496955394744873
-8.895848274230957 -10.361921310424805 -2.2497966289520264
-8.479584693908691 -10.712347984313965 -2.25071120262146
-8.049344062805176 -11.04583740234375 -2.251584053039551
-7.605842590332031 -11.361836433410645 -2.2524142265319824
-7.379347324371338 -11.513102531433105 -2.2528128623962402
-7.149799823760986 -11.659798622131348 -2.253200054168701
-6.917306423187256 -11.801858901977539 -2.2535758018493652
-6.674506187438965 -11.925959587097168 -2.251436948776245
-6.421287536621094 -12.02913761138916 -2.2463202476501465
-5.931150436401367 -12.263826370239258 -2.244218587875366
-8.515851974487305 -9.528554916381836 -2.4020309448242188
-6.657991409301758 -9.945915222167969 -2.2496490478515625
-6.458643436431885 -10.076659202575684 -2.249674081802368
-5.846852779388428 -10.44708251953125 -2.2502565383911133
-5.427608966827393 -10.674534797668457 -2.2508621215820312
-8.064875602722168 -8.005537033081055 -2.4020309448242188
-7.903826713562012 -8.164578437805176 -2.4020309448242188
-7.739643573760986 -8.320378303527832 -2.4020309448242188
-7.572396755218506 -8.47287654876709 -2.4020309448242188
-7.052856922149658 -8.909982681274414 -2.4020309448242188
-6.874016761779785 -9.048686027526855 -2.4020309448242188
-6.6923651695251465 -9.18380069732666 -2.4020309448242188
-6.1320343017578125 -9.567076683044434 -2.4020309448242188
-5.66579532623291 -9.666726112365723 -2.3684701919555664
-5.165581703186035 -9.677153587341309 -2.318737745285034
-6.8106207847595215 -7.620513916015625 -2.4020309448242188
-6.501714706420898 -7.88571310043335 -2.4020309448242188
-6.343364238739014 -8.013646125793457 -2.4020309448242188
-6.019179344177246 -8.259917259216309 -2.4020309448242188
-5.85347318649292 -8.37816333770752 -2.4020309448242188
-5.515162467956543 -8.604636192321777 -2.4020309448242188
-5.342815399169922 -8.712777137756348 -2.4020309448242188
-4.991414546966553 -8.918642044067383 -2.4020309448242188
-4.8128180503845215 -9.016291618347168 -2.4020309448242188
-4.632285118103027 -9.11036205291748 -2.4020309448242188
-4.449925899505615 -9.20081615447998 -2.4020309448242188
-6.584147930145264 -6.535703659057617 -2.4020309448242188
-6.45266580581665 -6.66554069519043 -2.4020309448242188
-5.901688575744629 -7.15796422958374 -2.4020309448242188
-5.757950782775879 -7.2740912437438965 -2.4020309448242188
-5.463685035705566 -7.497630596160889 -2.4020309448242188
-5.313272476196289 -7.604966640472412 -2.4020309448242188
-5.006180763244629 -7.810540676116943 -2.4020309448242188
-4.530803203582764 -8.095563888549805 -2.4020309448242188
-6.021883487701416 -5.977578163146973 -2.4020309448242188
-5.901628494262695 -6.096324443817139 -2.4020309448242188
-5.397700309753418 -6.546701908111572 -2.4020309448242188
-5.266239643096924 -6.652911186218262 -2.4020309448242188
-5.132699489593506 -6.756478309631348 -2.4020309448242188
-4.99711275100708 -6.857365131378174 -2.4020309448242188
-4.859543800354004 -6.955531597137451 -2.4020309448242188
-4.435485363006592 -7.233327388763428 -2.4020309448242188
-4.143885612487793 -7.404232025146484 -2.4020309448242188
-3.845710277557373 -7.563394546508789 -2.4020309448242188
-3.694305419921875 -7.638490200042725 -2.4020309448242188
-5.318983554840088 -5.718087673187256 -2.4020309448242188
-4.968005657196045 -6.0255303382873535 -2.4020309448242188
-4.724089622497559 -6.218608379364014 -2.4020309448242188
-4.599299430847168 -6.311462879180908 -2.4020309448242188
-4.472681045532227 -6.401814937591553 -2.4020309448242188
-4.344297885894775 -6.489628314971924 -2.4020309448242188
-4.21417236328125 -6.574865341186523 -2.4020309448242188
-4.082381725311279 -6.657497406005859 -2.4020309448242188
-3.814005136489868 -6.814799785614014 -2.4020309448242188
-3.539562940597534 -6.961292743682861 -2.4020309448242188
-3.400211811065674 -7.030411720275879 -2.4020309448242188
-5.128533363342285 -5.090797424316406 -2.4020309448242188
-5.026121139526367 -5.191932678222656 -2.4020309448242188
-4.815353870391846 -5.387983322143555 -2.4020309448242188
-4.596954822540283 -5.575488090515137 -2.4020309448242188
-4.484996795654297 -5.6659440994262695 -2.4020309448242188
-4.371249675750732 -5.75414514541626 -2.4020309448242188
-4.255776882171631 -5.840065956115723 -2.4020309448242188
-4.138617992401123 -5.923667907714844 -2.4020309448242188
-3.6540210247039795 -6.2342681884765625 -2.4020309448242188
-3.4028332233428955 -6.374849796295166 -2.4020309448242188
-3.27519154548645 -6.441359519958496 -2.4020309448242188
-3.1462512016296387 -6.50531530380249 -2.4020309448242188
-4.767107009887695 -4.7320332527160645 -2.4020309448242188
-4.671914100646973 -4.826041221618652 -2.4020309448242188
-4.476006507873535 -5.008277893066406 -2.4020309448242188
-4.168919563293457 -5.266645431518555 -2.4020309448242188
-4.0631937980651855 -5.348635196685791 -2.4020309448242188
-3.9558610916137695 -5.428498268127441 -2.4020309448242188
-3.846964120864868 -5.5062103271484375 -2.4020309448242188
-3.7365148067474365 -5.581736087799072 -2.4020309448242188
-3.624624490737915 -5.6550517082214355 -2.4020309448242188
-3.2804272174835205 -5.861419677734375 -2.4020309448242188
-3.0443851947784424 -5.9874186515808105 -2.4020309448242188
-4.448519229888916 -4.415788650512695 -2.4020309448242188
-4.2691240310668945 -4.589451789855957 -2.4020309448242188
-4.176865577697754 -4.673567295074463 -2.4020309448242188
-3.9874212741851807 -4.836214065551758 -2.4020309448242188
-3.8903074264526367 -4.9146728515625 -2.4020309448242188
-3.7916502952575684 -4.991179466247559 -2.4020309448242188
-3.6914896965026855 -5.065706729888916 -2.4020309448242188
-3.58986496925354 -5.1382269859313965 -2.4020309448242188
-3.3823821544647217 -5.277120113372803 -2.4020309448242188
-3.1695263385772705 -5.407641410827637 -2.4020309448242188
-3.0611979961395264 -5.469696044921875 -2.4020309448242188
-2.951582670211792 -5.529579162597656 -2.4020309448242188
-2.729081869125366 -5.642748832702637 -2.4020309448242188
-4.1653008460998535 -4.134652614593506 -2.4020309448242188
-3.73355770111084 -4.528309345245361 -2.4020309448242188
-3.55025315284729 -4.673412322998047 -2.4020309448242188
-3.4564690589904785 -4.743194580078125 -2.4020309448242188
-3.264824867248535 -4.8770880699157715 -2.4020309448242188
-3.1670384407043457 -4.941147804260254 -2.4020309448242188
-2.7637243270874023 -5.177536964416504 -2.4020309448242188
-2.660054922103882 -5.231554985046387 -2.4020309448242188
-3.833516836166382 -3.959984302520752 -2.4020309448242188
-3.7538836002349854 -4.035551071166992 -2.4020309448242188
-3.672764301300049 -4.109515190124512 -2.4020309448242188
-3.590183734893799 -4.1818528175354 -2.4020309448242188
-3.4207873344421387 -4.32151985168457 -2.4020309448242188
-3.3340001106262207 -4.388781547546387 -2.4020309448242188
-3.2459661960601807 -4.45432710647583 -2.4020309448242188
-3.1566033363342285 -4.518092632293701 -2.4020309448242188
-3.0659916400909424 -4.580066204071045 -2.4020309448242188
-2.9741625785827637 -4.640223979949951 -2.4020309448242188
-2.881150484085083 -4.698540687561035 -2.4020309448242188
-2.7869975566864014 -4.754992961883545 -2.4020309448242188
-2.6917407512664795 -4.809557914733887 -2.4020309448242188
-2.4980554580688477 -4.9129462242126465 -2.4020309448242188
-3.6828906536102295 -3.655790090560913 -2.4020309448242188
-3.609341859817505 -3.7284164428710938 -2.4020309448242188
-3.534367084503174 -3.7995641231536865 -2.4020309448242188
-3.457993745803833 -3.8692049980163574 -2.4020309448242188
-3.3802409172058105 -3.9373106956481934 -2.4020309448242188
-3.301151752471924 -4.003854751586914 -2.4020309448242188
-3.220750093460083 -4.06881046295166 -2.4020309448242188
-3.056150436401367 -4.193851947784424 -2.4020309448242188
-2.972017765045166 -4.253890514373779 -2.4020309448242188
-2.886702299118042 -4.3122406005859375 -2.4020309448242188
-2.7126708030700684 -4.42378568649292 -2.4020309448242188
-2.5343151092529297 -4.528300762176514 -2.4020309448242188
-2.4436399936676025 -4.577891826629639 -2.4020309448242188
-2.2593798637390137 -4.671579360961914 -2.4020309448242188
-2.7240514755249023 -4.069265842437744 -2.4020309448242188
-2.4761743545532227 -4.224684238433838 -2.4020309448242188
-2.3915393352508545 -4.273162841796875 -2.4020309448242188
-2.3059520721435547 -4.319949150085449 -2.4020309448242188
-3.2860870361328125 -3.2619073390960693 -2.4020309448242188
-3.220463752746582 -3.3267087936401367 -2.4020309448242188
-3.0160460472106934 -3.5130953788757324 -2.4020309448242188
-2.945477247238159 -3.5724706649780273 -2.4020309448242188
-2.87373948097229 -3.6304283142089844 -2.4020309448242188
-2.498537540435791 -3.898165225982666 -2.4020309448242188
-2.098569393157959 -4.127274036407471 -2.4020309448242188
-2.015947103500366 -4.168252944946289 -2.4020309448242188
-3.05039119720459 -3.1510252952575684 -2.4020309448242188
-2.8567705154418945 -3.327568531036377 -2.4020309448242188
-2.7219786643981934 -3.4387054443359375 -2.4020309448242188
-2.5117626190185547 -3.595121383666992 -2.4020309448242188
-2.3665928840637207 -3.692302703857422 -2.4020309448242188
-2.217663526535034 -3.783626079559326 -2.4020309448242188
-2.065213680267334 -3.868947744369507 -2.4020309448242188
-2.893756151199341 -2.9892210960388184 -2.4020309448242188
-2.7724151611328125 -3.102097749710083 -2.4020309448242188
-2.710073232650757 -3.1566996574401855 -2.4020309448242188
-2.6466636657714844 -3.2100508213043213 -2.4020309448242188
-2.4502415657043457 -3.362379789352417 -2.4020309448242188
-2.3827855587005615 -3.4105143547058105 -2.4020309448242188
-2.3143858909606934 -3.4572954177856445 -2.4020309448242188
-2.1748571395874023 -3.546726703643799 -2.4020309448242188
-2.031877279281616 -3.6305272579193115 -2.4020309448242188
-1.811434268951416 -3.7453925609588623 -2.4020309448242188
