ply
format ascii 1.0
element vertex 379
property float x
property float y
property float z
end_header
30.44602394104004 11.333531379699707 5.728346347808838
31.157371520996094 12.320756912231445 5.907826900482178
30.71268081665039 13.604459762573242 5.922984600067139
33.01726531982422 15.430779457092285 6.426260948181152
31.095321655273438 18.564985275268555 6.385804176330566
32.93381881713867 21.513891220092773 6.9363603591918945
32.93381881713867 22.47627830505371 7.030601501464844
32.9338264465332 24.483808517456055 7.2360520362854
32.722801208496094 28.70676040649414 7.675507545471191
32.933841705322266 31.33535385131836 8.015686988830566
30.3861083984375 11.311230659484863 4.967042922973633
31.08504295349121 12.292157173156738 5.120857238769531
31.096385955810547 13.029277801513672 5.165054798126221
30.50175666809082 13.511028289794922 5.110599994659424
33.01726531982422 15.430779457092285 5.583191871643066
31.306346893310547 16.203428268432617 5.400267124176025
31.278709411621094 16.999143600463867 5.453661918640137
31.306352615356445 18.69097900390625 5.585696697235107
31.095321655273438 19.427900314331055 5.61695671081543
31.30635643005371 20.45075798034668 5.728572845458984
31.30636215209961 21.365591049194336 5.806405544281006
31.306365966796875 22.306015014648438 5.888818740844727
31.306365966796875 23.273916244506836 5.976081848144531
31.04375457763672 26.142778396606445 6.217427730560303
31.040014266967773 28.360727310180664 6.441115379333496
29.933603286743164 11.142781257629395 4.15928840637207
31.272727966308594 12.366374015808105 4.37919807434082
30.626171112060547 12.832260131835938 4.324094772338867
31.095321655273438 19.42790412902832 4.774618625640869
31.30635643005371 20.45075225830078 4.869494438171387
31.30636215209961 21.365591049194336 4.93565559387207
31.306365966796875 22.30602264404297 5.005711078643799
31.306365966796875 24.27134132385254 5.158432483673096
31.30637550354004 26.36393928527832 5.329750061035156
31.095346450805664 27.27904510498047 5.386584281921387
31.306381225585938 28.604101181030273 5.522167682647705
31.14493179321289 29.63327407836914 5.598190784454346
30.64032554626465 12.116300582885742 3.538116455078125
31.140737533569336 13.047863006591797 3.625612735748291
30.7480411529541 13.620122909545898 3.6112053394317627
30.569501876831055 17.42294692993164 3.778332471847534
30.56950569152832 18.25105857849121 3.823146343231201
30.56951141357422 19.09937858581543 3.870633363723755
30.48920249938965 21.72378158569336 4.0200300216674805
31.306371688842773 24.271352767944336 4.25370979309082
31.306386947631836 29.786893844604492 4.640269756317139
31.177509307861328 12.32872200012207 2.8381218910217285
30.67598533630371 12.853132247924805 2.8155407905578613
30.569501876831055 17.422943115234375 2.9785919189453125
30.56950569152832 18.251049041748047 3.0139195919036865
30.56951141357422 19.09937858581543 3.051356077194214
30.569515228271484 21.781002044677734 3.177478075027466
30.489208221435547 23.637813568115234 3.265817880630493
30.569530487060547 25.743417739868164 3.3831682205200195
30.569536209106445 27.930858612060547 3.50531005859375
31.766586303710938 11.82511043548584 2.1019110679626465
30.736040115356445 12.8782958984375 2.0664937496185303
30.432373046875 13.480294227600098 2.063972234725952
32.36566162109375 15.126251220703125 2.215374231338501
30.730947494506836 15.126254081726074 2.1239736080169678
30.569501876831055 15.822054862976074 2.134481191635132
30.569501876831055 16.613706588745117 2.1574866771698
30.569501876831055 17.422945022583008 2.181894540786743
30.56950569152832 18.251056671142578 2.207772731781006
30.56951141357422 19.09938621520996 2.235196113586426
30.489198684692383 20.807905197143555 2.288978338241577
30.569520950317383 21.781005859375 2.327583074569702
30.489208221435547 23.63780403137207 2.3922946453094482
30.56952476501465 24.705062866210938 2.4372782707214355
30.569530487060547 25.74342155456543 2.478256940841675
30.569536209106445 27.93086051940918 2.5677294731140137
31.392528533935547 11.685869216918945 1.3208216428756714
34.14817428588867 15.126246452331543 1.4726841449737549
30.7309513092041 15.126255989074707 1.3505882024765015
30.48918914794922 17.377172470092773 1.383773922920227
30.489192962646484 18.203105926513672 1.4001859426498413
30.48920249938965 20.807905197143555 1.4555078744888306
30.48920249938965 21.723783493041992 1.4761701822280884
30.489208221435547 23.6378116607666 1.5212080478668213
30.489208221435547 24.64015769958496 1.545738697052002
30.489213943481445 25.67578887939453 1.571729302406311
30.48921775817871 26.747304916381836 1.5992714166641235
30.48922348022461 27.857473373413086 1.6284724473953247
30.48922348022461 29.0093936920166 1.6594499349594116
31.123891830444336 12.307517051696777 0.5653501749038696
34.14817810058594 15.126246452331543 0.6308802366256714
30.48918342590332 15.78048324584961 0.579910397529602
30.48918914794922 17.37717056274414 0.5927919149398804
30.489192962646484 19.04920196533203 0.6072736978530884
30.489198684692383 20.807905197143555 0.623524010181427
30.489213943481445 25.675790786743164 0.6733101010322571
30.48921775817871 26.7473087310791 0.6851090788841248
30.48922348022461 27.857479095458984 0.6976179480552673
34.35435485839844 12.788408279418945 -0.20638808608055115
34.354366302490234 14.39436149597168 -0.2097138911485672
34.1481819152832 15.126246452331543 -0.21027755737304688
32.365657806396484 15.126249313354492 -0.20114272832870483
31.157480239868164 16.933258056640625 -0.19965560734272003
31.157480239868164 17.758060455322266 -0.2019142061471939
31.157489776611328 19.466747283935547 -0.20684707164764404
31.157493591308594 21.263994216918945 -0.21238204836845398
31.157499313354492 23.163246154785156 -0.21858841180801392
30.48922348022461 27.85747718811035 -0.23252379894256592
30.50557518005371 29.02495002746582 -0.23707275092601776
34.35435485839844 12.788406372070312 -1.0321900844573975
34.354366302490234 14.394359588623047 -1.0488224029541016
34.14817428588867 15.126246452331543 -1.051646113395691
31.157480239868164 16.933256149291992 -0.9985186457633972
31.157480239868164 17.758058547973633 -1.0098148584365845
31.15748405456543 18.60209846496582 -1.021791696548462
31.157489776611328 19.466739654541016 -1.034483790397644
31.157493591308594 21.26399040222168 -1.0621659755706787
31.157508850097656 26.23857307434082 -1.146976351737976
31.4769287109375 29.94915199279785 -1.2234022617340088
30.740468978881836 12.155899047851562 -1.6764440536499023
32.36565399169922 15.126249313354492 -1.8118131160736084
30.48918342590332 15.780484199523926 -1.7410691976547241
31.157480239868164 16.93325424194336 -1.7984081506729126
31.157480239868164 17.75806427001953 -1.8187540769577026
31.157489776611328 20.353511810302734 -1.8873984813690186
31.157493591308594 21.263996124267578 -1.9130419492721558
31.157499313354492 23.163246154785156 -1.9689462184906006
31.157508850097656 26.23857879638672 -2.0657920837402344
30.918704986572266 27.12407684326172 -2.085880994796753
30.48922348022461 27.857479095458984 -2.0944695472717285
28.29770851135254 11.856642723083496 -2.2496166229248047
27.247909545898438 14.10287857055664 -2.2496156692504883
26.655807495117188 15.192355155944824 -2.2496156692504883
26.343366622924805 15.727903366088867 -2.2496156692504883
26.020164489746094 16.25701904296875 -2.2496156692504883
24.820520401000977 18.45218276977539 -2.267707347869873
24.813827514648438 19.237775802612305 -2.3021490573883057
24.184906005859375 22.097328186035156 -2.4020156860351562
23.73345375061035 22.581518173217773 -2.4020156860351562
23.447797775268555 8.728437423706055 -2.4020156860351562
23.075963973999023 9.668746948242188 -2.4020156860351562
22.87588119506836 10.133073806762695 -2.4020156860351562
22.44774627685547 11.049134254455566 -2.4020156860351562
22.21988868713379 11.500494003295898 -2.4020156860351562
21.982954025268555 11.947144508361816 -2.4020156860351562
21.482255935668945 12.825653076171875 -2.4020156860351562
21.218698501586914 13.257134437561035 -2.4020156860351562
20.94647216796875 13.683201789855957 -2.4020156860351562
20.37647819519043 14.518394470214844 -2.4020156860351562
19.137651443481445 16.1163330078125 -2.4020156860351562
18.470794677734375 16.876441955566406 -2.4020156860351562
18.804555892944336 7.4360032081604 -2.4020180702209473
18.65043830871582 7.814473628997803 -2.402017831802368
18.488727569580078 8.189750671386719 -2.402017831802368
17.95854377746582 9.294923782348633 -2.40201735496521
17.767053604125977 9.655920028686523 -2.40201735496521
17.568302154541016 10.012970924377441 -2.4020166397094727
16.70241355895996 11.3988618850708 -2.4020156860351562
15.981085777282715 12.389892578125 -2.4020156860351562
15.201025009155273 13.335416793823242 -2.4020156860351562
15.35821533203125 7.17773962020874 -2.4020204544067383
15.210039138793945 7.486616611480713 -2.4020192623138428
15.055636405944824 7.792444705963135 -2.4020192623138428
14.72847843170166 8.394426345825195 -2.4020190238952637
14.555831909179688 8.690342903137207 -2.4020190238952637
14.37725830078125 8.982701301574707 -2.4020187854766846
14.19279956817627 9.271389961242676 -2.402017593383789
13.806574821472168 9.837286949157715 -2.4020156860351562
13.397814750671387 10.387115478515625 -2.4020156860351562
13.185185432434082 10.655735969543457 -2.4020156860351562
12.281716346740723 11.685603141784668 -2.4020156860351562
13.448009490966797 5.634668827056885 -2.402022123336792
13.331400871276855 5.905264854431152 -2.402022123336792
13.209345817565918 6.1734538078308105 -2.402022123336792
12.811037063598633 6.962453842163086 -2.402022361755371
12.66772174835205 7.219910621643066 -2.402021646499634
12.519240379333496 7.474417686462402 -2.4020204544067383
12.043366432189941 8.219209671020508 -2.40201997756958
11.87481689453125 8.460895538330078 -2.40201997756958
11.701416015625 8.699115753173828 -2.4020183086395264
11.523237228393555 8.933785438537598 -2.402017116546631
11.340349197387695 9.164815902709961 -2.4020161628723145
10.960763931274414 9.615556716918945 -2.4020156860351562
10.76422119140625 9.835081100463867 -2.4020156860351562
10.563276290893555 10.050582885742188 -2.4020156860351562
11.976496696472168 4.458252429962158 -2.4020228385925293
11.577399253845215 5.410755634307861 -2.4020228385925293
11.4656982421875 5.6435980796813965 -2.4020230770111084
11.349313735961914 5.874139785766602 -2.4020230770111084
11.102692604064941 6.3279290199279785 -2.4020233154296875
10.972553253173828 6.550995349884033 -2.4020233154296875
10.837936401367188 6.771383285522461 -2.4020233154296875
10.099614143371582 7.830074310302734 -2.4020211696624756
9.939323425292969 8.032562255859375 -2.4020209312438965
9.606547355651855 8.427592277526855 -2.402017831802368
10.649606704711914 3.9643163681030273 -2.4020235538482666
10.567326545715332 4.178704738616943 -2.4020235538482666
10.480730056762695 4.391388893127441 -2.4020235538482666
10.294729232788086 4.8112921714782715 -2.4020237922668457
10.195402145385742 5.018337726593018 -2.4020237922668457
10.091914176940918 5.223337173461914 -2.4020237922668457
9.513551712036133 6.214690208435059 -2.402024030685425
9.386025428771973 6.405663967132568 -2.402024269104004
9.254670143127441 6.594022274017334 -2.402024269104004
9.11953353881836 6.779685020446777 -2.402024269104004
8.98067569732666 6.962579250335693 -2.402024269104004
8.838147163391113 7.142635822296143 -2.402024269104004
8.389130592346191 7.665002346038818 -2.402021646499634
9.426382064819336 3.9496209621429443 -2.402024269104004
9.344643592834473 4.13929557800293 -2.402024269104004
9.259089469909668 4.327281951904297 -2.402024269104004
9.076679229736328 4.697876453399658 -2.402024269104004
8.556496620178223 5.589499473571777 -2.402024507522583
8.323659896850586 5.930670738220215 -2.402024745941162
8.202118873596191 6.09765625 -2.402024745941162
7.949038028717041 6.424097537994385 -2.402024745941162
7.817602157592773 6.583410263061523 -2.402024984359741
7.682973384857178 6.740049362182617 -2.4020259380340576
7.545205116271973 6.893928050994873 -2.402026891708374
7.404365062713623 7.044985294342041 -2.402027130126953
8.694314002990723 3.2364635467529297 -2.402024507522583
8.556442260742188 3.5851244926452637 -2.402024745941162
8.404592514038086 3.927931547164917 -2.402024745941162
8.323505401611328 4.09696102142334 -2.402024745941162
8.059985160827637 4.593748569488525 -2.402024745941162
7.965505123138428 4.755688190460205 -2.402024984359741
7.867780685424805 4.915683269500732 -2.402024984359741
7.555497646331787 5.383246421813965 -2.402026653289795
7.445176601409912 5.53492546081543 -2.4020276069641113
7.331813812255859 5.684304714202881 -2.4020280838012695
7.215452671051025 5.831240177154541 -2.402028799057007
6.973945140838623 6.118037700653076 -2.4020297527313232
7.951859951019287 2.9600799083709717 -2.402024984359741
7.612719535827637 3.747100830078125 -2.402026414871216
7.371697902679443 4.2014641761779785 -2.4020280838012695
7.195914268493652 4.495901584625244 -2.402028799057007
7.103599548339844 4.640398979187012 -2.402029275894165
6.910297870635986 4.923638820648193 -2.4020299911499023
6.264025688171387 5.723332405090332 -2.4020309448242188
7.262292385101318 2.871774911880493 -2.4020285606384277
7.140326976776123 3.162872791290283 -2.402029037475586
7.074954509735107 3.3065147399902344 -2.402029275894165
7.006696701049805 3.448805570602417 -2.4020297527313232
6.861618518829346 3.7291064262390137 -2.4020302295684814
6.784862995147705 3.8670012950897217 -2.4020302295684814
6.623071193695068 4.137998580932617 -2.4020304679870605
6.450459957122803 4.402233600616455 -2.4020309448242188
6.360186576843262 4.531613826751709 -2.4020309448242188
6.26731538772583 4.659276008605957 -2.4020309448242188
5.973500728607178 5.030446529388428 -2.4020309448242188
5.870628356933594 5.1501312255859375 -2.4020309448242188
5.765357494354248 5.267709255218506 -2.4020309448242188
5.657736778259277 5.383131980895996 -2.4020309448242188
6.772205829620361 2.520951986312866 -2.4020302295684814
6.719882488250732 2.65728759765625 -2.4020304679870605
6.607025146484375 2.926697254180908 -2.4020307064056396
6.546535491943359 3.059556245803833 -2.4020307064056396
6.483375072479248 3.191218852996826 -2.4020307064056396
6.417565822601318 3.321580648422241 -2.4020309448242188
6.278110027313232 3.5781798362731934 -2.4020309448242188
6.204521179199219 3.7043144702911377 -2.4020309448242188
6.049777507781982 3.9519920349121094 -2.4020309448242188
5.885149955749512 4.193212985992432 -2.4020309448242188
5.799217224121094 4.311279296875 -2.4020309448242188
5.710914134979248 4.427583694458008 -2.4020309448242188
5.620276927947998 4.542083263397217 -2.4020309448242188
5.527347087860107 4.654726028442383 -2.4020309448242188
5.334749698638916 4.874268054962158 -2.4020309448242188
5.235166072845459 4.9810709953308105 -2.4020309448242188
6.246313571929932 2.470019578933716 -2.4020309448242188
6.195125579833984 2.5957372188568115 -2.4020309448242188
6.141409873962402 2.720392942428589 -2.4020309448242188
6.085183143615723 2.843939781188965 -2.4020309448242188
6.026473045349121 2.966323137283325 -2.4020309448242188
5.9653000831604 3.0875256061553955 -2.4020309448242188
5.901690483093262 3.2074100971221924 -2.4020309448242188
5.835672378540039 3.3260138034820557 -2.4020309448242188
5.76726770401001 3.4432597160339355 -2.4020309448242188
5.696513652801514 3.5590977668762207 -2.4020309448242188
5.548050403594971 3.786367654800415 -2.4020309448242188
5.390528678894043 4.007449150085449 -2.4020309448242188
5.308449745178223 4.11555814743042 -2.4020309448242188
5.137815952301025 4.326693534851074 -2.4020309448242188
4.958795070648193 4.530761241912842 -2.4020309448242188
4.866228103637695 4.630038738250732 -2.4020309448242188
5.87425422668457 2.1866917610168457 -2.4020309448242188
5.781099796295166 2.4222617149353027 -2.4020309448242188
5.678504467010498 2.653876781463623 -2.4020309448242188
5.62371826171875 2.7680816650390625 -2.4020309448242188
5.566634178161621 2.8811583518981934 -2.4020309448242188
5.50727653503418 2.9931108951568604 -2.4020309448242188
5.445667743682861 3.103733539581299 -2.4020309448242188
5.381838321685791 3.213144540786743 -2.4020309448242188
5.104813098907471 3.6372179985046387 -2.4020309448242188
5.0302734375 3.739628314971924 -2.4020309448242188
4.953680515289307 3.84051251411438 -2.4020309448242188
4.875061988830566 3.939828395843506 -2.4020309448242188
4.711883544921875 4.133598327636719 -2.4020309448242188
4.62739372253418 4.22797155380249 -2.4020309448242188
5.500263690948486 2.0474884510040283 -2.4020309448242188
5.413040637969971 2.26804518699646 -2.4020309448242188
5.366106033325195 2.376964569091797 -2.4020309448242188
5.212230205535889 2.6977269649505615 -2.4020309448242188
5.156651496887207 2.8025012016296387 -2.4020309448242188
4.977374076843262 3.10978627204895 -2.4020309448242188
4.779810905456543 3.405651807785034 -2.4020309448242188
4.710018157958984 3.501542329788208 -2.4020309448242188
4.638299465179443 3.5960028171539307 -2.4020309448242188
4.411898136138916 3.870429039001465 -2.4020309448242188
4.332784175872803 3.958791494369507 -2.4020309448242188
4.25190544128418 4.045535087585449 -2.4020309448242188
5.165289402008057 1.9227787256240845 -2.4020309448242188
5.125380516052246 2.026761770248413 -2.4020309448242188
5.039301872253418 2.2322046756744385 -2.4020309448242188
4.993166446685791 2.3335773944854736 -2.4020309448242188
4.894795894622803 2.5334312915802 -2.4020309448242188
4.842602252960205 2.631824254989624 -2.4020309448242188
4.788431167602539 2.729144334793091 -2.4020309448242188
4.674245357513428 2.9203996658325195 -2.4020309448242188
4.614277362823486 3.014258861541748 -2.4020309448242188
4.423171520233154 3.288292169570923 -2.4020309448242188
4.215809345245361 3.550246477127075 -2.4020309448242188
4.143206596374512 3.634714365005493 -2.4020309448242188
3.9929587841033936 3.799156427383423 -2.4020309448242188
4.863239765167236 1.8103410005569458 -2.4020309448242188
4.825664043426514 1.9082437753677368 -2.4020309448242188
4.744620323181152 2.1016721725463867 -2.4020309448242188
4.608564376831055 2.385284185409546 -2.4020309448242188
4.559421062469482 2.4779245853424072 -2.4020309448242188
4.455574989318848 2.66013240814209 -2.4020309448242188
4.344447135925293 2.837994337081909 -2.4020309448242188
4.226227760314941 3.011218786239624 -2.4020309448242188
4.101104736328125 3.1795244216918945 -2.4020309448242188
4.036016941070557 3.2617480754852295 -2.4020309448242188
3.96928334236145 3.3426403999328613 -2.4020309448242188
3.830975294113159 3.5002965927124023 -2.4020309448242188
4.553763389587402 1.8007240295410156 -2.4020309448242188
4.477283954620361 1.983253836631775 -2.4020309448242188
4.436294078826904 2.0733234882354736 -2.4020309448242188
4.393492221832275 2.162545680999756 -2.4020309448242188
4.348892688751221 2.2508857250213623 -2.4020309448242188
4.302520751953125 2.338304281234741 -2.4020309448242188
4.15294075012207 2.594696044921875 -2.4020309448242188
3.9298667907714844 2.9215593338012695 -2.4020309448242188
3.870028018951416 3.0003740787506104 -2.4020309448242188
3.8086071014404297 3.077965021133423 -2.4020309448242188
3.745633363723755 3.1542985439300537 -2.4020309448242188
3.6151182651519775 3.303072452545166 -2.4020309448242188
4.305737018585205 1.7026454210281372 -2.4020309448242188
4.270452976226807 1.7893046140670776 -2.4020309448242188
4.194666862487793 1.9603971242904663 -2.4020309448242188
4.154194355010986 2.044759511947632 -2.4020309448242188
4.112027645111084 2.128288745880127 -2.4020309448242188
4.068179607391357 2.210947275161743 -2.4020309448242188
3.9755210876464844 2.3735239505767822 -2.4020309448242188
3.876368284225464 2.532222270965576 -2.4020309448242188
3.8244078159332275 2.6100358963012695 -2.4020309448242188
3.715822696685791 2.7624340057373047 -2.4020309448242188
3.601168155670166 2.9103198051452637 -2.4020309448242188
3.480628490447998 3.053454637527466 -2.4020309448242188
3.4182164669036865 3.12316632270813 -2.4020309448242188
4.110105991363525 1.529986023902893 -2.4020309448242188
4.0098557472229 1.7762025594711304 -2.4020309448242188
3.97314453125 1.8568689823150635 -2.4020309448242188
3.9348106384277344 1.9367762804031372 -2.4020309448242188
3.8533384799957275 2.094187021255493 -2.4020309448242188
3.7193737030029297 2.3238110542297363 -2.4020309448242188
3.671656370162964 2.398495674133301 -2.4020309448242188
3.571744203567505 2.5448944568634033 -2.4020309448242188
3.465998411178589 2.6871354579925537 -2.4020309448242188
3.177264451980591 3.0230510234832764 -2.4020309448242188
3.8990538120269775 1.451423168182373 -2.4020309448242188
3.868929386138916 1.5299149751663208 -2.4020309448242188
3.8039512634277344 1.6849939823150635 -2.4020309448242188
3.769124746322632 1.7615195512771606 -2.4020309448242188
3.694871664047241 1.9123786687850952 -2.4020309448242188
3.655471086502075 1.9866504669189453 -2.4020309448242188
3.5722131729125977 2.132735013961792 -2.4020309448242188
3.528386116027832 2.2044835090637207 -2.4020309448242188
3.436429262161255 2.3452529907226562 -2.4020309448242188
3.2880210876464844 2.549152374267578 -2.4020309448242188
3.1823315620422363 2.6799278259277344 -2.4020309448242188
3.071446418762207 2.8063268661499023 -2.4020309448242188
3.014113664627075 2.8678197860717773 -2.4020309448242188
