ply
format ascii 1.0
element vertex 230
property float x
property float y
property float z
end_header
-39.912967681884766 -21.423837661743164 -0.25504377484321594
-39.667823791503906 -20.27109146118164 -1.2543493509292603
-39.592018127441406 -21.251564025878906 -1.2652698755264282
-39.72309494018555 -23.43595314025879 -1.2986867427825928
-44.96998977661133 -9.577863693237305 -2.331773042678833
-43.19163131713867 -10.115131378173828 -2.2496986389160156
-42.73280715942383 -11.84702205657959 -2.2489049434661865
-41.90974426269531 -12.53566837310791 -2.218463897705078
-41.17768478393555 -14.152138710021973 -2.208188772201538
-40.88502502441406 -14.981481552124023 -2.20827317237854
-40.575984954833984 -15.804912567138672 -2.2083754539489746
-40.25069808959961 -16.622087478637695 -2.20849609375
-39.90927505493164 -17.43273162841797 -2.208634376525879
-38.789520263671875 -19.82225227355957 -2.2091572284698486
-37.96483612060547 -21.376874923706055 -2.2095947265625
-37.52909469604492 -22.141525268554688 -2.209815740585327
-36.70227813720703 -22.665252685546875 -2.1876437664031982
-32.17251205444336 -6.175718784332275 -2.4020309448242188
-32.041263580322266 -6.8242645263671875 -2.4020309448242188
-31.569232940673828 -8.752090454101562 -2.4020309448242188
-31.385875701904297 -9.387914657592773 -2.4020309448242188
-29.01607322692871 -9.972380638122559 -2.249664783477783
-28.595966339111328 -11.138529777526855 -2.2501609325408936
-27.935102462768555 -12.202470779418945 -2.235173463821411
-27.504150390625 -12.681625366210938 -2.220714569091797
-27.264354705810547 -13.245169639587402 -2.2224957942962646
-26.992929458618164 -13.793949127197266 -2.222630262374878
-23.183950424194336 -12.444303512573242 -1.9293009042739868
-26.417457580566406 -14.874884605407715 -2.2229363918304443
-26.113656997680664 -15.406600952148438 -2.2231080532073975
-20.167865753173828 -12.454530715942383 -1.737994909286499
-24.471017837524414 -5.211918830871582 -2.4020309448242188
-24.36066436767578 -5.705077171325684 -2.4020309448242188
-24.240629196166992 -6.195953369140625 -2.4020309448242188
-23.970516204833984 -7.169854164123535 -2.4020309448242188
-23.49236297607422 -8.608305931091309 -2.4020309448242188
-22.06314468383789 -9.637381553649902 -2.311432123184204
-20.867300033569336 -10.663649559020996 -2.24979305267334
-20.655765533447266 -11.087267875671387 -2.2506721019744873
-20.437376022338867 -11.507678985595703 -2.251746416091919
-20.190921783447266 -11.912298202514648 -2.250649929046631
-19.80957794189453 -12.233382225036621 -2.235252857208252
-19.858949661254883 -3.8120498657226562 -2.4020309448242188
-19.777908325195312 -4.212367534637451 -2.4020309448242188
-19.688800811767578 -4.610958099365234 -2.4020309448242188
-19.591655731201172 -5.007676124572754 -2.4020309448242188
-19.486492156982422 -5.402338027954102 -2.4020309448242188
-19.373273849487305 -5.794797897338867 -2.4020309448242188
-18.986955642700195 -6.9573845863342285 -2.4020309448242188
-18.84256362915039 -7.339445114135742 -2.4020309448242188
-18.363525390625 -8.467031478881836 -2.4020309448242188
-18.18876838684082 -8.836200714111328 -2.4020309448242188
-16.380735397338867 -9.66528034210205 -2.2594237327575684
-16.580902099609375 -3.5314574241638184 -2.4020309448242188
-16.424753189086914 -4.198207855224609 -2.4020309448242188
-16.14037322998047 -5.185147762298584 -2.4020309448242188
-15.917802810668945 -5.832754611968994 -2.4020309448242188
-15.796749114990234 -6.153056621551514 -2.4020309448242188
-15.669260025024414 -6.47083854675293 -2.4020309448242188
-15.535370826721191 -6.785991668701172 -2.4020309448242188
-15.395146369934082 -7.098374366760254 -2.4020309448242188
-15.248636245727539 -7.407869815826416 -2.4020309448242188
-14.319381713867188 -2.74869441986084 -2.4020309448242188
-14.196694374084473 -3.3247501850128174 -2.4020309448242188
-14.1266450881958 -3.6108059883117676 -2.4020309448242188
-13.69062614440918 -5.016651630401611 -2.4020309448242188
-13.586478233337402 -5.292134761810303 -2.4020309448242188
-13.361703872680664 -5.836513996124268 -2.4020309448242188
-13.11508846282959 -6.371379375457764 -2.4020309448242188
-12.983735084533691 -6.634958744049072 -2.4020309448242188
-12.847067832946777 -6.895846366882324 -2.4020309448242188
-12.705182075500488 -7.153909683227539 -2.4020309448242188
-12.55810260772705 -7.409064292907715 -2.4020309448242188
-12.405906677246094 -7.661182880401611 -2.4020309448242188
-12.442757606506348 -2.9139933586120605 -2.4020309448242188
-12.381364822387695 -3.164708137512207 -2.4020309448242188
-12.085572242736816 -4.153626441955566 -2.4020309448242188
-11.605229377746582 -5.350924968719482 -2.4020309448242188
-11.135526657104492 -6.270082473754883 -2.4020309448242188
-11.159829139709473 -2.1421985626220703 -2.4020309448242188
-11.114293098449707 -2.367159128189087 -2.4020309448242188
-11.009621620178223 -2.814086437225342 -2.4020309448242188
-10.66981315612793 -3.9097344875335693 -2.4020309448242188
-10.588666915893555 -4.124434947967529 -2.4020309448242188
-10.413466453552246 -4.548701286315918 -2.4020309448242188
-10.319472312927246 -4.758088111877441 -2.4020309448242188
-10.0123872756958 -5.374288082122803 -2.4020309448242188
-9.901795387268066 -5.575409412384033 -2.4020309448242188
-9.996200561523438 -2.129025459289551 -2.4020309448242188
-9.951175689697266 -2.330481767654419 -2.4020309448242188
-9.902064323425293 -2.530992031097412 -2.4020309448242188
-9.848926544189453 -2.7304649353027344 -2.4020309448242188
-9.730620384216309 -3.125993013381958 -2.4020309448242188
-9.596437454223633 -3.516418933868408 -2.4020309448242188
-9.52346134185791 -3.709520101547241 -2.4020309448242188
-9.44659423828125 -3.901103973388672 -2.4020309448242188
-9.365880012512207 -4.091101169586182 -2.4020309448242188
-9.100940704345703 -4.650770664215088 -2.4020309448242188
-9.005154609680176 -4.833638668060303 -2.4020309448242188
-8.69590950012207 -5.370100975036621 -2.4020309448242188
-9.032793045043945 -2.1154072284698486 -2.4020309448242188
-8.988235473632812 -2.2974143028259277 -2.4020309448242188
-8.939990043640137 -2.4784772396087646 -2.4020309448242188
-8.832612037658691 -2.8375051021575928 -2.4020309448242188
-8.64456844329834 -3.367180109024048 -2.4020309448242188
-8.574798583984375 -3.5410826206207275 -2.4020309448242188
-8.344618797302246 -4.053860187530518 -2.4020309448242188
-7.9902215003967285 -4.7140936851501465 -2.4020309448242188
-7.893387317657471 -4.874510288238525 -2.4020309448242188
-8.298789978027344 -1.7675122022628784 -2.4020309448242188
-8.176546096801758 -2.2668240070343018 -2.4020309448242188
-8.129106521606445 -2.431506872177124 -2.4020309448242188
-8.078338623046875 -2.5951924324035645 -2.4020309448242188
-8.024267196655273 -2.7578184604644775 -2.4020309448242188
-7.906352519989014 -3.07963490486145 -2.4020309448242188
-7.8425421714782715 -3.238687753677368 -2.4020309448242188
-7.775530815124512 -3.3964223861694336 -2.4020309448242188
-7.555573463439941 -3.86106014251709 -2.4020309448242188
-7.393481731414795 -4.163049697875977 -2.4020309448242188
-7.307888031005859 -4.311527252197266 -2.4020309448242188
-7.669468879699707 -1.4722024202346802 -2.4020309448242188
-7.603792667388916 -1.7807378768920898 -2.4020309448242188
-7.566246032714844 -1.933949589729309 -2.4020309448242188
-7.481963157653809 -2.2379400730133057 -2.4020309448242188
-7.435244083404541 -2.388594627380371 -2.4020309448242188
-7.332705497741699 -2.6869215965270996 -2.4020309448242188
-7.024452209472656 -3.412515163421631 -2.4020309448242188
-6.954097747802734 -3.5536885261535645 -2.4020309448242188
-6.72612190246582 -3.968297004699707 -2.4020309448242188
-6.64460563659668 -4.103332996368408 -2.4020309448242188
-7.09664249420166 -1.3622448444366455 -2.4020309448242188
-7.067681789398193 -1.5052990913391113 -2.4020309448242188
-7.001036643981934 -1.7895044088363647 -2.4020309448242188
-6.963551998138428 -1.9305390119552612 -2.4020309448242188
-6.879905700683594 -2.2101919651031494 -2.4020309448242188
-6.785039901733398 -2.486237049102783 -2.4020309448242188
-6.434699058532715 -3.2882657051086426 -2.4020309448242188
-6.296647071838379 -3.5454559326171875 -2.4020309448242188
-6.223751068115234 -3.671907901763916 -2.4020309448242188
-6.596520900726318 -1.2662431001663208 -2.4020309448242188
-6.569606304168701 -1.3992173671722412 -2.4020309448242188
-6.507711410522461 -1.6633925437927246 -2.4020309448242188
-6.472815990447998 -1.7944880723953247 -2.4020309448242188
-6.435262203216553 -1.92485511302948 -2.4020309448242188
-6.39508056640625 -2.0544345378875732 -2.4020309448242188
-6.352258205413818 -2.1831748485565186 -2.4020309448242188
-6.306878566741943 -2.311025381088257 -2.4020309448242188
-6.258914470672607 -2.4379327297210693 -2.4020309448242188
-5.918276309967041 -3.1767165660858154 -2.4020309448242188
-5.7851481437683105 -3.4131383895874023 -2.4020309448242188
-6.040290355682373 -1.6745610237121582 -2.4020309448242188
-5.885376930236816 -2.1565771102905273 -2.4020309448242188
-5.743978977203369 -2.5090224742889404 -2.4020309448242188
-5.69213342666626 -2.6245219707489014 -2.4020309448242188
-5.637964725494385 -2.738953113555908 -2.4020309448242188
-5.581498146057129 -2.8522632122039795 -2.4020309448242188
-5.522749900817871 -2.964411497116089 -2.4020309448242188
-5.398523330688477 -3.185035228729248 -2.4020309448242188
-5.333094596862793 -3.29341721534729 -2.4020309448242188
-5.763762474060059 -1.1063898801803589 -2.4020309448242188
-5.714375019073486 -1.3382607698440552 -2.4020309448242188
-5.686183929443359 -1.4534026384353638 -2.4020309448242188
-5.655670166015625 -1.567948579788208 -2.4020309448242188
-5.58776330947876 -1.7950773239135742 -2.4020309448242188
-5.378289699554443 -2.349283218383789 -2.4020309448242188
-5.279016494750977 -2.5645751953125 -2.4020309448242188
-5.171138286590576 -2.7756805419921875 -2.4020309448242188
-5.0548200607299805 -2.98225736618042 -2.4020309448242188
-5.412741661071777 -1.0390093326568604 -2.4020309448242188
-5.390655994415283 -1.148120403289795 -2.4020309448242188
-5.31123161315918 -1.4724581241607666 -2.4020309448242188
-5.247434616088867 -1.6857552528381348 -2.4020309448242188
-5.2122721672058105 -1.7913932800292969 -2.4020309448242188
-5.175031661987305 -1.8962997198104858 -2.4020309448242188
-5.135730266571045 -2.0004336833953857 -2.4020309448242188
-5.094264507293701 -2.103748321533203 -2.4020309448242188
-5.050737380981445 -2.2062108516693115 -2.4020309448242188
-4.856209754943848 -2.606637716293335 -2.4020309448242188
-4.802570819854736 -2.7041854858398438 -2.4020309448242188
-4.689442157745361 -2.895934581756592 -2.4020309448242188
-5.0754265785217285 -1.080981731414795 -2.4020309448242188
-4.835377216339111 -1.8834551572799683 -2.4020309448242188
-4.6676201820373535 -2.2675540447235107 -2.4020309448242188
-4.620864391326904 -2.361361026763916 -2.4020309448242188
-4.809075355529785 -0.92313152551651 -2.4020309448242188
-4.78945255279541 -1.0200740098953247 -2.4020309448242188
-4.76786994934082 -1.1165964603424072 -2.4020309448242188
-4.691500663757324 -1.4032808542251587 -2.4020309448242188
-4.662205219268799 -1.4977484941482544 -2.4020309448242188
-4.631001949310303 -1.591604471206665 -2.4020309448242188
-4.5979108810424805 -1.684812068939209 -2.4020309448242188
-4.526145935058594 -1.8691238164901733 -2.4020309448242188
-4.487452507019043 -1.960156798362732 -2.4020309448242188
-4.446943283081055 -2.0503904819488525 -2.4020309448242188
-4.314608573913574 -2.315927267074585 -2.4020309448242188
-4.21755838394165 -2.4882872104644775 -2.4020309448242188
-4.166442394256592 -2.5729598999023438 -2.4020309448242188
-4.54714298248291 -0.8728523254394531 -2.4020309448242188
-4.52858829498291 -0.9645141363143921 -2.4020309448242188
-4.461864948272705 -1.2369844913482666 -2.4020309448242188
-4.435972690582275 -1.3268499374389648 -2.4020309448242188
-4.408268928527832 -1.4161709547042847 -2.4020309448242188
-4.314461708068848 -1.6805267333984375 -2.4020309448242188
-4.279574394226074 -1.7673200368881226 -2.4020309448242188
-4.243030071258545 -1.8533962965011597 -2.4020309448242188
-4.20473575592041 -1.9387133121490479 -2.4020309448242188
-4.12300443649292 -2.106943368911743 -2.4020309448242188
-4.079609394073486 -2.189786672592163 -2.4020309448242188
-3.987846612930298 -2.352759838104248 -2.4020309448242188
-4.270105361938477 -1.0000239610671997 -2.4020309448242188
-4.20170783996582 -1.2567784786224365 -2.4020309448242188
-4.175468444824219 -1.3413829803466797 -2.4020309448242188
-4.117889404296875 -1.5089168548583984 -2.4020309448242188
-4.086574554443359 -1.59177827835083 -2.4020309448242188
-4.053615570068359 -1.673987865447998 -2.4020309448242188
-3.982680559158325 -1.8363293409347534 -2.4020309448242188
-3.821486711502075 -2.1517653465270996 -2.4020309448242188
-4.0691752433776855 -0.8666666746139526 -2.4020309448242188
-4.050836563110352 -0.9486730694770813 -2.4020309448242188
-4.030852794647217 -1.030295729637146 -2.4020309448242188
-4.009221076965332 -1.1114953756332397 -2.4020309448242188
-3.934551239013672 -1.3522454500198364 -2.4020309448242188
-3.8767313957214355 -1.5100414752960205 -2.4020309448242188
-3.8454442024230957 -1.5880296230316162 -2.4020309448242188
-3.7781732082366943 -1.7420357465744019 -2.4020309448242188
-3.742216110229492 -1.8179888725280762 -2.4020309448242188
-3.704730749130249 -1.893198013305664 -2.4020309448242188
-3.665762186050415 -1.9676400423049927 -2.4020309448242188
-3.6252567768096924 -2.041273593902588 -2.4020309448242188
-3.539860248565674 -2.18601655960083 -2.4020309448242188
