ply
format ascii 1.0
element vertex 363
property float x
property float y
property float z
end_header
33.3342170715332 -15.047707557678223 6.448850631713867
33.3342170715332 -13.454744338989258 6.3384599685668945
33.33421325683594 -11.912934303283691 6.241792678833008
33.29405212402344 -10.402484893798828 6.150513648986816
33.33420944213867 -8.236355781555176 6.054479122161865
33.33420181274414 -6.820775032043457 5.999502658843994
33.33420181274414 -5.4284210205078125 5.955143928527832
33.33421325683594 -1.3417603969573975 5.882479190826416
33.33420944213867 1.3531407117843628 5.882559776306152
33.3342170715332 -15.047703742980957 5.602819919586182
33.3342170715332 -14.244338989257812 5.553315162658691
33.3342170715332 -12.677913665771484 5.463477611541748
33.33421325683594 -11.912930488586426 5.42292594909668
33.33420944213867 -8.95449161529541 5.287653923034668
33.33420181274414 -6.12200927734375 5.192019939422607
33.33420181274414 -4.739380359649658 5.157968521118164
33.29404067993164 -2.6903398036956787 5.117085933685303
33.33421325683594 -2.0168519020080566 5.11595344543457
33.33421325683594 -1.3417621850967407 5.110750675201416
33.33420944213867 0.6791337728500366 5.107674598693848
33.33420944213867 1.3531339168548584 5.1108198165893555
33.3342170715332 -15.047703742980957 4.762599945068359
33.3342170715332 -14.244338989257812 4.720520496368408
33.3342170715332 -13.454743385314941 4.681072235107422
33.3342170715332 -12.677908897399902 4.644156455993652
33.33421325683594 -11.912928581237793 4.609683513641357
33.29404830932617 -7.516263484954834 4.444687366485596
33.29404830932617 -6.114633083343506 4.408089637756348
33.29404830932617 -5.421881198883057 4.392690181732178
33.29404067993164 -4.049393653869629 4.367526531219482
33.29404067993164 -2.6903398036956787 4.349710464477539
33.2940559387207 -1.3401490449905396 4.339090347290039
33.29405212402344 -0.6669630408287048 4.33644962310791
33.29405212402344 0.0056681823916733265 4.335580348968506
33.29405212402344 1.3515043258666992 4.339150428771973
32.38992691040039 -15.416374206542969 3.8519561290740967
32.38992691040039 -13.840807914733887 3.7823314666748047
33.2940559387207 -13.438529014587402 3.8554210662841797
33.2940559387207 -11.898579597473145 3.7966246604919434
33.2940559387207 -11.145466804504395 3.7701799869537354
36.48776626586914 -11.400318145751953 4.104911804199219
36.48776626586914 -10.59627914428711 4.079996109008789
36.48777389526367 -9.801607131958008 4.05702543258667
36.48777389526367 -9.015524864196777 4.03594970703125
36.48777389526367 -8.237241744995117 4.0167236328125
36.48777770996094 -5.941957950592041 3.9697349071502686
36.4877815246582 -5.187731742858887 3.957524299621582
36.4877815246582 -3.6915881633758545 3.938124418258667
36.48776626586914 -2.2076337337493896 3.925285577774048
36.48776626586914 -1.4686830043792725 3.9212939739227295
36.48776626586914 -0.7309224009513855 3.9189066886901855
36.48672103881836 0.7433781027793884 3.918821334838867
36.48604965209961 1.4810960292816162 3.9211626052856445
32.38992691040039 -15.41637897491455 3.0366313457489014
32.38992691040039 -14.621413230895996 3.0083231925964355
33.5728759765625 -13.551054000854492 3.064815044403076
32.38992691040039 -15.416374206542969 2.224409341812134
33.572872161865234 -13.551054000854492 2.2450549602508545
37.69327163696289 -13.47074031829834 2.4821622371673584
40.48014450073242 -13.551054000854492 2.6471006870269775
32.38992691040039 -15.416378021240234 1.4144532680511475
32.38992691040039 -13.84080696105957 1.38888680934906
33.373897552490234 -13.470742225646973 1.4191205501556396
35.41887664794922 -13.470743179321289 1.4942002296447754
32.38992691040039 -15.416377067565918 0.6059352159500122
33.373905181884766 -13.470742225646973 0.6079344153404236
35.41887664794922 -13.470742225646973 0.6400974988937378
37.69325637817383 -13.470742225646973 0.6761442422866821
32.38992691040039 -15.416379928588867 -0.201964870095253
32.38992691040039 -14.62141227722168 -0.20008131861686707
32.38992691040039 -13.840807914733887 -0.1983201503753662
35.029598236083984 -14.139033317565918 -0.21268326044082642
37.176025390625 -14.139033317565918 -0.22393523156642914
38.987831115722656 -13.933388710021973 -0.2331056147813797
41.22276306152344 -13.799653053283691 -0.24475158751010895
32.38992691040039 -15.416375160217285 -1.0100637674331665
32.38992691040039 -13.84080696105957 -0.9918067455291748
35.029598236083984 -14.139033317565918 -1.0636723041534424
38.987831115722656 -13.933390617370605 -1.1658092737197876
32.38992691040039 -15.416378021240234 -1.8192031383514404
32.38992691040039 -14.621414184570312 -1.802243709564209
37.176025390625 -14.139033317565918 -2.0171091556549072
41.22276306152344 -13.799652099609375 -2.204610824584961
42.8719482421875 -11.516579627990723 -2.25130033493042
46.406494140625 -9.494757652282715 -2.4020309448242188
46.584877014160156 -8.555550575256348 -2.4020309448242188
46.748191833496094 -7.612849712371826 -2.4020309448242188
46.89242935180664 -6.667040824890137 -2.4020309448242188
47.01752853393555 -5.718500137329102 -2.4020309448242188
47.12342834472656 -4.767638206481934 -2.4020309448242188
47.21012496948242 -3.8148181438446045 -2.4020309448242188
47.277557373046875 -2.8604557514190674 -2.4020309448242188
47.35449981689453 -0.9486076235771179 -2.4020309448242188
28.21344757080078 -12.056100845336914 -2.2496273517608643
28.45124053955078 -11.483766555786133 -2.249629497528076
28.677406311035156 -10.906752586364746 -2.2496304512023926
31.460205078125 -9.136245727539062 -2.4020309448242188
31.63831901550293 -8.498923301696777 -2.4020309448242188
31.803544998168945 -7.858124256134033 -2.4020309448242188
31.95578956604004 -7.214114189147949 -2.4020309448242188
32.520320892333984 -3.9552807807922363 -2.4020309448242188
32.59357452392578 -3.2976021766662598 -2.4020309448242188
32.653568267822266 -2.6385715007781982 -2.4020309448242188
32.70016860961914 -1.978473424911499 -2.4020309448242188
32.733455657958984 -1.317568063735962 -2.4020309448242188
32.75996398925781 0.005591582972556353 -2.4020309448242188
32.75318908691406 0.6673069596290588 -2.4020309448242188
32.73301315307617 1.3287442922592163 -2.4020309448242188
22.803884506225586 -10.294095039367676 -2.402017831802368
23.385467529296875 -8.894110679626465 -2.402017593383789
23.560348510742188 -8.41994571685791 -2.40201735496521
23.72561264038086 -7.942335605621338 -2.40201735496521
23.881193161010742 -7.461495399475098 -2.40201735496521
24.163070678710938 -6.490859031677246 -2.40201735496521
24.405542373657227 -5.509634494781494 -2.40201735496521
24.511825561523438 -5.0155439376831055 -2.40201735496521
24.608131408691406 -4.519402980804443 -2.40201735496521
24.69439697265625 -4.02142858505249 -2.402017116546631
24.770587921142578 -3.5218124389648438 -2.402017116546631
24.892616271972656 -2.5184690952301025 -2.402017116546631
24.938411712646484 -2.015151262283325 -2.402017116546631
24.974027633666992 -1.51101553440094 -2.402017116546631
24.999452590942383 -1.006264328956604 -2.402017116546631
25.014678955078125 -0.5010954141616821 -2.402017116546631
25.01970100402832 0.004270782228559256 -2.402017116546631
24.999113082885742 1.0147989988327026 -2.40201735496521
18.258739471435547 -8.69046688079834 -2.402019500732422
18.43054962158203 -8.319890975952148 -2.402019500732422
19.041940689086914 -6.805169105529785 -2.4020192623138428
19.301254272460938 -6.030527114868164 -2.4020192623138428
19.63105010986328 -4.8505096435546875 -2.4020190238952637
19.888778686523438 -3.6526763439178467 -2.4020190238952637
19.958499908447266 -3.25020170211792 -2.4020190238952637
20.020076751708984 -2.8463995456695557 -2.4020190238952637
20.118709564208984 -2.035477638244629 -2.4020190238952637
20.15572166442871 -1.628684639930725 -2.4020190238952637
20.18450164794922 -1.221232295036316 -2.4020190238952637
20.20505142211914 -0.8132821321487427 -2.4020190238952637
20.21721839904785 0.41190290451049805 -2.4020190238952637
20.204774856567383 0.8201804757118225 -2.4020192623138428
15.451339721679688 -6.975022315979004 -2.4020206928253174
15.963900566101074 -5.705146789550781 -2.4020204544067383
16.181299209594727 -5.055723190307617 -2.4020204544067383
16.372295379638672 -4.398045063018799 -2.4020204544067383
16.45779037475586 -4.066447734832764 -2.4020204544067383
16.828664779663086 -2.0468389987945557 -2.4020204544067383
16.866622924804688 -1.7064526081085205 -2.4020204544067383
16.89765167236328 -1.3654168844223022 -2.4020204544067383
16.939010620117188 -0.68181973695755 -2.4020204544067383
16.949325561523438 -0.33952850103378296 -2.4020204544067383
16.949209213256836 0.3453211784362793 -2.4020204544067383
13.289433479309082 -5.999095439910889 -2.402021646499634
13.730287551879883 -4.9068989753723145 -2.402022123336792
13.82659912109375 -4.628562927246094 -2.402022123336792
13.917267799377441 -4.3483405113220215 -2.402022123336792
14.002260208129883 -4.066344738006592 -2.402022123336792
14.081535339355469 -3.7826833724975586 -2.402022123336792
14.222822189331055 -3.21085262298584 -2.402021884918213
14.34090518951416 -2.6337764263153076 -2.402021884918213
14.506696701049805 -1.4676895141601562 -2.402021646499634
14.533381462097168 -1.1743714809417725 -2.402021646499634
14.568954467773438 -0.5864208936691284 -2.402021646499634
14.568754196166992 0.5913950800895691 -2.402021646499634
11.539018630981445 -5.492132663726807 -2.4020233154296875
12.033981323242188 -4.300680637359619 -2.4020230770111084
12.272351264953613 -3.563967227935791 -2.4020228385925293
12.40628433227539 -3.065385341644287 -2.4020228385925293
12.519970893859863 -2.5617995262145996 -2.4020228385925293
12.613222122192383 -2.0540390014648438 -2.40202260017395
12.652145385742188 -1.7988495826721191 -2.40202260017395
12.685891151428223 -1.542919635772705 -2.40202260017395
12.71446704864502 -1.2863657474517822 -2.40202260017395
12.76903247833252 -0.5139701962471008 -2.40202260017395
12.76885986328125 0.5183311104774475 -2.40202260017395
10.35715103149414 -4.675408840179443 -2.4020237922668457
10.449475288391113 -4.465251445770264 -2.4020237922668457
10.621295928955078 -4.039559841156006 -2.4020237922668457
10.77578353881836 -3.60727858543396 -2.4020237922668457
10.846449851989746 -3.3888843059539795 -2.4020235538482666
10.91268539428711 -3.16911244392395 -2.4020235538482666
10.974472045898438 -2.9480412006378174 -2.4020235538482666
11.1328706741333 -2.277977228164673 -2.4020233154296875
11.176610946655273 -2.052640914916992 -2.4020233154296875
11.280409812927246 -1.3719775676727295 -2.4020233154296875
11.354340553283691 -0.45702895522117615 -2.4020233154296875
11.36125659942627 -0.22758865356445312 -2.4020233154296875
11.361176490783691 0.23147018253803253 -2.4020233154296875
11.3541841506958 0.46090346574783325 -2.4020233154296875
9.228395462036133 -4.392367362976074 -2.402024507522583
9.315234184265137 -4.205070495605469 -2.402024507522583
9.398271560668945 -4.016054153442383 -2.402024269104004
9.624245643615723 -3.439486503601074 -2.402024269104004
9.691755294799805 -3.244387626647949 -2.402024269104004
9.81488037109375 -2.850306749343872 -2.402024269104004
9.87044906616211 -2.6514766216278076 -2.402024269104004
10.145614624023438 -1.233959674835205 -2.4020237922668457
10.168469429016113 -1.0287796258926392 -2.4020237922668457
10.187172889709473 -0.8231756687164307 -2.4020237922668457
10.20172119140625 -0.6172399520874023 -2.4020237922668457
10.218327522277832 -0.20469450950622559 -2.4020237922668457
10.220376014709473 0.001744232140481472 -2.4020237922668457
10.211967468261719 0.4145384132862091 -2.4020237922668457
8.376730918884277 -3.987010955810547 -2.402024984359741
8.602822303771973 -3.472367525100708 -2.402024745941162
8.671205520629883 -3.297886848449707 -2.402024745941162
8.736052513122559 -3.1220715045928955 -2.402024745941162
8.959535598754883 -2.4067704677581787 -2.402024745941162
9.00632095336914 -2.225309371948242 -2.402024507522583
9.049430847167969 -2.0429396629333496 -2.402024507522583
9.088857650756836 -1.859735369682312 -2.402024507522583
9.184799194335938 -1.305869460105896 -2.402024507522583
9.209301948547363 -1.1200774908065796 -2.402024269104004
9.230051040649414 -0.9338340759277344 -2.402024269104004
9.260238647460938 -0.560273289680481 -2.402024269104004
9.277167320251465 0.001588745042681694 -2.402024269104004
9.27524185180664 0.1889759749174118 -2.402024269104004
7.7334885597229 -3.4910545349121094 -2.4020254611968994
7.802416801452637 -3.3341190814971924 -2.4020252227783203
7.990024089813232 -2.8554632663726807 -2.402024984359741
8.14828872680664 -2.3663148880004883 -2.402024984359741
8.237212181091309 -2.035282611846924 -2.402024984359741
8.312692642211914 -1.7009236812591553 -2.402024984359741
8.457372665405273 -0.6833941340446472 -2.402024745941162
8.469440460205078 -0.512427806854248 -2.402024745941162
8.478063583374023 -0.3412495255470276 -2.402024745941162
8.484930992126465 0.0014491272158920765 -2.402024745941162
8.477949142456055 0.3441529870033264 -2.402024745941162
7.051496505737305 -3.356191396713257 -2.402029514312744
7.241817474365234 -2.923044443130493 -2.402028799057007
7.299382209777832 -2.776048421859741 -2.4020285606384277
7.353968143463135 -2.6281466484069824 -2.4020280838012695
7.542092323303223 -2.026012420654297 -2.402026891708374
7.650949478149414 -1.5655176639556885 -2.4020261764526367
7.707934379577637 -1.2552210092544556 -2.4020256996154785
7.809467792510986 0.0013330078218132257 -2.402024984359741
7.803044319152832 0.31666091084480286 -2.402024984359741
6.524831295013428 -3.1055681705474854 -2.4020307064056396
6.58622932434082 -2.973202705383301 -2.4020307064056396
6.64493989944458 -2.8394908905029297 -2.4020304679870605
6.897377967834473 -2.1550323963165283 -2.4020299911499023
6.93950080871582 -2.0152740478515625 -2.4020299911499023
7.015231609344482 -1.733347773551941 -2.4020297527313232
7.107331275939941 -1.3052970170974731 -2.402029275894165
7.13224458694458 -1.161471962928772 -2.402029275894165
7.224749565124512 -0.1448615938425064 -2.402028799057007
7.226198673248291 0.0010267639299854636 -2.402028799057007
7.220250129699707 0.29297560453414917 -2.402028799057007
6.065007209777832 -2.8867132663726807 -2.4020309448242188
6.122077465057373 -2.7636144161224365 -2.4020309448242188
6.228703498840332 -2.5140726566314697 -2.4020309448242188
6.325167179107666 -2.260449171066284 -2.4020309448242188
6.369531154632568 -2.132282018661499 -2.4020309448242188
6.411299705505371 -2.0031607151031494 -2.4020309448242188
6.450453758239746 -1.8732529878616333 -2.4020309448242188
6.520849227905273 -1.6111947298049927 -2.4020307064056396
6.55206298828125 -1.4791518449783325 -2.4020307064056396
6.682834148406982 -0.6761249899864197 -2.4020304679870605
6.69512939453125 -0.5409908890724182 -2.4020304679870605
6.7115159034729 -0.2701168656349182 -2.4020304679870605
6.715604305267334 -0.13454696536064148 -2.4020304679870605
6.716950416564941 0.0012364196591079235 -2.4020304679870605
6.715555191040039 0.13680678606033325 -2.4020304679870605
6.711423397064209 0.2724836766719818 -2.4020304679870605
5.712935447692871 -2.5789458751678467 -2.4020309448242188
5.81243371963501 -2.346121072769165 -2.4020309448242188
5.85863733291626 -2.2281951904296875 -2.4020309448242188
5.902448654174805 -2.109405279159546 -2.4020309448242188
6.019365310668945 -1.7480785846710205 -2.4020309448242188
6.085055828094482 -1.5035172700881958 -2.4020309448242188
6.114184379577637 -1.3802986145019531 -2.4020309448242188
6.140819072723389 -1.2565189599990845 -2.4020309448242188
6.186556339263916 -1.007468342781067 -2.4020309448242188
6.247690200805664 -0.5048969984054565 -2.4020309448242188
6.262980937957764 -0.252093642950058 -2.4020309448242188
6.266795635223389 -0.12553665041923523 -2.4020309448242188
6.26805305480957 0.0010694884695112705 -2.4020309448242188
6.262892723083496 0.254231721162796 -2.4020309448242188
5.4423828125 -2.1967132091522217 -2.4020309448242188
5.485640525817871 -2.0863473415374756 -2.4020309448242188
5.526662349700928 -1.9750896692276 -2.4020309448242188
5.5654296875 -1.8630622625350952 -2.4020309448242188
5.63613748550415 -1.6367701292037964 -2.4020309448242188
5.668049335479736 -1.5225924253463745 -2.4020309448242188
5.749855995178223 -1.176519751548767 -2.4020309448242188
5.772448539733887 -1.0601258277893066 -2.4020309448242188
5.792684078216553 -0.9432807564735413 -2.4020309448242188
5.839181900024414 -0.5907702445983887 -2.4020309448242188
5.867772102355957 0.11954940855503082 -2.4020309448242188
4.976612567901611 -2.368680238723755 -2.4020309448242188
5.068220138549805 -2.1655185222625732 -2.4020309448242188
5.110932350158691 -2.0629303455352783 -2.4020309448242188
5.151557445526123 -1.9592742919921875 -2.4020309448242188
5.190081596374512 -1.854820966720581 -2.4020309448242188
5.260762691497803 -1.6436837911605835 -2.4020309448242188
5.292886734008789 -1.5370330810546875 -2.4020309448242188
5.322854995727539 -1.4298880100250244 -2.4020309448242188
5.399682521820068 -1.10486900806427 -2.4020309448242188
5.420897006988525 -0.9955752491950989 -2.4020309448242188
5.439899921417236 -0.8858770728111267 -2.4020309448242188
5.456685543060303 -0.7758170962333679 -2.4020309448242188
5.493654727935791 -0.443927139043808 -2.4020309448242188
5.510456562042236 -0.11036407202482224 -2.4020309448242188
5.511562347412109 0.0009133910643868148 -2.4020309448242188
5.510416030883789 0.11226699501276016 -2.4020309448242188
5.507023811340332 0.22354446351528168 -2.4020309448242188
4.771845817565918 -2.039097785949707 -2.4020309448242188
4.812060356140137 -1.9422968626022339 -2.4020309448242188
4.886581897735596 -1.7463544607162476 -2.4020309448242188
4.953127384185791 -1.5475643873214722 -2.4020309448242188
5.011591911315918 -1.3462504148483276 -2.4020309448242188
5.061877250671387 -1.1428170204162598 -2.4020309448242188
5.083925724029541 -1.0403060913085938 -2.4020309448242188
5.103899955749512 -0.9373573064804077 -2.4020309448242188
5.121793270111084 -0.8340736031532288 -2.4020309448242188
5.185063362121582 -0.20870620012283325 -2.4020309448242188
5.188222408294678 -0.10393081605434418 -2.4020309448242188
5.18818473815918 0.10570357739925385 -2.4020309448242188
4.421585559844971 -2.1045076847076416 -2.4020309448242188
4.611245155334473 -1.6479581594467163 -2.4020309448242188
4.729212760925293 -1.2703958749771118 -2.4020309448242188
4.776664733886719 -1.078348994255066 -2.4020309448242188
4.816320896148682 -0.8845416307449341 -2.4020309448242188
4.833205223083496 -0.7870774865150452 -2.4020309448242188
4.848117351531982 -0.6892921328544617 -2.4020309448242188
4.861049652099609 -0.5912244915962219 -2.4020309448242188
4.887934684753418 -0.29573652148246765 -2.4020309448242188
4.892910003662109 -0.19696609675884247 -2.4020309448242188
4.895893573760986 -0.09802062809467316 -2.4020309448242188
4.896874904632568 0.0008454894996248186 -2.4020309448242188
4.895856857299805 0.09975600987672806 -2.4020309448242188
4.892840385437012 0.19859817624092102 -2.4020309448242188
4.180758953094482 -1.9898806810379028 -2.4020309448242188
4.360090255737305 -1.5582003593444824 -2.4020309448242188
4.390675067901611 -1.4698138236999512 -2.4020309448242188
4.446456432342529 -1.2912793159484863 -2.4020309448242188
4.553996562957764 -0.8363640904426575 -2.4020309448242188
4.56995964050293 -0.7442089915275574 -2.4020309448242188
4.629230976104736 -0.09273269772529602 -2.4020309448242188
4.62919807434082 0.09431502968072891 -2.4020309448242188
3.959973096847534 -1.8847965002059937 -2.4020309448242188
3.997220277786255 -1.8044264316558838 -2.4020309448242188
4.066853046417236 -1.6415084600448608 -2.4020309448242188
4.099179744720459 -1.5590275526046753 -2.4020309448242188
4.129833698272705 -1.4759117364883423 -2.4020309448242188
4.186075210571289 -1.3079067468643188 -2.4020309448242188
4.211640357971191 -1.223086953163147 -2.4020309448242188
4.235484600067139 -1.137766718864441 -2.4020309448242188
4.257601261138916 -1.05198335647583 -2.4020309448242188
4.277982234954834 -0.9657697677612305 -2.4020309448242188
4.296616077423096 -0.8791630268096924 -2.4020309448242188
4.341976165771484 -0.6173223853111267 -2.4020309448242188
4.363365173339844 -0.4414553642272949 -2.4020309448242188
4.371391296386719 -0.35322660207748413 -2.4020309448242188
4.377635478973389 -0.2648555040359497 -2.4020309448242188
4.382091999053955 -0.17637939751148224 -2.4020309448242188
4.382030010223389 0.17788498103618622 -2.4020309448242188
3.791978597640991 -1.7117691040039062 -2.4020309448242188
3.995373487472534 -1.1602822542190552 -2.4020309448242188
4.07598876953125 -0.8340179324150085 -2.4020309448242188
4.1300048828125 -0.5023142695426941 -2.4020309448242188
4.152847766876221 -0.25126662850379944 -2.4020309448242188
4.160440444946289 0.0007125854608602822 -2.4020309448242188
4.15957498550415 0.08473891764879227 -2.4020309448242188
