ply
format ascii 1.0
element vertex 218
property float x
property float y
property float z
end_header
1.0457994937896729 -44.31466293334961 -2.248011589050293
1.9592504501342773 -44.30023956298828 -2.2488505840301514
2.8725500106811523 -44.267024993896484 -2.249691963195801
6.51653528213501 -43.94633102416992 -2.2530758380889893
9.204458236694336 -43.39352035522461 -2.2496156692504883
11.728293418884277 -45.888641357421875 -2.4020156860351562
13.608654022216797 -45.3665771484375 -2.4020156860351562
15.465912818908691 -44.76747131347656 -2.4020156860351562
16.3848876953125 -44.43934631347656 -2.4020156860351562
0.09174438565969467 -30.657297134399414 -2.2478690147399902
1.3553283214569092 -30.64505958557129 -2.249157667160034
1.9869298934936523 -30.619384765625 -2.249800443649292
2.6180553436279297 -30.580665588378906 -2.2504422664642334
3.2484240531921387 -30.52892303466797 -2.251082181930542
3.877774477005005 -30.464155197143555 -2.2517201900482178
4.505810260772705 -30.386381149291992 -2.2523560523986816
5.132303237915039 -30.29561996459961 -2.2529895305633545
5.756951808929443 -30.191913604736328 -2.253620147705078
6.379494667053223 -30.075279235839844 -2.2542479038238525
7.606904029846191 -29.763105392456055 -2.2524430751800537
6.294023513793945 -22.66901969909668 -1.7250347137451172
10.057047843933105 -31.17783546447754 -2.4020156860351562
10.697209358215332 -30.96403694152832 -2.4020156860351562
11.332829475402832 -30.737089157104492 -2.4020156860351562
0.07004516571760178 -23.40516471862793 -2.247023820877075
1.034580111503601 -23.39261245727539 -2.2480039596557617
1.9981883764266968 -23.340219497680664 -2.2489752769470215
2.9592344760894775 -23.248022079467773 -2.249936103820801
4.392345905303955 -23.035341262817383 -2.2513535022735596
4.866976261138916 -22.944711685180664 -2.251819133758545
5.339731216430664 -22.844257354736328 -2.2522807121276855
6.278770446777344 -22.61404800415039 -2.2531912326812744
7.202120304107666 -22.327280044555664 -2.252290964126587
0.8364928960800171 -18.913772583007812 -2.2488858699798584
1.059818148612976 -12.379414558410645 -1.475879192352295
2.3922717571258545 -18.793922424316406 -2.2504661083221436
3.1655614376068115 -18.686079025268555 -2.2512686252593994
3.5504820346832275 -18.620243072509766 -2.2516722679138184
4.696393966674805 -18.37531852722168 -2.2528913021087646
5.074866771697998 -18.27798080444336 -2.2532997131347656
5.82438325881958 -18.056167602539062 -2.253643035888672
0.047504883259534836 -15.873880386352539 -2.2491698265075684
0.3745654225349426 -15.871819496154785 -2.2494940757751465
0.701568603515625 -15.863038063049316 -2.2498204708099365
1.0283666849136353 -15.847530364990234 -2.2501490116119385
1.3548266887664795 -15.82530689239502 -2.2504796981811523
2.006179094314575 -15.760730743408203 -2.2511465549468994
2.330787420272827 -15.718403816223145 -2.2514822483062744
2.9772045612335205 -15.613730430603027 -2.2521581649780273
3.298729181289673 -15.551431655883789 -2.252497911453247
3.618959903717041 -15.482514381408691 -2.252838611602783
4.8841233253479 -15.141270637512207 -2.254209280014038
5.194203853607178 -15.035087585449219 -2.253857135772705
5.806401252746582 -14.801374435424805 -2.252794027328491
0.04086913913488388 -13.657519340515137 -2.249939441680908
0.3222619593143463 -13.655474662780762 -2.250218391418457
0.6035913228988647 -13.647640228271484 -2.2504994869232178
2.283503293991089 -13.47936725616455 -2.2522194385528564
2.837564706802368 -13.377328872680664 -2.252803087234497
3.11296010017395 -13.317766189575195 -2.253096342086792
3.659878969192505 -13.181669235229492 -2.2536847591400146
4.200875282287598 -13.023125648498535 -2.254275321960449
4.46867561340332 -12.93497085571289 -2.2544760704040527
4.733233451843262 -12.837555885314941 -2.2540175914764404
4.995699405670166 -12.734772682189941 -2.2535665035247803
1.0216894149780273 -11.935561180114746 -2.2516250610351562
1.759304165840149 -11.86443042755127 -2.2544326782226562
2.0032849311828613 -11.8252534866333 -2.2543537616729736
2.488494873046875 -11.731673240661621 -2.254157781600952
3.4449424743652344 -11.48423957824707 -2.253612756729126
4.370859146118164 -11.14195728302002 -2.249630928039551
0.25126951932907104 -10.647296905517578 -2.251251220703125
0.47056639194488525 -10.63985538482666 -2.2512502670288086
0.6896581649780273 -10.627843856811523 -2.251237630844116
0.9084448218345642 -10.61126708984375 -2.251213788986206
1.1268432140350342 -10.590132713317871 -2.25117826461792
1.3447461128234863 -10.56445026397705 -2.251131296157837
1.5620580911636353 -10.534233093261719 -2.251072883605957
1.7786937952041626 -10.499490737915039 -2.2510030269622803
1.994545817375183 -10.460241317749023 -2.2509214878082275
2.2095251083374023 -10.41650104522705 -2.250828981399536
3.0588316917419434 -10.197078704833984 -2.2503459453582764
3.2680346965789795 -10.131230354309082 -2.250197172164917
3.682060480117798 -9.986541748046875 -2.2498669624328613
3.886700391769409 -9.907767295837402 -2.249685287475586
0.029018554836511612 -9.6971435546875 -2.279061794281006
0.4288964867591858 -9.69768238067627 -2.2814064025878906
1.642427921295166 -9.695146560668945 -2.3110477924346924
2.2653257846832275 -9.691465377807617 -2.3391129970550537
3.123730421066284 -9.683871269226074 -2.3914103507995605
3.7324254512786865 -9.51450252532959 -2.4020309448242188
0.21885985136032104 -9.274611473083496 -2.4020309448242188
0.7914721369743347 -9.243380546569824 -2.4020309448242188
1.1714379787445068 -9.202935218811035 -2.4020309448242188
1.5495458841323853 -9.146867752075195 -2.4020309448242188
1.9250231981277466 -9.075273513793945 -2.4020309448242188
2.111579656600952 -9.033693313598633 -2.4020309448242188
2.8480420112609863 -8.82921028137207 -2.4020309448242188
3.029332160949707 -8.768670082092285 -2.4020309448242188
3.387969970703125 -8.636430740356445 -2.4020309448242188
0.025393065065145493 -8.484922409057617 -2.4020309448242188
0.20018309354782104 -8.482592582702637 -2.4020309448242188
0.37489745020866394 -8.47667407989502 -2.4020309448242188
0.5494458079338074 -8.46714973449707 -2.4020309448242188
0.7237597703933716 -8.45402717590332 -2.4020309448242188
0.8977710008621216 -8.437322616577148 -2.4020309448242188
1.0714025497436523 -8.417044639587402 -2.4020309448242188
1.244573950767517 -8.393178939819336 -2.4020309448242188
1.589266300201416 -8.334785461425781 -2.4020309448242188
2.101060628890991 -8.220703125 -2.4020309448242188
2.4379210472106934 -8.127182006835938 -2.4020309448242188
2.6048290729522705 -8.075225830078125 -2.4020309448242188
3.0986485481262207 -7.8989105224609375 -2.4020309448242188
0.5057030916213989 -7.793099880218506 -2.4020309448242188
0.6661425828933716 -7.781025409698486 -2.4020309448242188
0.8263000249862671 -7.765650272369385 -2.4020309448242188
1.1454955339431763 -7.725020408630371 -2.4020309448242188
1.3044005632400513 -7.699782371520996 -2.4020309448242188
1.4627478122711182 -7.671275615692139 -2.4020309448242188
1.7775133848190308 -7.604508876800537 -2.4020309448242188
2.089263916015625 -7.524831771850586 -2.4020309448242188
2.3974645137786865 -7.432380676269531 -2.4020309448242188
2.7015953063964844 -7.327311038970947 -2.4020309448242188
0.17048461735248566 -7.2241950035095215 -2.4020309448242188
0.3192785680294037 -7.219147205352783 -2.4020309448242188
0.46793332695961 -7.211038112640381 -2.4020309448242188
0.6163903474807739 -7.199868202209473 -2.4020309448242188
1.4994421005249023 -7.068925857543945 -2.4020309448242188
2.218400716781616 -6.877261161804199 -2.4020309448242188
2.3596105575561523 -6.8301005363464355 -2.4020309448242188
2.638963460922241 -6.727101802825928 -2.4020309448242188
0.020101318135857582 -6.716922283172607 -2.4020309448242188
0.15847167372703552 -6.715083599090576 -2.4020309448242188
0.5729516744613647 -6.692471027374268 -2.4020309448242188
0.7107043266296387 -6.6792473793029785 -2.4020309448242188
0.8481543064117432 -6.663188457489014 -2.4020309448242188
0.9852429032325745 -6.644300937652588 -2.4020309448242188
1.1219152212142944 -6.622593879699707 -2.4020309448242188
1.5288439989089966 -6.5406494140625 -2.4020309448242188
1.663265347480774 -6.50776481628418 -2.4020309448242188
1.9299328327178955 -6.433723449707031 -2.4020309448242188
2.062062978744507 -6.392600059509277 -2.4020309448242188
2.193321466445923 -6.348762035369873 -2.4020309448242188
0.2769445776939392 -6.261930465698242 -2.4020309448242188
0.4058898687362671 -6.254896640777588 -2.4020309448242188
0.7914709448814392 -6.217880725860596 -2.4020309448242188
0.9193993806838989 -6.200256824493408 -2.4020309448242188
1.1740319728851318 -6.157120704650879 -2.4020309448242188
1.3006261587142944 -6.131627559661865 -2.4020309448242188
1.4266698360443115 -6.103532791137695 -2.4020309448242188
1.5521081686019897 -6.072845458984375 -2.4020309448242188
1.924254059791565 -5.965376377105713 -2.4020309448242188
0.38005003333091736 -5.856673240661621 -2.4020309448242188
0.8608666658401489 -5.805511474609375 -2.4020309448242188
1.2178186178207397 -5.741252422332764 -2.4020309448242188
1.3358361721038818 -5.714944839477539 -2.4020309448242188
1.570123314857483 -5.65506649017334 -2.4020309448242188
1.8017431497573853 -5.585585594177246 -2.4020309448242188
1.9164330959320068 -5.547282695770264 -2.4020309448242188
2.030306339263916 -5.506624698638916 -2.4020309448242188
0.0164953600615263 -5.511536598205566 -2.4020309448242188
0.1300341784954071 -5.5100274085998535 -2.4020309448242188
0.3569055199623108 -5.499992370605469 -2.4020309448242188
0.5831664800643921 -5.480622291564941 -2.4020309448242188
1.1436595916748047 -5.391600131988525 -2.4020309448242188
1.583596110343933 -5.279160022735596 -2.4020309448242188
1.6920166015625 -5.245416164398193 -2.4020309448242188
0.12242919951677322 -5.1878180503845215 -2.4020309448242188
0.229278564453125 -5.184194087982178 -2.4020309448242188
0.6552526950836182 -5.147726535797119 -2.4020309448242188
1.2849743366241455 -5.027651309967041 -2.4020309448242188
1.3882763385772705 -5.000112056732178 -2.4020309448242188
1.5930700302124023 -4.938680171966553 -2.4020309448242188
1.7951586246490479 -4.868864059448242 -2.4020309448242188
1.8950841426849365 -4.83084774017334 -2.4020309448242188
0.11552856117486954 -4.895510673522949 -2.4020309448242188
0.21635985374450684 -4.892092227935791 -2.4020309448242188
0.31709593534469604 -4.8865966796875 -2.4020309448242188
0.4176989793777466 -4.879026889801025 -2.4020309448242188
0.5181237459182739 -4.869385719299316 -2.4020309448242188
0.6183300614356995 -4.857677936553955 -2.4020309448242188
0.7182726860046387 -4.84390926361084 -2.4020309448242188
0.8179113864898682 -4.828083515167236 -2.4020309448242188
1.0161035060882568 -4.790292739868164 -2.4020309448242188
1.1145751476287842 -4.768343448638916 -2.4020309448242188
1.2125731706619263 -4.744368553161621 -2.4020309448242188
1.5033092498779297 -4.660411357879639 -2.4020309448242188
1.599001407623291 -4.628451824188232 -2.4020309448242188
1.6940112113952637 -4.594528675079346 -2.4020309448242188
1.7883044481277466 -4.558655261993408 -2.4020309448242188
0.10923705995082855 -4.628870964050293 -2.4020309448242188
0.20457519590854645 -4.625638484954834 -2.4020309448242188
0.39494872093200684 -4.613284111022949 -2.4020309448242188
0.4899047613143921 -4.60416841506958 -2.4020309448242188
0.6791528463363647 -4.580080032348633 -2.4020309448242188
0.7733629941940308 -4.565115928649902 -2.4020309448242188
0.8672460913658142 -4.548214435577393 -2.4020309448242188
1.1465307474136353 -4.485959529876709 -2.4020309448242188
1.2386999130249023 -4.461389064788818 -2.4020309448242188
1.60174560546875 -4.3442816734313965 -2.4020309448242188
1.6909021139144897 -4.310361385345459 -2.4020309448242188
0.10346435010433197 -4.384422302246094 -2.4020309448242188
0.19377197325229645 -4.3813581466674805 -2.4020309448242188
0.2839916944503784 -4.376436233520508 -2.4020309448242188
0.46403196454048157 -4.361023426055908 -2.4020309448242188
0.910021960735321 -4.290186882019043 -2.4020309448242188
1.0859801769256592 -4.249057292938232 -2.4020309448242188
1.1732836961746216 -4.2257843017578125 -2.4020309448242188
1.2600927352905273 -4.200716018676758 -2.4020309448242188
1.3463635444641113 -4.173864841461182 -2.4020309448242188
1.432064175605774 -4.145242214202881 -2.4020309448242188
0.18382324278354645 -4.156375408172607 -2.4020309448242188
0.2694091796875 -4.151709079742432 -2.4020309448242188
0.3548828065395355 -4.145275592803955 -2.4020309448242188
0.779266357421875 -4.086808204650879 -2.4020309448242188
1.030216097831726 -4.030869483947754 -2.4020309448242188
1.113037109375 -4.008790969848633 -2.4020309448242188
1.358528971672058 -3.9323856830596924 -2.4020309448242188
