ply
format ascii 1.0
element vertex 233
property float x
property float y
property float z
end_header
-41.90760803222656 8.427276611328125 -2.16787052154541
-45.86752700805664 6.331267356872559 -2.348194122314453
-47.041629791259766 5.516767978668213 -2.4020309448242188
-47.227684020996094 3.5909221172332764 -2.4020309448242188
-47.29117202758789 2.625584602355957 -2.4020309448242188
-47.36319351196289 -0.27544859051704407 -2.4020309448242188
-47.34769058227539 -1.2427618503570557 -2.4020309448242188
-47.312435150146484 -2.2095389366149902 -2.4020309448242188
-46.68746566772461 -7.97688627243042 -2.4020309448242188
-29.94997215270996 6.661897659301758 -2.249666690826416
-32.5369873046875 3.815748929977417 -2.4020309448242188
-32.66569900512695 2.4837186336517334 -2.4020309448242188
-32.7398681640625 1.14756178855896 -2.4020309448242188
-32.7564697265625 0.4786393642425537 -2.4020309448242188
-32.724300384521484 -1.5282577276229858 -2.4020309448242188
-32.68625259399414 -2.1963202953338623 -2.4020309448242188
-32.63458251953125 -2.863450765609741 -2.4020309448242188
-32.56929016113281 -3.5294177532196045 -2.4020309448242188
-32.49043273925781 -4.193888187408447 -2.4020309448242188
-32.29199981689453 -5.517316818237305 -2.4020309448242188
-24.42298126220703 5.432504653930664 -2.4020309448242188
-24.709794998168945 3.926652193069458 -2.4020309448242188
-24.903888702392578 2.4060606956481934 -2.4020309448242188
-25.01717758178711 0.36555221676826477 -2.4020309448242188
-25.0112247467041 -0.6564838886260986 -2.4020309448242188
-24.992631912231445 -1.1671810150146484 -2.4020309448242188
-24.924110412597656 -2.1869122982025146 -2.4020309448242188
-24.87419891357422 -2.6955080032348633 -2.4020309448242188
-24.662487030029297 -4.213759899139404 -2.4020309448242188
-19.73909568786621 4.39064884185791 -2.4020309448242188
-19.824657440185547 3.9865739345550537 -2.4020309448242188
-19.90194320678711 3.58083176612854 -2.4020309448242188
-19.970928192138672 3.1735949516296387 -2.4020309448242188
-20.127851486206055 1.9446299076080322 -2.4020309448242188
-20.2091064453125 0.70834881067276 -2.4020309448242188
-20.221176147460938 -0.11760208010673523 -2.4020309448242188
-20.1760196685791 -1.3557071685791016 -2.4020309448242188
-20.144123077392578 -1.7675020694732666 -2.4020309448242188
-20.103816986083984 -2.178579092025757 -2.4020309448242188
-19.9980525970459 -2.9978086948394775 -2.4020309448242188
-19.93267250061035 -3.4056384563446045 -2.4020309448242188
-16.54836082458496 3.680920362472534 -2.4020309448242188
-16.793567657470703 2.3180792331695557 -2.4020309448242188
-16.837400436401367 1.9745917320251465 -2.4020309448242188
-16.904003143310547 1.2852905988693237 -2.4020309448242188
-16.95100212097168 0.2476835548877716 -2.4020309448242188
-16.9525146484375 -0.09859328716993332 -2.4020309448242188
-16.934343338012695 -0.7908509373664856 -2.4020309448242188
-16.91465950012207 -1.1365634202957153 -2.4020309448242188
-16.887914657592773 -1.4817935228347778 -2.4020309448242188
-16.81330680847168 -2.170271635055542 -2.4020309448242188
-16.765474319458008 -2.513227939605713 -2.4020309448242188
-14.294652938842773 2.87453556060791 -2.4020309448242188
-14.350380897521973 2.5819737911224365 -2.4020309448242188
-14.400124549865723 2.288334369659424 -2.4020309448242188
-14.443856239318848 1.9937400817871094 -2.4020309448242188
-14.513236045837402 1.4021778106689453 -2.4020309448242188
-14.538844108581543 1.1054530143737793 -2.4020309448242188
-14.558380126953125 0.8082783222198486 -2.4020309448242188
-14.579254150390625 0.21303299069404602 -2.4020309448242188
-14.580562591552734 -0.08479736000299454 -2.4020309448242188
-14.564934730529785 -0.68019700050354 -2.4020309448242188
-14.525004386901855 -1.2744685411453247 -2.4020309448242188
-14.49593448638916 -1.5708733797073364 -2.4020309448242188
-14.46080493927002 -1.8666127920150757 -2.4020309448242188
-14.37254524230957 -2.4556498527526855 -2.4020309448242188
-12.474648475646973 2.7747716903686523 -2.4020309448242188
-12.528595924377441 2.519399404525757 -2.4020309448242188
-12.577462196350098 2.2629830837249756 -2.4020309448242188
-12.621055603027344 2.0056214332580566 -2.4020309448242188
-12.659390449523926 1.7474229335784912 -2.4020309448242188
-12.692440032958984 1.4884949922561646 -2.4020309448242188
-12.759772300720215 0.7084153294563293 -2.4020309448242188
-12.77805233001709 0.18671461939811707 -2.4020309448242188
-12.775090217590332 -0.3353230357170105 -2.4020309448242188
-12.674235343933105 -1.6360028982162476 -2.4020309448242188
-12.638222694396973 -1.8945306539535522 -2.4020309448242188
-12.596878051757812 -2.152265787124634 -2.4020309448242188
-11.092447280883789 2.467343330383301 -2.4020309448242188
-11.22275447845459 1.783415675163269 -2.4020309448242188
-11.256840705871582 1.5538239479064941 -2.4020309448242188
-11.310906410217285 1.0927903652191162 -2.4020309448242188
-11.362348556518555 0.1660291999578476 -2.4020309448242188
-11.363429069519043 -0.06609436124563217 -2.4020309448242188
-11.359655380249023 -0.29816266894340515 -2.4020309448242188
-11.351198196411133 -0.5301119685173035 -2.4020309448242188
-11.297430038452148 -1.2242622375488281 -2.4020309448242188
-11.238008499145508 -1.684633493423462 -2.4020309448242188
-11.201269149780273 -1.9138140678405762 -2.4020309448242188
-9.976584434509277 2.219132423400879 -2.4020309448242188
-10.019827842712402 2.014904499053955 -2.4020309448242188
-10.093756675720215 1.6040061712265015 -2.4020309448242188
-10.124411582946777 1.3975107669830322 -2.4020309448242188
-10.190994262695312 0.7748661637306213 -2.4020309448242188
-10.204712867736816 0.5665562152862549 -2.4020309448242188
-10.219320297241211 0.14932510256767273 -2.4020309448242188
-10.216888427734375 -0.2681683301925659 -2.4020309448242188
-10.19741439819336 -0.6852049231529236 -2.4020309448242188
-10.18128776550293 -0.8933346271514893 -2.4020309448242188
-10.136310577392578 -1.3084008693695068 -2.4020309448242188
-10.107474327087402 -1.5151607990264893 -2.4020309448242188
-9.055872917175293 2.0143356323242188 -2.4020309448242188
-9.095128059387207 1.8289545774459839 -2.4020309448242188
-9.130579948425293 1.6428077220916748 -2.4020309448242188
-9.16222858428955 1.4559767246246338 -2.4020309448242188
-9.190053939819336 1.268537998199463 -2.4020309448242188
-9.234200477600098 0.8921515941619873 -2.4020309448242188
-9.250509262084961 0.703354001045227 -2.4020309448242188
-9.262947082519531 0.5142701864242554 -2.4020309448242188
-9.271499633789062 0.32497450709342957 -2.4020309448242188
-9.27399730682373 -0.24341964721679688 -2.4020309448242188
-9.241691589355469 -0.8108919858932495 -2.4020309448242188
-9.200862884521484 -1.187652587890625 -2.4020309448242188
-8.318437576293945 1.6727689504623413 -2.4020309448242188
-8.460543632507324 0.6432914733886719 -2.4020309448242188
-8.471906661987305 0.4703565835952759 -2.4020309448242188
-8.479744911193848 0.2972230315208435 -2.4020309448242188
-8.48404598236084 0.12396956980228424 -2.4020309448242188
-8.484819412231445 -0.049346618354320526 -2.4020309448242188
-8.465859413146973 -0.5688545107841492 -2.4020309448242188
-8.435565948486328 -0.9141322374343872 -2.4020309448242188
-8.363761901855469 -1.4290080070495605 -2.4020309448242188
-7.656222820281982 1.5396027565002441 -2.4020309448242188
-7.7361369132995605 1.067847728729248 -2.4020309448242188
-7.773294925689697 0.751008152961731 -2.4020309448242188
-7.797479629516602 0.4329127371311188 -2.4020309448242188
-7.804697513580322 0.27355971932411194 -2.4020309448242188
-7.80865478515625 0.11410079896450043 -2.4020309448242188
-7.809359073638916 -0.04541793838143349 -2.4020309448242188
-7.8009867668151855 -0.36431410908699036 -2.4020309448242188
-7.791919231414795 -0.5235702395439148 -2.4020309448242188
-7.745230674743652 -0.9997588992118835 -2.4020309448242188
-7.084385395050049 1.4246119260787964 -2.4020309448242188
-7.112003803253174 1.2796186208724976 -2.4020309448242188
-7.15833044052124 0.9880915880203247 -2.4020309448242188
-7.192708492279053 0.694916844367981 -2.4020309448242188
-7.215066432952881 0.4005827307701111 -2.4020309448242188
-7.223718166351318 -0.1896049529314041 -2.4020309448242188
-7.184145927429199 -0.7785204648971558 -2.4020309448242188
-7.14635705947876 -1.0712746381759644 -2.4020309448242188
-7.122988224029541 -1.217012882232666 -2.4020309448242188
-6.556711196899414 1.458436369895935 -2.4020309448242188
-6.585126876831055 1.3242145776748657 -2.4020309448242188
-6.610800743103027 1.1894383430480957 -2.4020309448242188
-6.671250343322754 0.7823609709739685 -2.4020309448242188
-6.685860633850098 0.6459370255470276 -2.4020309448242188
-6.70662260055542 0.3723487854003906 -2.4020309448242188
-6.71623420715332 0.09813827276229858 -2.4020309448242188
-6.716841220855713 -0.03906402364373207 -2.4020309448242188
-6.691247940063477 -0.5871107578277588 -2.4020309448242188
-6.661690711975098 -0.8598951697349548 -2.4020309448242188
-6.1450371742248535 1.2357163429260254 -2.4020309448242188
-6.190377712249756 0.9837175011634827 -2.4020309448242188
-6.209131717681885 0.8570845127105713 -2.4020309448242188
-6.2500128746032715 0.47521620988845825 -2.4020309448242188
-6.267948627471924 -0.0364532470703125 -2.4020309448242188
-6.265894412994385 -0.16446441411972046 -2.4020309448242188
-6.261228561401367 -0.29240554571151733 -2.4020309448242188
-6.244064807891846 -0.5478718280792236 -2.4020309448242188
-6.231569766998291 -0.6752927899360657 -2.4020309448242188
-6.19879150390625 -0.9292294383049011 -2.4020309448242188
-5.728977680206299 1.2743202447891235 -2.4020309448242188
-5.776236057281494 1.0392823219299316 -2.4020309448242188
-5.813867092132568 0.802509605884552 -2.4020309448242188
-5.829044818878174 0.6835963129997253 -2.4020309448242188
-5.859971046447754 0.32534223794937134 -2.4020309448242188
-5.868895053863525 -0.03413299471139908 -2.4020309448242188
-5.862603187561035 -0.2737896740436554 -2.4020309448242188
-5.855787754058838 -0.3934738039970398 -2.4020309448242188
-5.846529483795166 -0.5129910111427307 -2.4020309448242188
-5.804137229919434 -0.8700690865516663 -2.4020309448242188
-5.785159111022949 -0.9884353280067444 -2.4020309448242188
-5.403393268585205 1.0865775346755981 -2.4020309448242188
-5.45979118347168 0.7536363005638123 -2.4020309448242188
-5.486018180847168 0.5300254821777344 -2.4020309448242188
-5.495704174041748 0.41786178946495056 -2.4020309448242188
-5.503090858459473 0.3055284023284912 -2.4020309448242188
-5.511473655700684 -0.0320545956492424 -2.4020309448242188
-5.4904680252075195 -0.48174911737442017 -2.4020309448242188
-5.479482173919678 -0.5937917828559875 -2.4020309448242188
-5.432834148406982 -0.928238034248352 -2.4020309448242188
-5.065464496612549 1.1267313957214355 -2.4020309448242188
-5.1072540283203125 0.9189146161079407 -2.4020309448242188
-5.140503406524658 0.7095680236816406 -2.4020309448242188
-5.1539411544799805 0.6044242978096008 -2.4020309448242188
-5.165214538574219 0.4990312159061432 -2.4020309448242188
-5.174332141876221 0.39342665672302246 -2.4020309448242188
-5.188705921173096 0.0758180245757103 -2.4020309448242188
-5.183611869812012 -0.24207976460456848 -2.4020309448242188
-5.13192081451416 -0.7693003416061401 -2.4020309448242188
-5.115138530731201 -0.8739575147628784 -2.4020309448242188
-4.836164951324463 0.7685264348983765 -2.4020309448242188
-4.893873691558838 0.1715339571237564 -2.4020309448242188
-4.896790504455566 -0.02847854606807232 -2.4020309448242188
-4.891542434692383 -0.22843962907791138 -2.4020309448242188
-4.878133296966553 -0.42802107334136963 -2.4020309448242188
-4.868371963500977 -0.5275680422782898 -2.4020309448242188
-4.85658073425293 -0.6268900632858276 -2.4020309448242188
-4.8427629470825195 -0.7259542942047119 -2.4020309448242188
-4.519700050354004 1.005335807800293 -2.4020309448242188
-4.586670875549316 0.6331153512001038 -2.4020309448242188
-4.598649024963379 0.539301872253418 -2.4020309448242188
-4.608703136444092 0.44526413083076477 -2.4020309448242188
-4.623039245605469 0.25666916370391846 -2.4020309448242188
-4.627321243286133 0.16219161450862885 -2.4020309448242188
-4.625120162963867 -0.21599777042865753 -2.4020309448242188
-4.6197428703308105 -0.31041884422302246 -2.4020309448242188
-4.60321044921875 -0.49883344769477844 -2.4020309448242188
-4.592061519622803 -0.5927459597587585 -2.4020309448242188
-4.564022541046143 -0.7797953486442566 -2.4020309448242188
-4.281013011932373 0.9522438049316406 -2.4020309448242188
-4.316332817077637 0.7766096591949463 -2.4020309448242188
-4.331216335296631 0.6882994174957275 -2.4020309448242188
-4.344448089599609 0.5996806025505066 -2.4020309448242188
-4.36531400680542 0.42175033688545227 -2.4020309448242188
-4.3788981437683105 0.24311447143554688 -2.4020309448242188
-4.385173320770264 0.06407608091831207 -2.4020309448242188
-4.384130954742432 -0.11507293581962585 -2.4020309448242188
-4.375773906707764 -0.294025719165802 -2.4020309448242188
-4.368856906890869 -0.3833358585834503 -2.4020309448242188
-4.349555015563965 -0.5614431500434875 -2.4020309448242188
-4.337179660797119 -0.6501646041870117 -2.4020309448242188
-4.078790664672852 0.8202106952667236 -2.4020309448242188
-4.094690322875977 0.7367317080497742 -2.4020309448242188
-2.235816717147827 0.30861738324165344 -1.3030883073806763
-2.230175733566284 0.21546584367752075 -1.293587565422058
-2.2269554138183594 0.1236390694975853 -1.2877140045166016
-2.215873956680298 0.03237823396921158 -1.2794721126556396
-2.2125585079193115 -0.012867889367043972 -1.2774426937103271
-2.225177049636841 -0.10391799360513687 -1.2861067056655884
-2.2249791622161865 -0.2872016727924347 -1.295249342918396
-4.114467144012451 -0.6167788505554199 -2.4020309448242188
-4.10101318359375 -0.7006871104240417 -2.4020309448242188
