ply
format ascii 1.0
element vertex 263
property float x
property float y
property float z
end_header
-47.19783020019531 3.9640557765960693 -2.4020309448242188
-47.267601013183594 3.0204100608825684 -2.4020309448242188
-47.318504333496094 2.0755436420440674 -2.4020309448242188
-47.36363983154297 0.1837470978498459 -2.4020309448242188
-47.35788345336914 -0.7624964714050293 -2.4020309448242188
-47.33318328857422 -1.7083477973937988 -2.4020309448242188
-47.28961181640625 -2.653568744659424 -2.4020309448242188
-46.78928756713867 -7.356255531311035 -2.4020309448242188
-46.63296890258789 -8.2894868850708 -2.4020309448242188
-46.45806121826172 -9.21939468383789 -2.4020309448242188
-43.133056640625 -10.366146087646484 -2.249746561050415
-42.92049789428711 -11.226553916931152 -2.249911069869995
-38.264076232910156 -12.500813484191895 -2.041468381881714
-32.58381652832031 3.3933897018432617 -2.4020309448242188
-32.644981384277344 2.7417876720428467 -2.4020309448242188
-32.75571823120117 -0.5273867845535278 -2.4020309448242188
-32.738643646240234 -1.1816022396087646 -2.4020309448242188
-32.70851135253906 -1.8353773355484009 -2.4020309448242188
-32.66532516479492 -2.4884276390075684 -2.4020309448242188
-32.45761489868164 -4.440547466278076 -2.4020309448242188
-32.36243438720703 -5.088043212890625 -2.4020309448242188
-32.2542839050293 -5.733530044555664 -2.4020309448242188
-31.852996826171875 -7.655214786529541 -2.4020309448242188
-31.521772384643555 -8.921472549438477 -2.4020309448242188
-29.46578025817871 -9.62650203704834 -2.2728872299194336
-24.932079315185547 2.093999147415161 -2.4020309448242188
-24.995813369750977 1.096398115158081 -2.4020309448242188
-25.019662857055664 0.09706558287143707 -2.4020309448242188
-25.0166015625 -0.4027824401855469 -2.4020309448242188
-25.003583908081055 -0.9024288654327393 -2.4020309448242188
-24.851730346679688 -2.8955111503601074 -2.4020309448242188
-24.78895378112793 -3.3913936614990234 -2.4020309448242188
-24.541284561157227 -4.870114803314209 -2.4020309448242188
-24.438989639282227 -5.359373569488525 -2.4020309448242188
-24.20565414428711 -6.331362724304199 -2.4020309448242188
-23.933290481567383 -7.2931742668151855 -2.4020309448242188
-20.11281967163086 2.0946173667907715 -2.4020309448242188
-20.150569915771484 1.6924082040786743 -2.4020309448242188
-20.180355072021484 1.2895301580429077 -2.4020309448242188
-20.20209503173828 0.8861247301101685 -2.4020309448242188
-20.21575927734375 0.48239484429359436 -2.4020309448242188
-20.18976593017578 -1.1329138278961182 -2.4020309448242188
-20.163097381591797 -1.5360143184661865 -2.4020309448242188
-20.034887313842773 -2.740985631942749 -2.4020309448242188
-19.976118087768555 -3.1406657695770264 -2.4020309448242188
-19.909408569335938 -3.5391018390655518 -2.4020309448242188
-19.83473014831543 -3.9361202716827393 -2.4020309448242188
-19.752147674560547 -4.331557750701904 -2.4020309448242188
-19.66167449951172 -4.725281238555908 -2.4020309448242188
-19.34323501586914 -5.894473552703857 -2.4020309448242188
-16.861610412597656 1.7560248374938965 -2.4020309448242188
-16.936521530151367 0.7428858876228333 -2.4020309448242188
-16.947994232177734 0.40440717339515686 -2.4020309448242188
-16.952688217163086 0.06576400250196457 -2.4020309448242188
-16.95060157775879 -0.2729148864746094 -2.4020309448242188
-16.926172256469727 -0.9497807025909424 -2.4020309448242188
-16.87471580505371 -1.6251462697982788 -2.4020309448242188
-16.838891983032227 -1.9619238376617432 -2.4020309448242188
-16.796337127685547 -2.2979178428649902 -2.4020309448242188
-16.628538131713867 -3.299863815307617 -2.4020309448242188
-16.48345375061035 -3.961461067199707 -2.4020309448242188
-16.401029586791992 -4.289955139160156 -2.4020309448242188
-16.11458969116211 -5.264620304107666 -2.4020309448242188
-14.502384185791016 1.510324239730835 -2.4020309448242188
-14.551154136657715 0.9298170208930969 -2.4020309448242188
-14.566802978515625 0.638947606086731 -2.4020309448242188
-14.57666015625 0.3478303551673889 -2.4020309448242188
-14.557907104492188 -0.816889762878418 -2.4020309448242188
-14.403884887695312 -2.2645866870880127 -2.4020309448242188
-14.301919937133789 -2.838155746459961 -2.4020309448242188
-14.242368698120117 -3.123288154602051 -2.4020309448242188
-14.177133560180664 -3.4071836471557617 -2.4020309448242188
-14.106242179870605 -3.689716100692749 -2.4020309448242188
-14.029720306396484 -3.9707696437835693 -2.4020309448242188
-13.859909057617188 -4.528011322021484 -2.4020309448242188
-12.734586715698242 1.0695533752441406 -2.4020309448242188
-12.767146110534668 0.5600101947784424 -2.4020309448242188
-12.77578353881836 0.30485764145851135 -2.4020309448242188
-12.779315948486328 0.0495799258351326 -2.4020309448242188
-12.777769088745117 -0.20572951436042786 -2.4020309448242188
-12.74250602722168 -0.97071772813797 -2.4020309448242188
-12.720565795898438 -1.2250736951828003 -2.4020309448242188
-12.693560600280762 -1.4789451360702515 -2.4020309448242188
-12.66149616241455 -1.7322252988815308 -2.4020309448242188
-12.534998893737793 -2.487513303756714 -2.4020309448242188
-12.36348819732666 -3.2338714599609375 -2.4020309448242188
-12.147589683532715 -3.9685990810394287 -2.4020309448242188
-11.360343933105469 0.27108076214790344 -2.4020309448242188
-11.363483428955078 0.04408630356192589 -2.4020309448242188
-11.345721244812012 -0.6366432309150696 -2.4020309448242188
-11.311235427856445 -1.0893456935882568 -2.4020309448242188
-11.287219047546387 -1.315090298652649 -2.4020309448242188
-11.188186645507812 -1.9888137578964233 -2.4020309448242188
-11.146228790283203 -2.2119204998016357 -2.4020309448242188
-11.048971176147461 -2.655393123626709 -2.4020309448242188
-10.184553146362305 0.8553816080093384 -2.4020309448242188
-10.210592269897461 0.44787001609802246 -2.4020309448242188
-10.217498779296875 0.24381209909915924 -2.4020309448242188
-10.220332145690918 0.03965042158961296 -2.4020309448242188
-10.213757514953613 -0.36863434314727783 -2.4020309448242188
-10.20435619354248 -0.5725980997085571 -2.4020309448242188
-10.15173625946045 -1.1827934980392456 -2.4020309448242188
-10.062527656555176 -1.7887414693832397 -2.4020309448242188
-10.02492618560791 -1.989403486251831 -2.4020309448242188
-9.715097427368164 -3.1739068031311035 -2.4020309448242188
-9.258316040039062 0.5916081070899963 -2.4020309448242188
-9.268287658691406 0.40653732419013977 -2.4020309448242188
-9.274596214294434 0.22130447626113892 -2.4020309448242188
-9.27599811553955 -0.1493493616580963 -2.4020309448242188
-9.27116584777832 -0.334615021944046 -2.4020309448242188
-9.262630462646484 -0.5197553634643555 -2.4020309448242188
-9.234467506408691 -0.8893397450447083 -2.4020309448242188
-9.214862823486328 -1.073636770248413 -2.4020309448242188
-9.191576957702637 -1.2575054168701172 -2.4020309448242188
-9.164617538452148 -1.4408669471740723 -2.4020309448242188
-9.133994102478027 -1.6236629486083984 -2.4020309448242188
-8.926563262939453 -2.5264456272125244 -2.4020309448242188
-8.874306678771973 -2.704261064529419 -2.4020309448242188
-8.818521499633789 -2.8809962272644043 -2.4020309448242188
-8.4393310546875 0.8788948059082031 -2.4020309448242188
-8.476865768432617 0.37181228399276733 -2.4020309448242188
-8.482539176940918 0.20241165161132812 -2.4020309448242188
-8.484894752502441 0.03291778638958931 -2.4020309448242188
-8.483863830566406 -0.13659575581550598 -2.4020309448242188
-8.471632957458496 -0.4753698706626892 -2.4020309448242188
-8.460448265075684 -0.6445127725601196 -2.4020309448242188
-8.445883750915527 -0.8133940100669861 -2.4020309448242188
-8.406651496887207 -1.150119662284851 -2.4020309448242188
-8.322718620300293 -1.6515957117080688 -2.4020309448242188
-8.250048637390137 -1.982730507850647 -2.4020309448242188
-8.164253234863281 -2.310694456100464 -2.4020309448242188
-8.116476058959961 -2.473328113555908 -2.4020309448242188
-7.767492294311523 0.8089292645454407 -2.4020309448242188
-7.782090187072754 0.6536033749580383 -2.4020309448242188
-7.8044114112854 -0.2816769480705261 -2.4020309448242188
-7.773523807525635 -0.7486411929130554 -2.4020309448242188
-7.737414360046387 -1.0585606098175049 -2.4020309448242188
-7.688953876495361 -1.3667904138565063 -2.4020309448242188
-7.628231048583984 -1.6728343963623047 -2.4020309448242188
-7.593282222747803 -1.8248895406723022 -2.4020309448242188
-7.5553202629089355 -1.9762142896652222 -2.4020309448242188
-7.470345497131348 -2.2764315605163574 -2.4020309448242188
-7.423373222351074 -2.4252054691314697 -2.4020309448242188
-7.187334060668945 0.7485136389732361 -2.4020309448242188
-7.2192063331604 0.31666824221611023 -2.4020309448242188
-7.22415018081665 0.17238357663154602 -2.4020309448242188
-7.226152420043945 0.028034057468175888 -2.4020309448242188
-7.225270748138428 -0.11633117496967316 -2.4020309448242188
-7.214855670928955 -0.4048481583595276 -2.4020309448242188
-7.159513473510742 -0.9794977903366089 -2.4020309448242188
-7.1146721839904785 -1.2647058963775635 -2.4020309448242188
-7.026144027709961 -1.6885900497436523 -2.4020309448242188
-6.991011619567871 -1.828611969947815 -2.4020309448242188
-6.912387371063232 -2.1064071655273438 -2.4020309448242188
-6.703286647796631 0.42834150791168213 -2.4020309448242188
-6.7169036865234375 0.02605850249528885 -2.4020309448242188
-6.7160844802856445 -0.10813308507204056 -2.4020309448242188
-6.712582111358643 -0.24227020144462585 -2.4020309448242188
-6.68602180480957 -0.6439076066017151 -2.4020309448242188
-6.613280296325684 -1.175578236579895 -2.4020309448242188
-6.588475704193115 -1.3074536323547363 -2.4020309448242188
-6.498335838317871 -1.6997451782226562 -2.4020309448242188
-6.463080406188965 -1.8292174339294434 -2.4020309448242188
-6.234334468841553 0.6492649912834167 -2.4020309448242188
-6.255295276641846 0.39971479773521423 -2.4020309448242188
-6.262032508850098 0.27467361092567444 -2.4020309448242188
-6.266268253326416 0.14952652156352997 -2.4020309448242188
-6.268008708953857 0.024317016825079918 -2.4020309448242188
-6.26724100112915 -0.10090606659650803 -2.4020309448242188
-6.258209705352783 -0.3511677384376526 -2.4020309448242188
-6.239185810089111 -0.6008741855621338 -2.4020309448242188
-6.2259368896484375 -0.725392758846283 -2.4020309448242188
-6.210205554962158 -0.8496218919754028 -2.4020309448242188
-6.09451961517334 -1.4646929502487183 -2.4020309448242188
-5.995847225189209 -1.8271100521087646 -2.4020309448242188
-5.837444305419922 0.6079246401786804 -2.4020309448242188
-5.848703861236572 0.49115583300590515 -2.4020309448242188
-5.8633575439453125 0.25718551874160767 -2.4020309448242188
-5.867325782775879 0.14000625908374786 -2.4020309448242188
-5.8520355224609375 -0.44580504298210144 -2.4020309448242188
-5.829557418823242 -0.6792101860046387 -2.4020309448242188
-5.778407573699951 -1.027171015739441 -2.4020309448242188
-5.706506729125977 -1.3714419603347778 -2.4020309448242188
-5.578819274902344 -1.8225913047790527 -2.4020309448242188
-5.492228984832764 0.46128126978874207 -2.4020309448242188
-5.506270408630371 0.24152235686779022 -2.4020309448242188
-5.5099992752075195 0.13147933781147003 -2.4020309448242188
-5.495637893676758 -0.4186549186706543 -2.4020309448242188
-5.486178398132324 -0.5283549427986145 -2.4020309448242188
-5.474529266357422 -0.637844979763031 -2.4020309448242188
-5.460693836212158 -0.7470808029174805 -2.4020309448242188
-5.383630752563477 -1.1806058883666992 -2.4020309448242188
-5.358973979949951 -1.2879198789596558 -2.4020309448242188
-5.303248405456543 -1.5009554624557495 -2.4020309448242188
-5.272206783294678 -1.606595754623413 -2.4020309448242188
-5.23906135559082 -1.7115930318832397 -2.4020309448242188
-5.171056270599365 0.43430739641189575 -2.4020309448242188
-5.178701877593994 0.3309202492237091 -2.4020309448242188
-5.187788963317871 0.12379104644060135 -2.4020309448242188
-5.1892266273498535 0.02013198845088482 -2.4020309448242188
-5.188590049743652 -0.08353942632675171 -2.4020309448242188
-5.185887336730957 -0.1871688812971115 -2.4020309448242188
-5.1811137199401855 -0.29072844982147217 -2.4020309448242188
-5.1653642654418945 -0.49745818972587585 -2.4020309448242188
-5.0900068283081055 -1.0100903511047363 -2.4020309448242188
-5.068815231323242 -1.1115683317184448 -2.4020309448242188
-5.02036714553833 -1.3131585121154785 -2.4020309448242188
-4.993131160736084 -1.4131836891174316 -2.4020309448242188
-4.963905334472656 -1.5126473903656006 -2.4020309448242188
-4.9326958656311035 -1.6115041971206665 -2.4020309448242188
-4.892175674438477 0.21458572149276733 -2.4020309448242188
-4.896239280700684 -0.07883239537477493 -2.4020309448242188
-4.8891825675964355 -0.27434736490249634 -2.4020309448242188
-4.88272762298584 -0.37196335196495056 -2.4020309448242188
-4.8743205070495605 -0.4694288671016693 -2.4020309448242188
-4.8639702796936035 -0.5667079091072083 -2.4020309448242188
-4.837452411651611 -0.7605471611022949 -2.4020309448242188
-4.821293354034424 -0.8570339679718018 -2.4020309448242188
-4.803210735321045 -0.9531754851341248 -2.4020309448242188
-4.783210277557373 -1.0489364862442017 -2.4020309448242188
-4.7613043785095215 -1.1442817449569702 -2.4020309448242188
-4.737494468688965 -1.2391685247421265 -2.4020309448242188
-4.654763698577881 -1.5207040309906006 -2.4020309448242188
-4.605255126953125 0.47960585355758667 -2.4020309448242188
-4.620737075805664 0.29526594281196594 -2.4020309448242188
-4.6257147789001465 0.20289871096611023 -2.4020309448242188
-4.630125045776367 0.01796310395002365 -2.4020309448242188
-4.62288761138916 -0.2594047486782074 -2.4020309448242188
-4.616784572601318 -0.3517043888568878 -2.4020309448242188
-4.6088361740112305 -0.4438609182834625 -2.4020309448242188
-4.599050998687744 -0.5358419418334961 -2.4020309448242188
-4.587428092956543 -0.6276086568832397 -2.4020309448242188
-4.541598320007324 -0.9012609720230103 -2.4020309448242188
-4.479461193084717 -1.171675443649292 -2.4020309448242188
-4.455160617828369 -1.260924220085144 -2.4020309448242188
-4.401238441467285 -1.4378772974014282 -2.4020309448242188
-4.3620476722717285 0.4542793035507202 -2.4020309448242188
-4.376715183258057 0.2796730101108551 -2.4020309448242188
-4.381430149078369 0.1921836882829666 -2.4020309448242188
-4.384393215179443 0.10462111979722977 -2.4020309448242188
-4.385607719421387 0.017014311626553535 -2.4020309448242188
-4.382787227630615 -0.15818344056606293 -2.4020309448242188
-4.378753662109375 -0.24570587277412415 -2.4020309448242188
-4.365443706512451 -0.4204208254814148 -2.4020309448242188
-4.332423210144043 -0.6811460852622986 -2.4020309448242188
-4.31795072555542 -0.767559826374054 -2.4020309448242188
-4.283844470977783 -0.9394276142120361 -2.4020309448242188
-4.242900371551514 -1.1097991466522217 -2.4020309448242188
-4.219883918762207 -1.1943351030349731 -2.4020309448242188
-4.1951823234558105 -1.2783949375152588 -2.4020309448242188
-4.168808460235596 -1.361943006515503 -2.4020309448242188
-2.230394124984741 0.18732741475105286 -1.292252779006958
-2.2283384799957275 0.14239181578159332 -1.2891548871994019
-2.2190074920654297 0.05294952169060707 -1.2815091609954834
-2.2164037227630615 -0.035685423761606216 -1.2798068523406982
-2.2225914001464844 -0.08021774142980576 -1.2840489149093628
-2.227065324783325 -0.12496764957904816 -1.2878191471099854
-2.230201482772827 -0.21478301286697388 -1.2935645580291748
-4.109954357147217 -0.6461695432662964 -2.4020309448242188
-4.063872814178467 -0.89118891954422 -2.4020309448242188
-4.003194332122803 -1.1330065727233887 -2.4020309448242188
-3.979762554168701 -1.2127500772476196 -2.4020309448242188
-3.9547417163848877 -1.2920076847076416 -2.4020309448242188
