ply
format ascii 1.0
element vertex 300
property float x
property float y
property float z
end_header
-2.3130857944488525 -42.814170837402344 -1.2073088884353638
-1.468206763267517 -42.81097412109375 -1.2061697244644165
-1.4969677925109863 -20.284196853637695 -1.0314959287643433
-1.5177197456359863 -44.254817962646484 -2.245670795440674
-0.6462353467941284 -44.29176712036133 -2.246464252471924
0.22609618306159973 -44.311614990234375 -2.247260808944702
1.0989818572998047 -44.3143310546875 -2.2480602264404297
1.9720629453659058 -44.29990005493164 -2.2488622665405273
2.8450071811676025 -44.26830291748047 -2.249666690826416
3.71746826171875 -44.219539642333984 -2.2504727840423584
4.589116096496582 -44.15360641479492 -2.2512807846069336
5.459606647491455 -44.07052230834961 -2.2520899772644043
6.328616619110107 -43.97028732299805 -2.2529001235961914
7.249482154846191 -39.31816482543945 -2.0275981426239014
8.900683403015137 -43.45648956298828 -2.2496156692504883
10.415485382080078 -46.20429992675781 -2.4020156860351562
11.323281288146973 -45.99025344848633 -2.4020156860351562
12.22667407989502 -45.75838088989258 -2.4020156860351562
13.125307083129883 -45.50886154174805 -2.4020156860351562
16.665571212768555 -44.33485412597656 -2.4020156860351562
-0.4471472203731537 -30.64666748046875 -2.2473182678222656
1.9678869247436523 -30.620346069335938 -2.2497811317443848
3.173736572265625 -30.53573226928711 -2.2510063648223877
3.7754247188568115 -30.4755802154541 -2.2516164779663086
4.375966548919678 -30.403539657592773 -2.2522246837615967
6.283955097198486 -25.52268409729004 -1.9272668361663818
6.291232585906982 -23.54496192932129 -1.7869325876235962
8.504684448242188 -29.487876892089844 -2.2502427101135254
6.325621128082275 -20.413936614990234 -1.5670067071914673
10.310626983642578 -31.094900131225586 -2.4020156860351562
11.526972770690918 -30.66481590270996 -2.4020156860351562
-1.0853453874588013 -20.089338302612305 -1.931490182876587
-0.8018957376480103 -23.382221221923828 -2.2461307048797607
-0.34139159321784973 -23.39839744567871 -2.24660325050354
0.5804040431976318 -23.403512954711914 -2.2475433349609375
1.502069115638733 -23.372182846069336 -2.248476266860962
1.962404727935791 -23.342878341674805 -2.248939275741577
2.422156810760498 -23.304481506347656 -2.2494001388549805
2.8811633586883545 -23.257009506225586 -2.2498581409454346
4.251842975616455 -23.060232162475586 -2.2512154579162598
4.706025123596191 -22.97658920288086 -2.251661539077759
5.60926628112793 -22.782384872436523 -2.252542734146118
6.057949066162109 -22.671899795532227 -2.2529778480529785
7.816574573516846 -22.106348037719727 -2.251086711883545
8.247167587280273 -21.93965721130371 -2.250216245651245
-0.6484826803207397 -18.908796310424805 -2.2474188804626465
-0.2760656774044037 -18.920961380004883 -2.2477829456329346
0.09656616300344467 -18.925819396972656 -2.248149871826172
0.4692919850349426 -18.923355102539062 -2.2485191822052
1.0407226085662842 -12.37946891784668 -1.4756933450698853
3.068697452545166 -18.701372146606445 -2.2511675357818604
2.281885862350464 -12.375999450683594 -1.494873046875
3.8039708137512207 -18.572412490844727 -2.2519397735595703
4.53386116027832 -18.414581298828125 -2.2527167797088623
5.616099834442139 -18.12419319152832 -2.2538886070251465
-1.1677013635635376 -15.82257080078125 -2.247986078262329
-0.23155395686626434 -15.870323181152344 -2.2488951683044434
0.3936120569705963 -15.871491432189941 -2.2495131492614746
1.6421911716461182 -15.800149917602539 -2.250772714614868
1.9532727003097534 -15.766987800598145 -2.251091957092285
2.573305606842041 -15.682330131530762 -2.251734733581543
3.1897032260894775 -15.573326110839844 -2.252382516860962
4.407787799835205 -15.28290843963623 -2.2536885738372803
5.007214069366455 -15.10079574584961 -2.254180669784546
5.595376014709473 -14.885188102722168 -2.253159523010254
-0.7365453839302063 -13.633085250854492 -2.2491791248321533
-0.4680102467536926 -13.646528244018555 -2.2494399547576904
-0.19922973215579987 -13.654694557189941 -2.2497029304504395
0.06968627870082855 -13.65757942199707 -2.2499678134918213
0.33864378929138184 -13.655177116394043 -2.250234603881836
0.6075329184532166 -13.647489547729492 -2.2505033016204834
0.8762475252151489 -13.634517669677734 -2.2507736682891846
1.412758708000183 -13.592735290527344 -2.2513186931610107
1.6803466081619263 -13.563935279846191 -2.2515933513641357
1.9473474025726318 -13.529877662658691 -2.2518692016601562
2.213660955429077 -13.490567207336426 -2.2521464824676514
3.2699573040008545 -13.28113842010498 -2.2532644271850586
4.049911022186279 -13.069808959960938 -2.2541098594665527
-0.8814721703529358 -11.943204879760742 -2.250959873199463
-0.4103955030441284 -11.964326858520508 -2.2501473426818848
-0.17479491233825684 -11.970495223999023 -2.250222682952881
0.06095702946186066 -11.972396850585938 -2.250370740890503
0.2969079613685608 -11.96996784210205 -2.2505764961242676
0.5322704911231995 -11.963200569152832 -2.2508389949798584
0.767871081829071 -11.952093124389648 -2.251159429550171
1.003456950187683 -11.936813354492188 -2.251568555831909
1.23876953125 -11.91896915435791 -2.252368211746216
1.4740307331085205 -11.897473335266113 -2.253354549407959
1.7085204124450684 -11.871835708618164 -2.2544353008270264
2.4064111709594727 -11.748985290527344 -2.254194498062134
2.637164354324341 -11.698765754699707 -2.254086971282959
3.3227038383483887 -11.520647048950195 -2.2536942958831787
3.5486693382263184 -11.452201843261719 -2.253540515899658
3.773207902908325 -11.379270553588867 -2.253375291824341
3.9962315559387207 -11.301881790161133 -2.2531988620758057
4.211320877075195 -11.203231811523438 -2.249630928039551
-0.783801257610321 -10.620668411254883 -2.251101016998291
-0.5745288133621216 -10.634282112121582 -2.2511520385742188
-0.3650268614292145 -10.643726348876953 -2.251192808151245
-0.1553698629140854 -10.648992538452148 -2.251222848892212
0.054344482719898224 -10.650080680847168 -2.2512423992156982
0.473640114068985 -10.639719009399414 -2.2512502670288086
0.6830517649650574 -10.628273963928223 -2.2512383460998535
0.8921899199485779 -10.612658500671387 -2.251215934753418
1.1009716987609863 -10.592875480651855 -2.251183032989502
1.5171434879302979 -10.54085636138916 -2.2510857582092285
1.9308812618255615 -10.47230052947998 -2.2509467601776123
2.1366357803344727 -10.431855201721191 -2.250861883163452
2.3415355682373047 -10.387320518493652 -2.2507662773132324
2.5455005168914795 -10.338712692260742 -2.2506604194641113
2.950281858444214 -10.229368209838867 -2.2504184246063232
3.150942325592041 -10.16867446899414 -2.250282049179077
3.350346565246582 -10.104000091552734 -2.2501354217529297
-0.5237988233566284 -9.695266723632812 -2.2819337844848633
-0.3325292766094208 -9.696064949035645 -2.280137538909912
0.04947753623127937 -9.697187423706055 -2.2790918350219727
0.24049438536167145 -9.697514533996582 -2.279839277267456
0.4317028820514679 -9.697684288024902 -2.2814362049102783
0.8152599930763245 -9.697552680969238 -2.2871875762939453
1.2012706995010376 -9.69678783416748 -2.29638934135437
1.5909093618392944 -9.695380210876465 -2.309110164642334
1.7874584197998047 -9.69443130493164 -2.316818952560425
1.9853723049163818 -9.693315505981445 -2.325446128845215
2.184800863265991 -9.692030906677246 -2.335007667541504
2.3859214782714844 -9.690572738647461 -2.345522403717041
3.2107555866241455 -9.682944297790527 -2.39755916595459
3.407114267349243 -9.635785102844238 -2.4020309448242188
-0.5004772543907166 -9.263688087463379 -2.4020309448242188
0.04734252765774727 -9.277076721191406 -2.4020309448242188
0.594958484172821 -9.258098602294922 -2.4020309448242188
0.958968460559845 -9.227486610412598 -2.4020309448242188
1.140572428703308 -9.206816673278809 -2.4020309448242188
1.502199649810791 -9.154763221740723 -2.4020309448242188
1.8614940643310547 -9.088518142700195 -2.4020309448242188
2.2179064750671387 -9.008173942565918 -2.4020309448242188
2.570871591567993 -8.913861274719238 -2.4020309448242188
2.74589467048645 -8.861510276794434 -2.4020309448242188
3.092681884765625 -8.746521949768066 -2.4020309448242188
3.264307737350464 -8.683928489685059 -2.4020309448242188
-0.6244872808456421 -8.46194839477539 -2.4020309448242188
-0.29082274436950684 -8.479974746704102 -2.4020309448242188
-0.12378662079572678 -8.48405647277832 -2.4020309448242188
0.043293457478284836 -8.48484992980957 -2.4020309448242188
0.7108105421066284 -8.455134391784668 -2.4020309448242188
1.2087780237197876 -8.398408889770508 -2.4020309448242188
1.538521647453308 -8.344308853149414 -2.4020309448242188
1.7025316953659058 -8.312387466430664 -2.4020309448242188
1.865877628326416 -8.277253150939941 -2.4020309448242188
2.190342903137207 -8.197366714477539 -2.4020309448242188
2.670511484146118 -8.053750038146973 -2.4020309448242188
2.8285765647888184 -7.999597072601318 -2.4020309448242188
2.985546827316284 -7.942351341247559 -2.4020309448242188
-0.11393187940120697 -7.808657169342041 -2.4020309448242188
0.19361205399036407 -7.8070902824401855 -2.4020309448242188
0.34730467200279236 -7.801762580871582 -2.4020309448242188
1.112548828125 -7.729835033416748 -2.4020309448242188
1.4160436391830444 -7.680037021636963 -2.4020309448242188
1.5669958591461182 -7.650662899017334 -2.4020309448242188
1.7173376083374023 -7.618324279785156 -2.4020309448242188
1.8670202493667603 -7.5830302238464355 -2.4020309448242188
2.457916259765625 -7.412608623504639 -2.4020309448242188
2.603400707244873 -7.362771511077881 -2.4020309448242188
2.747873544692993 -7.310081481933594 -2.4020309448242188
-0.5318456888198853 -7.206606864929199 -2.4020309448242188
-0.3898352086544037 -7.215681552886963 -2.4020309448242188
0.17915283143520355 -7.223982810974121 -2.4020309448242188
0.32136595249176025 -7.219055652618408 -2.4020309448242188
0.46345335245132446 -7.21132755279541 -2.4020309448242188
0.6053600907325745 -7.200802326202393 -2.4020309448242188
0.7470324635505676 -7.1874871253967285 -2.4020309448242188
0.8884167075157166 -7.171384811401367 -2.4020309448242188
1.1700963973999023 -7.1308417320251465 -2.4020309448242188
1.3102819919586182 -7.106420040130615 -2.4020309448242188
1.449959635734558 -7.079240798950195 -2.4020309448242188
1.5890734195709229 -7.049318790435791 -2.4020309448242188
1.7275744676589966 -7.016660213470459 -2.4020309448242188
2.138836622238159 -6.902420997619629 -2.4020309448242188
2.542637825012207 -6.764097690582275 -2.4020309448242188
-0.49436521530151367 -6.698735237121582 -2.4020309448242188
-0.3623620569705963 -6.707170486450195 -2.4020309448242188
0.03427368029952049 -6.716865539550781 -2.4020309448242188
0.4307910203933716 -6.703123569488525 -2.4020309448242188
0.8258056640625 -6.665994644165039 -2.4020309448242188
1.2179406881332397 -6.60560941696167 -2.4020309448242188
1.347774624824524 -6.58034610748291 -2.4020309448242188
1.6058275699615479 -6.522175312042236 -2.4020309448242188
-0.33814817667007446 -6.258925437927246 -2.4020309448242188
-0.09144409000873566 -6.267385959625244 -2.4020309448242188
0.0319836400449276 -6.267971038818359 -2.4020309448242188
0.1553967297077179 -6.26612663269043 -2.4020309448242188
0.4020019471645355 -6.2551469802856445 -2.4020309448242188
0.5250952243804932 -6.246018409729004 -2.4020309448242188
0.6479809284210205 -6.234467506408691 -2.4020309448242188
0.8929553031921387 -6.204121112823486 -2.4020309448242188
1.1365454196929932 -6.164151668548584 -2.4020309448242188
1.2577025890350342 -6.140575408935547 -2.4020309448242188
1.3783702850341797 -6.114620208740234 -2.4020309448242188
1.4985095262527466 -6.086291790008545 -2.4020309448242188
1.6180615425109863 -6.055605411529541 -2.4020309448242188
1.7369872331619263 -6.022571086883545 -2.4020309448242188
2.205500364303589 -5.867218017578125 -2.4020309448242188
-0.4319543242454529 -5.853074073791504 -2.4020309448242188
-0.20115478336811066 -5.865542411804199 -2.4020309448242188
0.02994384616613388 -5.86891508102417 -2.4020309448242188
0.2610119581222534 -5.863184452056885 -2.4020309448242188
0.376411110162735 -5.856908321380615 -2.4020309448242188
0.4916638135910034 -5.848360538482666 -2.4020309448242188
0.7215588092803955 -5.824467182159424 -2.4020309448242188
0.9503332376480103 -5.791539669036865 -2.4020309448242188
1.4031041860580444 -5.698803424835205 -2.4020309448242188
1.5150500535964966 -5.670070171356201 -2.4020309448242188
1.73712158203125 -5.606019973754883 -2.4020309448242188
-0.4056433141231537 -5.496612548828125 -2.4020309448242188
-0.2973339855670929 -5.503535270690918 -2.4020309448242188
-0.1889050304889679 -5.508322238922119 -2.4020309448242188
-0.07857543975114822 -5.510859489440918 -2.4020309448242188
0.13664916157722473 -5.509866714477539 -2.4020309448242188
0.2451135218143463 -5.506108283996582 -2.4020309448242188
0.4617236256599426 -5.492186546325684 -2.4020309448242188
0.5697778463363647 -5.482029914855957 -2.4020309448242188
0.6776110529899597 -5.469748020172119 -2.4020309448242188
0.785186767578125 -5.4553446769714355 -2.4020309448242188
0.8924645781517029 -5.438826084136963 -2.4020309448242188
0.9993749856948853 -5.420198917388916 -2.4020309448242188
1.2120202779769897 -5.376646041870117 -2.4020309448242188
1.73468017578125 -5.231461048126221 -2.4020309448242188
1.8373546600341797 -5.196289539337158 -2.4020309448242188
1.9393187761306763 -5.1591033935546875 -2.4020309448242188
-0.381927490234375 -5.1751885414123535 -2.4020309448242188
-0.2799474895000458 -5.181704998016357 -2.4020309448242188
-0.07570556551218033 -5.1887102127075195 -2.4020309448242188
0.026478270068764687 -5.189194679260254 -2.4020309448242188
0.12865355610847473 -5.187668323516846 -2.4020309448242188
0.33281493186950684 -5.178578853607178 -2.4020309448242188
0.4347204566001892 -5.171020984649658 -2.4020309448242188
0.6379858255386353 -5.149893760681152 -2.4020309448242188
0.7392687797546387 -5.13633394241333 -2.4020309448242188
0.9409350156784058 -5.103245258331299 -2.4020309448242188
1.0412414073944092 -5.08372688293457 -2.4020309448242188
1.1411412954330444 -5.06223726272583 -2.4020309448242188
1.2406005859375 -5.038784503936768 -2.4020309448242188
1.5359350442886353 -4.956747531890869 -2.4020309448242188
1.63323974609375 -4.92554235458374 -2.4020309448242188
1.7299108505249023 -4.892426490783691 -2.4020309448242188
-0.3604089319705963 -4.883594036102295 -2.4020309448242188
-0.16784179210662842 -4.893996238708496 -2.4020309448242188
-0.0714404284954071 -4.896352291107178 -2.4020309448242188
0.2177734375 -4.892029285430908 -2.4020309448242188
0.5062292218208313 -4.870635986328125 -2.4020309448242188
0.602038562297821 -4.859724521636963 -2.4020309448242188
0.6976147294044495 -4.846928596496582 -2.4020309448242188
0.792919933795929 -4.832251071929932 -2.4020309448242188
0.8879174590110779 -4.815701007843018 -2.4020309448242188
0.9825695753097534 -4.79728364944458 -2.4020309448242188
1.0768407583236694 -4.777006149291992 -2.4020309448242188
1.1706981658935547 -4.754875183105469 -2.4020309448242188
1.5412157773971558 -4.648013114929199 -2.4020309448242188
-0.24981078505516052 -4.623432636260986 -2.4020309448242188
-0.15869994461536407 -4.627439498901367 -2.4020309448242188
0.023623045533895493 -4.630099773406982 -2.4020309448242188
0.11479248106479645 -4.628736972808838 -2.4020309448242188
0.20591063797473907 -4.625579833984375 -2.4020309448242188
0.3878820836544037 -4.613883972167969 -2.4020309448242188
0.47865721583366394 -4.605352401733398 -2.4020309448242188
0.5692468285560608 -4.595034599304199 -2.4020309448242188
0.6596167087554932 -4.58293342590332 -2.4020309448242188
0.7497338652610779 -4.569057464599609 -2.4020309448242188
0.9290539622306824 -4.535994052886963 -2.4020309448242188
1.1069347858428955 -4.4958953857421875 -2.4020309448242188
1.1952489614486694 -4.473227024078369 -2.4020309448242188
1.2830981016159058 -4.448824405670166 -2.4020309448242188
1.5435278415679932 -4.365306377410889 -2.4020309448242188
-0.23659545183181763 -4.3792548179626465 -2.4020309448242188
-0.06398193538188934 -4.385173797607422 -2.4020309448242188
0.022376708686351776 -4.385583877563477 -2.4020309448242188
0.1950390636920929 -4.381302356719971 -2.4020309448242188
0.4533788859844208 -4.362143039703369 -2.4020309448242188
0.5391857624053955 -4.352369785308838 -2.4020309448242188
0.6247839331626892 -4.340909481048584 -2.4020309448242188
0.9644201397895813 -4.278287410736084 -2.4020309448242188
1.2153369188308716 -4.2138824462890625 -2.4020309448242188
1.2980761528015137 -4.18913459777832 -2.4020309448242188
1.3803112506866455 -4.16276216506958 -2.4020309448242188
-0.3062084913253784 -4.149158000946045 -2.4020309448242188
-0.22444579005241394 -4.154382228851318 -2.4020309448242188
-0.14259886741638184 -4.157994270324707 -2.4020309448242188
0.02122802659869194 -4.1603851318359375 -2.4020309448242188
0.10314452648162842 -4.159162521362305 -2.4020309448242188
0.18502318859100342 -4.156322956085205 -2.4020309448242188
0.26682859659194946 -4.151873588562012 -2.4020309448242188
0.43010008335113525 -4.138147354125977 -2.4020309448242188
0.6736742854118347 -4.10553503036499 -2.4020309448242188
0.7543847560882568 -4.091474533081055 -2.4020309448242188
0.8348022103309631 -4.075826168060303 -2.4020309448242188
0.9148974418640137 -4.058598518371582 -2.4020309448242188
0.9946386218070984 -4.039795398712158 -2.4020309448242188
1.0739941596984863 -4.019428730010986 -2.4020309448242188
1.2314196825027466 -3.9740233421325684 -2.4020309448242188
1.3094347715377808 -3.9490058422088623 -2.4020309448242188
1.463906168937683 -3.8943846225738525 -2.4020309448242188
