ply
format ascii 1.0
element vertex 269
property float x
property float y
property float z
end_header
5.5818772315979 -12.292341232299805 2.380474328994751
5.581881046295166 -12.292341232299805 1.1428419351577759
5.5818772315979 -12.292341232299805 -0.3801392912864685
0.8375903367996216 -44.31531524658203 -2.2478206157684326
1.740602970123291 -44.30540084838867 -2.2486495971679688
2.643552303314209 -44.277122497558594 -2.249480962753296
3.5460925102233887 -44.23048400878906 -2.250314235687256
6.247373104095459 -43.98039627075195 -2.252824306488037
7.14447021484375 -43.86035919189453 -2.2536630630493164
7.236067771911621 -39.35387420654297 -2.029262065887451
8.908686637878418 -43.45485305786133 -2.2496156692504883
14.179950714111328 -45.19126892089844 -2.4020156860351562
16.008548736572266 -44.57630157470703 -2.4020156860351562
17.81060218811035 -43.88734436035156 -2.4020156860351562
5.581881046295166 -12.292340278625488 -0.6846595406532288
0.5794726610183716 -30.658756256103516 -2.2483668327331543
1.204095482826233 -30.649269104003906 -2.2490036487579346
1.828585147857666 -30.627042770385742 -2.2496395111083984
3.076059579849243 -30.54437255859375 -2.2509071826934814
4.319820404052734 -30.410776138305664 -2.2521677017211914
5.55778694152832 -30.22641944885254 -2.2534191608428955
6.17393684387207 -30.115264892578125 -2.2540407180786133
6.787859916687012 -29.99150276184082 -2.2546591758728027
7.391915321350098 -29.825414657592773 -2.253026008605957
7.992307186126709 -29.64824104309082 -2.251473903656006
8.588995933532715 -29.46055030822754 -2.250040054321289
6.31321382522583 -20.12006378173828 -1.5461814403533936
6.340573787689209 -18.8541259765625 -1.4585044384002686
0.44237059354782104 -23.405040740966797 -2.247403144836426
1.3957592248916626 -23.37767791748047 -2.248368978500366
1.8719885349273682 -23.34935760498047 -2.2488484382629395
2.3476414680480957 -23.311330795288086 -2.2493255138397217
3.7691357135772705 -23.13900375366211 -2.250739336013794
4.240489482879639 -23.06220245361328 -2.251204252243042
4.710270881652832 -22.975765228271484 -2.2516655921936035
5.644320011138916 -22.774091720581055 -2.2525768280029297
6.5697021484375 -22.534286499023438 -2.253471851348877
7.024665355682373 -22.387489318847656 -2.252634286880493
7.924330711364746 -22.06554412841797 -2.250869035720825
6.354819297790527 -16.62286376953125 -1.7085163593292236
5.581881046295166 -12.292340278625488 -1.2960981130599976
0.3576892018318176 -18.924861907958984 -2.248408317565918
1.5134618282318115 -18.877431869506836 -2.249567747116089
1.8979430198669434 -18.84596824645996 -2.2499589920043945
2.281768798828125 -18.80668830871582 -2.250352382659912
3.0468406677246094 -18.704750061035156 -2.2511446475982666
3.8073997497558594 -18.571741104125977 -2.251943349838257
4.185593128204346 -18.49363899230957 -2.252344846725464
4.562188625335693 -18.40785026550293 -2.252747058868408
5.309953689575195 -18.21331024169922 -2.2535548210144043
5.680635929107666 -18.10408592224121 -2.2538902759552
6.046475887298584 -17.9796085357666 -2.2532598972320557
7.482018947601318 -17.410245895385742 -2.2509765625
5.581878662109375 -12.292341232299805 -1.6036491394042969
0.6233068704605103 -15.865753173828125 -2.249742031097412
1.269283413887024 -15.83178424835205 -2.2503929138183594
1.5916845798492432 -15.804953575134277 -2.250720977783203
1.9135265350341797 -15.77157211303711 -2.2510509490966797
2.8743247985839844 -15.632222175598145 -2.2520499229431152
3.192575693130493 -15.572759628295898 -2.2523856163024902
4.451982498168945 -15.27044677734375 -2.253736734390259
4.762778282165527 -15.178895950317383 -2.2540762424468994
5.070911884307861 -15.078709602355957 -2.25407075881958
4.442383766174316 -12.369961738586426 -1.8622894287109375
5.978054046630859 -14.730610847473145 -2.2524960041046143
6.275382995605469 -14.602458953857422 -2.2519795894622803
5.5818772315979 -12.292341232299805 -1.9128532409667969
0.2581127882003784 -13.656450271606445 -2.250154495239258
0.8142553567886353 -13.637979507446289 -2.250710964202881
1.3693139553070068 -13.59691047668457 -2.2512741088867188
1.9223912954330444 -13.533284187316895 -2.2518434524536133
2.197894334793091 -13.493042945861816 -2.2521300315856934
2.4725608825683594 -13.447197914123535 -2.252417802810669
2.746271848678589 -13.395770072937012 -2.252706289291382
3.0189123153686523 -13.338772773742676 -2.2529959678649902
3.290374755859375 -13.27623176574707 -2.253286123275757
3.5605406761169434 -13.208170890808105 -2.25357723236084
4.362143516540527 -12.971136093139648 -2.254453182220459
5.141883373260498 -12.670191764831543 -2.252610921859741
5.396107196807861 -12.556439399719238 -2.251461982727051
0.47010862827301025 -11.965411186218262 -2.2507641315460205
0.713854968547821 -11.955039978027344 -2.2510805130004883
0.9571813941001892 -11.940025329589844 -2.251458168029785
1.2005382776260376 -11.922122955322266 -2.252227544784546
1.443359375 -11.900392532348633 -2.2532105445861816
1.6868261098861694 -11.874655723571777 -2.254375696182251
1.928282380104065 -11.837855339050293 -2.2543792724609375
2.4085729122161865 -11.748538970947266 -2.2541935443878174
2.647216796875 -11.696467399597168 -2.254081964492798
3.120990037918091 -11.577618598937988 -2.25382137298584
3.3559155464172363 -11.51090145111084 -2.2536725997924805
4.273868083953857 -11.179522514343262 -2.249630928039551
4.725594520568848 -10.99620246887207 -2.249630928039551
4.948570251464844 -10.897684097290039 -2.249630928039551
0.2012622058391571 -10.648354530334473 -2.2512500286102295
0.4180895984172821 -10.642054557800293 -2.251251697540283
0.851123034954071 -10.616053581237793 -2.251221179962158
1.067141056060791 -10.596366882324219 -2.2511889934539795
1.497719645500183 -10.543661117553711 -2.251091241836548
2.1385583877563477 -10.43145751953125 -2.2508609294891357
2.5613598823547363 -10.334752082824707 -2.2506518363952637
3.187108039855957 -10.157270431518555 -2.250256061553955
3.597602367401123 -10.017637252807617 -2.2499382495880127
3.800584554672241 -9.94151496887207 -2.249763250350952
4.002032279968262 -9.861468315124512 -2.249630928039551
4.416380405426025 -9.725699424743652 -2.257847309112549
0.1832873523235321 -9.697433471679688 -2.279526948928833
0.3809851109981537 -9.697653770446777 -2.2809298038482666
0.5790002346038818 -9.697708129882812 -2.28324294090271
1.3773412704467773 -9.696229934692383 -2.301713466644287
1.782537817955017 -9.694456100463867 -2.316615343093872
2.8241260051727295 -9.686844825744629 -2.3714115619659424
3.256115674972534 -9.682448387145996 -2.400831460952759
3.6496007442474365 -9.546578407287598 -2.4020309448242188
3.843273878097534 -9.470268249511719 -2.4020309448242188
4.035347938537598 -9.390033721923828 -2.4020309448242188
0.17527465522289276 -9.27553653717041 -2.4020309448242188
0.9297082424163818 -9.23050308227539 -2.4020309448242188
1.304718017578125 -9.184993743896484 -2.4020309448242188
1.6776891946792603 -9.124239921569824 -2.4020309448242188
1.8631689548492432 -9.088173866271973 -2.4020309448242188
2.4146666526794434 -8.957442283630371 -2.4020309448242188
2.596595287322998 -8.906407356262207 -2.4020309448242188
2.7774438858032227 -8.851673126220703 -2.4020309448242188
2.9571447372436523 -8.793275833129883 -2.4020309448242188
3.662935733795166 -8.52345085144043 -2.4020309448242188
3.8357701301574707 -8.447086334228516 -2.4020309448242188
0.33308592438697815 -8.478412628173828 -2.4020309448242188
0.5056921243667603 -8.469878196716309 -2.4020309448242188
0.6780895590782166 -8.4578218460083 -2.4020309448242188
0.8502026200294495 -8.442255020141602 -2.4020309448242188
1.0219652652740479 -8.42319107055664 -2.4020309448242188
1.3641467094421387 -8.37458324432373 -2.4020309448242188
1.8729979991912842 -8.275652885437012 -2.4020309448242188
2.0411534309387207 -8.235790252685547 -2.4020309448242188
2.208463191986084 -8.192509651184082 -2.4020309448242188
2.374857187271118 -8.145833969116211 -2.4020309448242188
3.0298912525177 -7.925547122955322 -2.4020309448242188
3.3501341342926025 -7.795577049255371 -2.4020309448242188
3.508211612701416 -7.725736141204834 -2.4020309448242188
0.30656859278678894 -7.803469181060791 -2.4020309448242188
0.4654333293437958 -7.7956085205078125 -2.4020309448242188
0.6241076588630676 -7.784511089324951 -2.4020309448242188
1.412268042564392 -7.680729866027832 -2.4020309448242188
1.5684045553207397 -7.650373935699463 -2.4020309448242188
2.0326499938964844 -7.54032039642334 -2.4020309448242188
2.4893078804016113 -7.402126789093018 -2.4020309448242188
2.639543294906616 -7.349893093109131 -2.4020309448242188
3.0834386348724365 -7.17499303817749 -2.4020309448242188
0.5774939060211182 -7.2030930519104 -2.4020309448242188
1.0162756443023682 -7.154384613037109 -2.4020309448242188
1.161773681640625 -7.132204532623291 -2.4020309448242188
1.306789517402649 -7.107062816619873 -2.4020309448242188
1.7383458614349365 -7.0139994621276855 -2.4020309448242188
2.022542715072632 -6.937388896942139 -2.4020309448242188
2.303382635116577 -6.849267959594727 -2.4020309448242188
2.4423985481262207 -6.800935745239258 -2.4020309448242188
2.7173352241516113 -6.695827484130859 -2.4020309448242188
2.8531408309936523 -6.639098167419434 -2.4020309448242188
2.987762451171875 -6.57961368560791 -2.4020309448242188
0.12693236768245697 -6.715753555297852 -2.4020309448242188
0.40032103657722473 -6.705012798309326 -2.4020309448242188
0.5367956161499023 -6.695469379425049 -2.4020309448242188
0.673046886920929 -6.683146953582764 -2.4020309448242188
0.9446545243263245 -6.65019416809082 -2.4020309448242188
1.2146960496902466 -6.60620641708374 -2.4020309448242188
1.748287320137024 -6.485440731048584 -2.4020309448242188
1.8800084590911865 -6.448489189147949 -2.4020309448242188
2.0109496116638184 -6.408862590789795 -2.4020309448242188
2.1410558223724365 -6.366579055786133 -2.4020309448242188
2.652071475982666 -6.171219825744629 -2.4020309448242188
2.777208089828491 -6.115927696228027 -2.4020309448242188
0.11844848096370697 -6.266932964324951 -2.4020309448242188
0.3735668957233429 -6.256910800933838 -2.4020309448242188
0.5009216070175171 -6.248005390167236 -2.4020309448242188
0.6280664205551147 -6.23650598526001 -2.4020309448242188
0.8815234303474426 -6.205757141113281 -2.4020309448242188
1.0077307224273682 -6.186514854431152 -2.4020309448242188
1.1335155963897705 -6.164708614349365 -2.4020309448242188
1.631447672843933 -6.052013397216797 -2.4020309448242188
1.754366397857666 -6.01753044128418 -2.4020309448242188
1.876556396484375 -5.98055362701416 -2.4020309448242188
1.9979699850082397 -5.941096782684326 -2.4020309448242188
2.2382566928863525 -5.854800701141357 -2.4020309448242188
2.4748315811157227 -5.758791923522949 -2.4020309448242188
0.11091308295726776 -5.867942810058594 -2.4020309448242188
0.23039306700229645 -5.864468097686768 -2.4020309448242188
0.34978148341178894 -5.858558654785156 -2.4020309448242188
0.4690307378768921 -5.850220203399658 -2.4020309448242188
0.8254003524780273 -5.810661315917969 -2.4020309448242188
1.295538306236267 -5.724215507507324 -2.4020309448242188
1.757086157798767 -5.599795341491699 -2.4020309448242188
2.095756769180298 -5.482049942016602 -2.4020309448242188
2.426612377166748 -5.343841552734375 -2.4020309448242188
0.104156494140625 -5.5105767250061035 -2.4020309448242188
0.21636229753494263 -5.507313251495361 -2.4020309448242188
0.5522692799568176 -5.483821868896484 -2.4020309448242188
0.663836658000946 -5.471436500549316 -2.4020309448242188
0.7768408060073853 -5.456674575805664 -2.4020309448242188
0.8861157298088074 -5.439863681793213 -2.4020309448242188
1.1069103479385376 -5.399265766143799 -2.4020309448242188
1.2166393995285034 -5.375601768493652 -2.4020309448242188
1.4345519542694092 -5.321595191955566 -2.4020309448242188
1.6500744819641113 -5.258760929107666 -2.4020309448242188
1.7568334341049194 -5.224063396453857 -2.4020309448242188
1.8628637790679932 -5.18720006942749 -2.4020309448242188
2.072563409805298 -5.107032775878906 -2.4020309448242188
0.5199694633483887 -5.163145542144775 -2.4020309448242188
0.6250170469284058 -5.151484489440918 -2.4020309448242188
0.7298034429550171 -5.1376872062683105 -2.4020309448242188
1.2483361959457397 -5.036873817443848 -2.4020309448242188
1.5535814762115479 -4.951243877410889 -2.4020309448242188
1.6540979146957397 -4.9185791015625 -2.4020309448242188
1.9513647556304932 -4.808391094207764 -2.4020309448242188
2.048886775970459 -4.767651081085205 -2.4020309448242188
2.1455626487731934 -4.724935054779053 -2.4020309448242188
0.09253662079572678 -4.896000385284424 -2.4020309448242188
0.1922314465045929 -4.893099308013916 -2.4020309448242188
0.2918457090854645 -4.88817024230957 -2.4020309448242188
0.39134031534194946 -4.88121223449707 -2.4020309448242188
0.8855504989624023 -4.816136360168457 -2.4020309448242188
1.0809496641159058 -4.776078224182129 -2.4020309448242188
1.2745556831359863 -4.728094100952148 -2.4020309448242188
1.3705847263336182 -4.701155662536621 -2.4020309448242188
1.4660449028015137 -4.672267436981201 -2.4020309448242188
1.5608984231948853 -4.641440391540527 -2.4020309448242188
1.6551024913787842 -4.6086883544921875 -2.4020309448242188
1.7486218214035034 -4.574023246765137 -2.4020309448242188
1.8414148092269897 -4.53746223449707 -2.4020309448242188
2.024670362472534 -4.458707809448242 -2.4020309448242188
0.1817614734172821 -4.626591205596924 -2.4020309448242188
0.370025634765625 -4.615350723266602 -2.4020309448242188
0.5576745271682739 -4.5964531898498535 -2.4020309448242188
0.651171863079071 -4.584142208099365 -2.4020309448242188
0.929888904094696 -4.535822868347168 -2.4020309448242188
1.1138439178466797 -4.49418306350708 -2.4020309448242188
1.2051403522491455 -4.470569133758545 -2.4020309448242188
1.4758825302124023 -4.388638973236084 -2.4020309448242188
1.5649535655975342 -4.357669353485107 -2.4020309448242188
1.7411205768585205 -4.290322780609131 -2.4020309448242188
1.9143956899642944 -4.2158589363098145 -2.4020309448242188
0.17216064035892487 -4.382261276245117 -2.4020309448242188
0.2613769471645355 -4.37784481048584 -2.4020309448242188
0.35048338770866394 -4.371614456176758 -2.4020309448242188
0.5282238721847534 -4.353714466094971 -2.4020309448242188
0.7930981516838074 -4.313332557678223 -2.4020309448242188
0.9680993556976318 -4.277455806732178 -2.4020309448242188
1.0550146102905273 -4.256853103637695 -2.4020309448242188
1.1414928436279297 -4.234482288360596 -2.4020309448242188
1.2274950742721558 -4.21035623550415 -2.4020309448242188
1.312990665435791 -4.184483528137207 -2.4020309448242188
1.482308268547058 -4.127542018890381 -2.4020309448242188
1.5660595893859863 -4.096500396728516 -2.4020309448242188
1.6491601467132568 -4.0637617111206055 -2.4020309448242188
1.7315917015075684 -4.029321670532227 -2.4020309448242188
0.16332274675369263 -4.157232761383057 -2.4020309448242188
0.41688108444213867 -4.139502048492432 -2.4020309448242188
0.5010888576507568 -4.130159378051758 -2.4020309448242188
0.5851001143455505 -4.119099140167236 -2.4020309448242188
0.6688818335533142 -4.106318473815918 -2.4020309448242188
0.7523730397224426 -4.09184455871582 -2.4020309448242188
0.8355541825294495 -4.075672626495361 -2.4020309448242188
1.0008410215377808 -4.038264274597168 -2.4020309448242188
1.0828783512115479 -4.017042636871338 -2.4020309448242188
1.1644641160964966 -3.994155168533325 -2.4020309448242188
1.2455700635910034 -3.969611644744873 -2.4020309448242188
1.4061938524246216 -3.915593147277832 -2.4020309448242188
1.5644872188568115 -3.8550798892974854 -2.4020309448242188
1.642675757408142 -3.8224170207977295 -2.4020309448242188
