ply
format ascii 1.0
element vertex 270
property float x
property float y
property float z
end_header
-3.7952868938446045 -42.877197265625 -1.2120463848114014
-2.069328546524048 -42.81137466430664 -1.206879734992981
-2.612729549407959 -20.256738662719727 -1.0358158349990845
-1.7943187952041626 -20.271236419677734 -1.0320605039596558
-1.3877612352371216 -20.28945541381836 -1.0313690900802612
-0.9923669099807739 -20.530702590942383 -1.0424152612686157
-0.3681909143924713 -44.29996109008789 -2.246717691421509
1.404051423072815 -44.311241149902344 -2.248340368270874
3.1766443252563477 -44.25179672241211 -2.2499728202819824
8.448244094848633 -43.54670333862305 -2.2496156692504883
9.948339462280273 -46.30708694458008 -2.4020156860351562
10.872133255004883 -46.09899139404297 -2.4020156860351562
14.520170211791992 -45.08308410644531 -2.4020156860351562
-2.5967137813568115 -20.13262367248535 -1.4883953332901
-2.1888415813446045 -20.135786056518555 -1.4850964546203613
-1.7782336473464966 -20.089567184448242 -1.4787695407867432
-0.9699780344963074 -20.067419052124023 -1.4731042385101318
-0.5806847810745239 -20.510099411010742 -1.5044469833374023
-0.25474974513053894 -30.65155029296875 -2.2475149631500244
2.809468984603882 -30.566341400146484 -2.250636577606201
3.420933723449707 -30.512474060058594 -2.2512569427490234
4.031367301940918 -30.44635009765625 -2.251875638961792
4.640521049499512 -30.367982864379883 -2.2524924278259277
5.248156547546387 -30.27739143371582 -2.2531065940856934
5.854002475738525 -30.174604415893555 -2.253718137741089
7.056272983551025 -29.91933822631836 -2.2539353370666504
7.647575378417969 -29.751121520996094 -2.252332925796509
8.235556602478027 -29.573322296142578 -2.250889539718628
10.043075561523438 -31.182342529296875 -2.4020156860351562
-2.1854357719421387 -20.10451316833496 -1.9415048360824585
-0.19449950754642487 -23.40164566040039 -2.246753454208374
2.1442418098449707 -23.328815460205078 -2.249121904373169
6.29624605178833 -22.609394073486328 -2.2532081604003906
6.746955394744873 -22.478858947753906 -2.2531964778900146
7.192174911499023 -22.330690383911133 -2.252310276031494
-2.418426513671875 -18.750322341918945 -2.2457242012023926
-2.043400764465332 -18.797889709472656 -2.2460782527923584
-1.6674548387527466 -18.837984085083008 -2.24643611907959
-0.5982860922813416 -12.377699851989746 -1.4720126390457153
-0.535479724407196 -18.91326141357422 -2.2475290298461914
-0.15727904438972473 -18.92330551147461 -2.2478995323181152
0.5995251536369324 -18.9207706451416 -2.2486488819122314
0.9778380990028381 -18.908184051513672 -2.2490272521972656
2.110605478286743 -18.82518196105957 -2.2501766681671143
2.486966609954834 -18.782451629638672 -2.250563859939575
2.8624658584594727 -18.732219696044922 -2.25095272064209
3.9822936058044434 -18.536619186401367 -2.2521286010742188
4.721790790557861 -18.369049072265625 -2.2529187202453613
5.454263687133789 -18.171995162963867 -2.2537119388580322
5.81633186340332 -18.058881759643555 -2.253657102584839
-2.028806209564209 -15.729520797729492 -2.2471671104431152
-1.7141613960266113 -15.769025802612305 -2.247464656829834
-0.4491503834724426 -15.864153861999512 -2.2486822605133057
0.8201110363006592 -15.858190536499023 -2.249939441680908
2.0855772495269775 -15.751007080078125 -2.2512283325195312
2.400400400161743 -15.7084379196167 -2.251554489135742
2.3996996879577637 -12.369318962097168 -1.7852778434753418
3.9590344429016113 -15.401721954345703 -2.2532033920288086
4.266788005828857 -15.321751594543457 -2.253535747528076
4.877326488494873 -15.14340877532959 -2.254201889038086
-1.203546166419983 -13.597077369689941 -2.248729944229126
-0.5982885360717773 -12.377699851989746 -2.041473388671875
-0.38645505905151367 -13.649567604064941 -2.2495195865631104
-0.11350585520267487 -13.65618896484375 -2.2497870922088623
0.4326110780239105 -13.653094291687012 -2.250328302383423
0.9783093333244324 -13.628202438354492 -2.2508766651153564
1.2507238388061523 -13.60759449005127 -2.2511532306671143
2.8723559379577637 -13.37012767791748 -2.252840042114258
3.1394786834716797 -13.311713218688965 -2.253124713897705
3.405410051345825 -13.247964859008789 -2.2534101009368896
4.195027828216553 -13.024971961975098 -2.2542688846588135
-1.2949291467666626 -11.91286849975586 -2.252342462539673
-1.0560070276260376 -11.931538581848145 -2.251431465148926
-0.5781152248382568 -11.958545684814453 -2.2503628730773926
-0.09928222745656967 -11.97156810760498 -2.2502639293670654
0.6184521317481995 -11.959647178649902 -2.2509496212005615
1.574306607246399 -11.887887954711914 -2.253960609436035
2.2841382026672363 -11.773649215698242 -2.254246711730957
2.752713680267334 -11.671797752380371 -2.2540283203125
-1.3621777296066284 -10.561136245727539 -2.2509045600891113
-0.9389575123786926 -10.607864379882812 -2.251056432723999
-0.5141674876213074 -10.637433052062988 -2.2511649131774902
-0.30140501260757446 -10.645766258239746 -2.2512030601501465
-0.08851195871829987 -10.64979362487793 -2.251230239868164
0.33729735016822815 -10.64492416381836 -2.2512524127960205
1.186586856842041 -10.583549499511719 -2.251166582107544
1.3979077339172363 -10.557483673095703 -2.2511179447174072
2.2365636825561523 -10.41066837310791 -2.250816583633423
3.06046986579895 -10.196579933166504 -2.250344753265381
3.2634997367858887 -10.132707595825195 -2.2502005100250244
-1.2499291896820068 -9.690814018249512 -2.296430826187134
-0.46864378452301025 -9.695512771606445 -2.2813289165496826
-0.0805957019329071 -9.69687557220459 -2.279067277908325
0.6961523294448853 -9.697660446166992 -2.2850382328033447
0.8913293480873108 -9.6974515914917 -2.2887308597564697
1.8806627988815308 -9.693925857543945 -2.3207743167877197
2.082322835922241 -9.692710876464844 -2.329986095428467
2.697906494140625 -9.687995910644531 -2.3635411262512207
3.1189563274383545 -9.683920860290527 -2.3910770416259766
-1.0025585889816284 -9.22286319732666 -2.4020309448242188
-0.6330700516700745 -9.25556755065918 -2.4020309448242188
-0.4480029344558716 -9.266374588012695 -2.4020309448242188
-0.26256224513053894 -9.273482322692871 -2.4020309448242188
0.10836059600114822 -9.276564598083496 -2.4020309448242188
0.47911742329597473 -9.26481819152832 -2.4020309448242188
0.6641601324081421 -9.253387451171875 -2.4020309448242188
0.849227249622345 -9.238256454467773 -2.4020309448242188
1.2177538871765137 -9.196921348571777 -2.4020309448242188
1.4013781547546387 -9.17073917388916 -2.4020309448242188
1.584442138671875 -9.14089298248291 -2.4020309448242188
1.766872525215149 -9.107390403747559 -2.4020309448242188
2.129539728164673 -9.029476165771484 -2.4020309448242188
2.6669774055480957 -8.885580062866211 -2.4020309448242188
-0.5790002346038818 -8.465173721313477 -2.4020309448242188
-0.40965086221694946 -8.475065231323242 -2.4020309448242188
-0.07052002102136612 -8.48466682434082 -2.4020309448242188
0.0991198718547821 -8.484378814697266 -2.4020309448242188
0.9453759789466858 -8.432130813598633 -2.4020309448242188
1.2817052602767944 -8.387588500976562 -2.4020309448242188
1.449135661125183 -8.360296249389648 -2.4020309448242188
1.6159887313842773 -8.329651832580566 -2.4020309448242188
2.112396240234375 -8.21779727935791 -2.4020309448242188
-0.843951404094696 -7.763753890991211 -2.4020309448242188
-0.532910168170929 -7.791284561157227 -2.4020309448242188
-0.3770397901535034 -7.800382614135742 -2.4020309448242188
-0.06490600109100342 -7.809217929840088 -2.4020309448242188
0.09122802317142487 -7.808958053588867 -2.4020309448242188
0.24732787907123566 -7.805571556091309 -2.4020309448242188
0.8701159358024597 -7.760864734649658 -2.4020309448242188
1.1796716451644897 -7.719875335693359 -2.4020309448242188
1.333773136138916 -7.6947479248046875 -2.4020309448242188
1.4873424768447876 -7.666545391082764 -2.4020309448242188
1.640316128730774 -7.635278224945068 -2.4020309448242188
1.792633056640625 -7.600957870483398 -2.4020309448242188
1.9442346096038818 -7.563601016998291 -2.4020309448242188
2.095059871673584 -7.523220062255859 -2.4020309448242188
2.2450451850891113 -7.479831218719482 -2.4020309448242188
-0.9243823289871216 -7.166837692260742 -2.4020309448242188
-0.7809167504310608 -7.1838860511779785 -2.4020309448242188
-0.6371386647224426 -7.198061466217041 -2.4020309448242188
-0.20450805127620697 -7.223310947418213 -2.4020309448242188
0.08441527932882309 -7.225712299346924 -2.4020309448242188
0.3732043504714966 -7.216561794281006 -2.4020309448242188
0.517407238483429 -7.207657814025879 -2.4020309448242188
0.6614001393318176 -7.195873260498047 -2.4020309448242188
0.8051306009292603 -7.181212425231934 -2.4020309448242188
1.0915637016296387 -7.14328670501709 -2.4020309448242188
1.2341564893722534 -7.120035648345947 -2.4020309448242188
1.376253604888916 -7.093938827514648 -2.4020309448242188
1.6587462425231934 -7.033249855041504 -2.4020309448242188
1.7990221977233887 -6.998681545257568 -2.4020309448242188
1.9385827779769897 -6.961315631866455 -2.4020309448242188
2.0773656368255615 -6.921169757843018 -2.4020309448242188
-0.8592394590377808 -6.661768436431885 -2.4020309448242188
-0.5922375321388245 -6.690792083740234 -2.4020309448242188
-0.45835447311401367 -6.701294422149658 -2.4020309448242188
-0.32429197430610657 -6.70911979675293 -2.4020309448242188
-0.1900964379310608 -6.71426248550415 -2.4020309448242188
-0.055823974311351776 -6.716719627380371 -2.4020309448242188
0.07846679538488388 -6.716494083404541 -2.4020309448242188
0.48094359040260315 -6.69971227645874 -2.4020309448242188
0.614788830280304 -6.68875789642334 -2.4020309448242188
0.7483874559402466 -6.6751298904418945 -2.4020309448242188
0.8816894292831421 -6.658833026885986 -2.4020309448242188
1.4108374118804932 -6.567113399505615 -2.4020309448242188
1.5418468713760376 -6.537595748901367 -2.4020309448242188
1.6722387075424194 -6.505464553833008 -2.4020309448242188
-0.3026171922683716 -6.260743141174316 -2.4020309448242188
-0.17739135026931763 -6.265543460845947 -2.4020309448242188
-0.052092283964157104 -6.26783561706543 -2.4020309448242188
0.19851073622703552 -6.264908313751221 -2.4020309448242188
0.5737023949623108 -6.241744041442871 -2.4020309448242188
0.6983740329742432 -6.229025363922119 -2.4020309448242188
0.8227660655975342 -6.213817596435547 -2.4020309448242188
1.1937707662582397 -6.153324604034424 -2.4020309448242188
1.4388048648834229 -6.100682735443115 -2.4020309448242188
1.560482144355774 -6.07069730758667 -2.4020309448242188
1.6815381050109863 -6.0382890701293945 -2.4020309448242188
1.801918864250183 -6.003462791442871 -2.4020309448242188
-0.6342394948005676 -5.834619998931885 -2.4020309448242188
-0.517474353313446 -5.846134662628174 -2.4020309448242188
-0.4004882574081421 -5.855310440063477 -2.4020309448242188
-0.2833532691001892 -5.862146854400635 -2.4020309448242188
-0.16609984636306763 -5.866641044616699 -2.4020309448242188
0.30311277508735657 -5.861158847808838 -2.4020309448242188
0.4202282726764679 -5.8539276123046875 -2.4020309448242188
0.653912365436554 -5.832448482513428 -2.4020309448242188
0.88655024766922 -5.801645755767822 -2.4020309448242188
1.232729434967041 -5.738069534301758 -2.4020309448242188
1.4611303806304932 -5.684202194213867 -2.4020309448242188
1.5744811296463013 -5.6538543701171875 -2.4020309448242188
1.7992430925369263 -5.586392879486084 -2.4020309448242188
-0.595611572265625 -5.479283332824707 -2.4020309448242188
-0.2660803198814392 -5.505133152008057 -2.4020309448242188
-0.045805662870407104 -5.511370658874512 -2.4020309448242188
0.06438720226287842 -5.511185169219971 -2.4020309448242188
0.28465574979782104 -5.504205703735352 -2.4020309448242188
0.39463376998901367 -5.497415065765381 -2.4020309448242188
0.504467785358429 -5.488425254821777 -2.4020309448242188
1.0497021675109863 -5.410678386688232 -2.4020309448242188
1.1576659679412842 -5.388611793518066 -2.4020309448242188
1.2651525735855103 -5.364390850067139 -2.4020309448242188
1.3721532821655273 -5.33802604675293 -2.4020309448242188
1.4785839319229126 -5.3095269203186035 -2.4020309448242188
1.689666748046875 -5.246174335479736 -2.4020309448242188
-0.6638146638870239 -5.1466288566589355 -2.4020309448242188
-0.14686156809329987 -5.187182903289795 -2.4020309448242188
0.2680065929889679 -5.182336807250977 -2.4020309448242188
0.47496214509010315 -5.167482376098633 -2.4020309448242188
0.5781774520874023 -5.156951904296875 -2.4020309448242188
0.6811608672142029 -5.1443610191345215 -2.4020309448242188
0.8862707614898682 -5.1130194664001465 -2.4020309448242188
0.988311767578125 -5.094279766082764 -2.4020309448242188
1.089959740638733 -5.073502063751221 -2.4020309448242188
1.1911718845367432 -5.050698757171631 -2.4020309448242188
1.291909098625183 -5.025874614715576 -2.4020309448242188
1.3921276330947876 -4.9990410804748535 -2.4020309448242188
1.491790771484375 -4.970211029052734 -2.4020309448242188
-0.6263976693153381 -4.856634140014648 -2.4020309448242188
-0.33415648341178894 -4.8854594230651855 -2.4020309448242188
-0.236419677734375 -4.891163349151611 -2.4020309448242188
-0.04070068150758743 -4.896705150604248 -2.4020309448242188
0.05720336735248566 -4.896539688110352 -2.4020309448242188
0.3506213426589966 -4.884305477142334 -2.4020309448242188
0.44820067286491394 -4.87631893157959 -2.4020309448242188
0.6427782773971558 -4.854504108428955 -2.4020309448242188
0.7397021055221558 -4.8406829833984375 -2.4020309448242188
0.8363305330276489 -4.82492733001709 -2.4020309448242188
1.0285449028015137 -4.787636756896973 -2.4020309448242188
1.3136889934539795 -4.717370986938477 -2.4020309448242188
1.4077355861663818 -4.6901655197143555 -2.4020309448242188
1.501220703125 -4.6610846519470215 -2.4020309448242188
-0.3159558176994324 -4.6193671226501465 -2.4020309448242188
-0.1310388147830963 -4.6283063888549805 -2.4020309448242188
-0.038482666015625 -4.630000591278076 -2.4020309448242188
0.05408935248851776 -4.6298441886901855 -2.4020309448242188
0.23912841081619263 -4.62398099899292 -2.4020309448242188
0.33152464032173157 -4.618276119232178 -2.4020309448242188
0.42378783226013184 -4.610724925994873 -2.4020309448242188
0.515881359577179 -4.6013312339782715 -2.4020309448242188
0.8818286061286926 -4.545411109924316 -2.4020309448242188
1.152718424797058 -4.484371662139893 -2.4020309448242188
1.2421386241912842 -4.4604339599609375 -2.4020309448242188
-0.5610156059265137 -4.349609851837158 -2.4020309448242188
-0.4739440679550171 -4.359956741333008 -2.4020309448242188
-0.29927122592926025 -4.375417232513428 -2.4020309448242188
-0.12411864846944809 -4.383884429931641 -2.4020309448242188
0.051231689751148224 -4.385341644287109 -2.4020309448242188
0.13890258967876434 -4.38343620300293 -2.4020309448242188
0.2265002429485321 -4.379787921905518 -2.4020309448242188
0.31401732563972473 -4.374384880065918 -2.4020309448242188
0.40140867233276367 -4.367232799530029 -2.4020309448242188
0.48863768577575684 -4.358335018157959 -2.4020309448242188
0.5756738185882568 -4.34769344329834 -2.4020309448242188
0.8352575302124023 -4.305367946624756 -2.4020309448242188
0.9211645126342773 -4.287808895111084 -2.4020309448242188
1.0918395519256592 -4.247556686401367 -2.4020309448242188
1.1765393018722534 -4.224877834320068 -2.4020309448242188
-0.532244861125946 -4.126277446746826 -2.4020309448242188
-0.3668310344219208 -4.144237041473389 -2.4020309448242188
-0.2839038074016571 -4.150741100311279 -2.4020309448242188
-0.2008642554283142 -4.1555891036987305 -2.4020309448242188
-0.11774414032697678 -4.158772945404053 -2.4020309448242188
0.13176269829273224 -4.158352375030518 -2.4020309448242188
0.2978918254375458 -4.14976167678833 -2.4020309448242188
0.3807946741580963 -4.142978191375732 -2.4020309448242188
0.46354857087135315 -4.1345367431640625 -2.4020309448242188
0.8738647103309631 -4.067630290985107 -2.4020309448242188
0.9550109505653381 -4.049348831176758 -2.4020309448242188
1.1960290670394897 -3.9848175048828125 -2.4020309448242188
