ply
format ascii 1.0
element vertex 313
property float x
property float y
property float z
end_header
5.497740268707275 -12.330400466918945 2.380577564239502
33.11475372314453 -36.216365814208984 8.652985572814941
32.95368957519531 -34.61810302734375 8.427538871765137
33.11475372314453 -33.41727066040039 8.295429229736328
5.497740268707275 -12.330398559570312 2.0682554244995117
28.750457763671875 -32.73984146118164 6.6749186515808105
29.114608764648438 -28.22386360168457 6.2119269371032715
29.114593505859375 -34.52879333496094 5.881452560424805
29.114599227905273 -33.15442657470703 5.745787620544434
29.114608764648438 -30.585119247436523 5.498819351196289
28.988222122192383 -29.2530460357666 5.362913131713867
29.114608764648438 -28.22386360168457 5.280364036560059
5.497739315032959 -12.330400466918945 1.4497193098068237
29.114593505859375 -37.48495864868164 5.096712589263916
29.114593505859375 -35.97021484375 4.969252586364746
28.903564453125 -34.27851867675781 4.814766883850098
29.114599227905273 -31.8415470123291 4.633052349090576
29.114608764648438 -30.585121154785156 4.534396171569824
29.114608764648438 -28.223867416381836 4.354257106781006
5.497739315032959 -12.330400466918945 1.1429004669189453
29.11458969116211 -39.08012008666992 4.125393390655518
28.37775421142578 -33.65492630004883 3.7265989780426025
28.377758026123047 -32.31534194946289 3.640639543533325
28.377763748168945 -31.035688400268555 3.55996036529541
28.37775421142578 -35.059871673583984 2.7969958782196045
28.377758026123047 -33.654930114746094 2.729828357696533
28.29744529724121 -30.947860717773438 1.653526782989502
28.29745101928711 -29.7266845703125 1.6183140277862549
28.29745101928711 -28.555965423583984 1.585197925567627
28.29745101928711 -27.431703567504883 1.5540238618850708
5.497739315032959 -12.330400466918945 0.22812606394290924
28.297441482543945 -34.960655212402344 0.759752631187439
28.29744529724121 -33.55968475341797 0.7415077090263367
28.29744529724121 -30.947858810424805 0.7083503603935242
28.29744529724121 -29.7266845703125 0.6932670474052429
5.497737884521484 -12.330402374267578 -0.07599136233329773
28.639286041259766 -31.321718215942383 -0.23895247280597687
28.65011215209961 -30.09716033935547 -0.23395247757434845
28.650115966796875 -28.91185760498047 -0.229165181517601
28.29745101928711 -32.2238883972168 -1.2075457572937012
28.639286041259766 -31.321718215942383 -1.1950501203536987
28.650115966796875 -28.91185760498047 -1.146101951599121
18.415185928344727 -43.63714599609375 -2.4020156860351562
21.008892059326172 -42.44935989379883 -2.4020156860351562
24.347030639648438 -40.626888275146484 -2.4020156860351562
25.10110092163086 -38.30803680419922 -2.3226757049560547
25.080129623413086 -36.649105072021484 -2.25217604637146
25.781578063964844 -36.09706115722656 -2.2496156692504883
26.50115966796875 -35.5721321105957 -2.2496156692504883
28.294574737548828 -33.55630111694336 -2.2260091304779053
28.206815719604492 -32.120697021484375 -2.167917013168335
28.65011215209961 -30.097171783447266 -2.1073403358459473
28.650115966796875 -28.911855697631836 -2.0642168521881104
5.497736930847168 -12.330402374267578 -0.9898141026496887
14.531085968017578 -29.360675811767578 -2.4020156860351562
15.11767578125 -29.062990188598633 -2.4020156860351562
16.272350311279297 -28.432600021362305 -2.4020156860351562
17.40077018737793 -27.756349563598633 -2.4020156860351562
18.501127243041992 -27.035343170166016 -2.4020156860351562
19.571659088134766 -26.270751953125 -2.4020156860351562
20.61060333251953 -25.463796615600586 -2.4020156860351562
21.616342544555664 -24.615751266479492 -2.4020156860351562
22.106239318847656 -24.17677116394043 -2.4020156860351562
22.58721160888672 -23.728036880493164 -2.4020156860351562
23.05908203125 -23.26973533630371 -2.4020156860351562
23.521669387817383 -22.80204200744629 -2.4020156860351562
8.675253868103027 -21.767202377319336 -2.2496156692504883
9.727750778198242 -23.051156997680664 -2.4020156860351562
10.645387649536133 -22.642004013061523 -2.4020156860351562
11.097856521606445 -22.42369270324707 -2.4020156860351562
11.545859336853027 -22.196346282958984 -2.4020156860351562
12.861220359802246 -21.460979461669922 -2.4020156860351562
13.712470054626465 -20.92730140686035 -2.4020156860351562
14.541640281677246 -20.35989761352539 -2.4020156860351562
14.94749927520752 -20.06382179260254 -2.4020156860351562
15.347352981567383 -19.759672164916992 -2.4020156860351562
16.1282958984375 -19.12753677368164 -2.4020156860351562
17.61097526550293 -17.771867752075195 -2.4020156860351562
17.96425437927246 -17.414653778076172 -2.4020156860351562
6.346610069274902 -15.924370765686035 -2.036285161972046
8.400900840759277 -16.97437858581543 -2.2497458457946777
9.331586837768555 -17.93950843811035 -2.4020156860351562
9.689902305603027 -17.7485294342041 -2.4020156860351562
10.044318199157715 -17.550390243530273 -2.4020156860351562
10.394681930541992 -17.345172882080078 -2.4020156860351562
10.740851402282715 -17.13296890258789 -2.4020156860351562
11.082697868347168 -16.913850784301758 -2.4020156860351562
11.420065879821777 -16.687917709350586 -2.4020156860351562
12.404006004333496 -15.970129013061523 -2.4020156860351562
13.342973709106445 -15.194393157958984 -2.4020156860351562
4.929460525512695 -12.368599891662598 -1.8865517377853394
6.180017948150635 -14.644339561462402 -2.2521443367004395
5.497740268707275 -12.330398559570312 -1.9128167629241943
6.760302543640137 -14.37869930267334 -2.2512502670288086
7.042525291442871 -14.229723930358887 -2.2496156692504883
7.326819896697998 -14.085451126098633 -2.2496156692504883
7.608144283294678 -13.935500144958496 -2.2496156692504883
7.886423110961914 -13.779929161071777 -2.2496156692504883
9.291200637817383 -14.179802894592285 -2.4020156860351562
10.398871421813965 -13.388626098632812 -2.4020156860351562
10.665616989135742 -13.17713451385498 -2.4020156860351562
10.927992820739746 -12.960323333740234 -2.4020156860351562
11.18612003326416 -12.738289833068848 -2.4020161628723145
11.439682006835938 -12.511122703552246 -2.4020166397094727
11.932717323303223 -12.041754722595215 -2.402017593383789
5.063759803771973 -12.705554008483887 -2.2532131671905518
5.314709186553955 -12.593881607055664 -2.2518835067749023
5.497737884521484 -12.330402374267578 -2.2240850925445557
5.81022834777832 -12.357954978942871 -2.249627113342285
6.30169153213501 -12.114716529846191 -2.2496261596679688
6.543677806854248 -11.985735893249512 -2.2496259212493896
6.783013820648193 -11.8519287109375 -2.2496254444122314
7.019617557525635 -11.71334171295166 -2.2496249675750732
7.253390789031982 -11.57003116607666 -2.249624490737915
7.484235763549805 -11.422061920166016 -2.249624013900757
8.234498977661133 -12.032907485961914 -2.4020185470581055
8.710976600646973 -11.692605018615723 -2.402019500732422
9.173163414001465 -11.333452224731445 -2.402021646499634
9.39910888671875 -11.146985054016113 -2.4020228385925293
10.263163566589355 -10.356926918029785 -2.40202260017395
10.46905517578125 -10.148759841918945 -2.40202260017395
4.653445720672607 -11.026937484741211 -2.249630928039551
4.873913288116455 -10.931278228759766 -2.249630928039551
5.092411994934082 -10.831207275390625 -2.249630928039551
5.945019245147705 -10.387721061706543 -2.249630928039551
6.152394771575928 -10.266243934631348 -2.249630928039551
6.541765213012695 -10.43491268157959 -2.314913034439087
7.427490234375 -10.39930534362793 -2.4020276069641113
7.634789943695068 -10.248004913330078 -2.402026414871216
8.040078163146973 -9.933274269104004 -2.4020252227783203
8.237905502319336 -9.7698335647583 -2.402024984359741
8.432416915893555 -9.602462768554688 -2.402024984359741
8.995209693908691 -9.077383995056152 -2.402024745941162
9.175663948059082 -8.89493465423584 -2.402024745941162
3.9401915073394775 -9.886367797851562 -2.249635934829712
4.137881755828857 -9.805240631103516 -2.249630928039551
4.337677001953125 -9.728602409362793 -2.251580238342285
4.829744815826416 -9.758705139160156 -2.3016045093536377
5.099732398986816 -9.803984642028809 -2.3359668254852295
5.39030647277832 -9.873163223266602 -2.377763271331787
5.644485950469971 -9.862586975097656 -2.4020309448242188
6.035908222198486 -9.628009796142578 -2.4020309448242188
6.228010177612305 -9.504866600036621 -2.4020309448242188
6.970530986785889 -8.974541664123535 -2.4020297527313232
7.149317264556885 -8.832768440246582 -2.402029275894165
7.325225830078125 -8.6874361038208 -2.4020283222198486
7.668107509613037 -8.386319160461426 -2.4020261764526367
7.834941387176514 -8.230671882629395 -2.4020252227783203
7.998620510101318 -8.071694374084473 -2.4020252227783203
3.7838683128356934 -9.494160652160645 -2.4020309448242188
3.973736524581909 -9.41627311706543 -2.4020309448242188
4.161998271942139 -9.334588050842285 -2.4020309448242188
4.348582744598389 -9.249139785766602 -2.4020309448242188
4.533416748046875 -9.159960746765137 -2.4020309448242188
4.716422080993652 -9.067091941833496 -2.4020309448242188
4.897525310516357 -8.970561981201172 -2.4020309448242188
5.253740310668945 -8.76669692993164 -2.4020309448242188
5.771993160247803 -8.434503555297852 -2.4020309448242188
5.940181732177734 -8.316911697387695 -2.4020309448242188
6.105972766876221 -8.195964813232422 -2.4020309448242188
6.430108547210693 -7.94420862197876 -2.4020309448242188
6.588322639465332 -7.813528060913086 -2.4020307064056396
6.743880271911621 -7.679633617401123 -2.4020304679870605
6.896713733673096 -7.5426344871521 -2.4020302295684814
7.04676628112793 -7.402681827545166 -2.402029514312744
7.193978309631348 -7.2596635818481445 -2.402029037475586
7.338294506072998 -7.113785743713379 -2.4020280838012695
3.434664249420166 -8.617968559265137 -2.4020309448242188
3.777900218963623 -8.473126411437988 -2.4020309448242188
3.9472668170928955 -8.395563125610352 -2.4020309448242188
4.281154632568359 -8.230311393737793 -2.4020309448242188
4.608145713806152 -8.051794052124023 -2.4020309448242188
5.084532260894775 -7.759756088256836 -2.4020309448242188
5.391978740692139 -7.549366474151611 -2.4020309448242188
5.542470455169678 -7.439583778381348 -2.4020309448242188
5.836690425872803 -7.211058616638184 -2.4020309448242188
6.26023530960083 -6.846549034118652 -2.4020309448242188
6.396440505981445 -6.719510555267334 -2.4020309448242188
3.1413609981536865 -7.882030963897705 -2.4020309448242188
3.7636289596557617 -7.60457181930542 -2.4020309448242188
3.915562629699707 -7.527477741241455 -2.4020309448242188
4.065911769866943 -7.44733190536499 -2.4020309448242188
4.214627742767334 -7.364201068878174 -2.4020309448242188
4.361641883850098 -7.278090476989746 -2.4020309448242188
4.50689697265625 -7.189046859741211 -2.4020309448242188
4.650330543518066 -7.0970964431762695 -2.4020309448242188
4.791896820068359 -7.0023064613342285 -2.4020309448242188
4.931521892547607 -6.90464973449707 -2.4020309448242188
5.069164752960205 -6.804271221160889 -2.4020309448242188
5.338257789611816 -6.59525728225708 -2.4020309448242188
5.469605445861816 -6.48675537109375 -2.4020309448242188
5.72563362121582 -6.261946678161621 -2.4020309448242188
5.972429275512695 -6.027005672454834 -2.4020309448242188
2.8912816047668457 -7.254558086395264 -2.4020309448242188
3.180216073989868 -7.132627964019775 -2.4020309448242188
3.464014768600464 -6.99919319152832 -2.4020309448242188
3.603851318359375 -6.928229808807373 -2.4020309448242188
4.014420032501221 -6.698694705963135 -2.4020309448242188
4.280130386352539 -6.5321197509765625 -2.4020309448242188
4.665619850158691 -6.262604713439941 -2.4020309448242188
4.790421009063721 -6.167654514312744 -2.4020309448242188
4.913291931152344 -6.07020378112793 -2.4020309448242188
5.034184455871582 -5.970351219177246 -2.4020309448242188
5.269832611083984 -5.763392925262451 -2.4020309448242188
5.3844895362854 -5.656447410583496 -2.4020309448242188
2.8095762729644775 -6.657650470733643 -2.4020309448242188
2.9426867961883545 -6.599897384643555 -2.4020309448242188
3.0746092796325684 -6.5394816398620605 -2.4020309448242188
3.205291748046875 -6.476428508758545 -2.4020309448242188
3.334683656692505 -6.410765647888184 -2.4020309448242188
3.462730646133423 -6.342518329620361 -2.4020309448242188
3.838292121887207 -6.12254524230957 -2.4020309448242188
3.960451602935791 -6.044242858886719 -2.4020309448242188
4.081011772155762 -5.963502883911133 -2.4020309448242188
4.43263053894043 -5.706998825073242 -2.4020309448242188
4.546323299407959 -5.61685848236084 -2.4020309448242188
4.876232624053955 -5.332952976226807 -2.4020309448242188
4.982326507568359 -5.233965873718262 -2.4020309448242188
2.486795663833618 -6.239654541015625 -2.4020309448242188
2.6115782260894775 -6.188465595245361 -2.4020309448242188
2.857930898666382 -6.078624248504639 -2.4020309448242188
2.9794042110443115 -6.020016193389893 -2.4020309448242188
3.2187023162841797 -5.895541191101074 -2.4020309448242188
3.3364293575286865 -5.829728126525879 -2.4020309448242188
3.903945207595825 -5.465951442718506 -2.4020309448242188
4.012905120849609 -5.386466979980469 -2.4020309448242188
4.120248794555664 -5.304807186126709 -2.4020309448242188
4.329910755157471 -5.135106563568115 -2.4020309448242188
4.432144641876221 -5.047131061553955 -2.4020309448242188
4.532588958740234 -4.957123279571533 -2.4020309448242188
4.631204605102539 -4.86511754989624 -2.4020309448242188
4.727956295013428 -4.771149635314941 -2.4020309448242188
4.822803974151611 -4.675254821777344 -2.4020309448242188
2.32060170173645 -5.822653293609619 -2.4020309448242188
2.437044620513916 -5.774885654449463 -2.4020309448242188
2.552504777908325 -5.724789142608643 -2.4020309448242188
2.7802891731262207 -5.617692947387695 -2.4020309448242188
3.222055673599243 -5.3765082359313965 -2.4020309448242188
3.329360246658325 -5.310730457305908 -2.4020309448242188
3.435319662094116 -5.2428107261657715 -2.4020309448242188
4.040538311004639 -4.791923999786377 -2.4020309448242188
4.32169771194458 -4.539978504180908 -2.4020309448242188
4.500490665435791 -4.36279821395874 -2.4020309448242188
2.2818896770477295 -5.407221794128418 -2.4020309448242188
2.389996290206909 -5.360314846038818 -2.4020309448242188
2.8123669624328613 -5.151277542114258 -2.4020309448242188
3.1173901557922363 -4.97261905670166 -2.4020309448242188
3.411104679107666 -4.775920867919922 -2.4020309448242188
3.600100040435791 -4.635120391845703 -2.4020309448242188
3.96038556098938 -4.331327438354492 -2.4020309448242188
4.046552658081055 -4.250936508178711 -2.4020309448242188
4.13109016418457 -4.168829441070557 -2.4020309448242188
4.213964939117432 -4.0850419998168945 -2.4020309448242188
2.2444419860839844 -5.033863544464111 -2.4020309448242188
2.345059871673584 -4.987784385681152 -2.4020309448242188
2.444735050201416 -4.939693450927734 -2.4020309448242188
2.5434253215789795 -4.88961124420166 -2.4020309448242188
2.737687826156616 -4.7835516929626465 -2.4020309448242188
3.0207104682922363 -4.610056400299072 -2.4020309448242188
3.1126623153686523 -4.54847526550293 -2.4020309448242188
3.29276967048645 -4.419838905334473 -2.4020309448242188
3.3808469772338867 -4.3528337478637695 -2.4020309448242188
3.4675633907318115 -4.284073829650879 -2.4020309448242188
3.636772394180298 -4.141396522521973 -2.4020309448242188
3.719194173812866 -4.067542552947998 -2.4020309448242188
2.486645460128784 -4.554671764373779 -2.4020309448242188
2.5775976181030273 -4.503824234008789 -2.4020309448242188
2.9306445121765137 -4.282495021820068 -2.4020309448242188
3.1831469535827637 -4.098293781280518 -2.4020309448242188
3.345123291015625 -3.967188596725464 -2.4020309448242188
3.577893018722534 -3.75860595703125 -2.4020309448242188
3.7259154319763184 -3.6119225025177 -2.4020309448242188
1.9039220809936523 -4.511590957641602 -2.4020309448242188
2.172081232070923 -4.388785362243652 -2.4020309448242188
2.517206907272339 -4.200362205505371 -2.4020309448242188
2.601031541824341 -4.148982048034668 -2.4020309448242188
2.6838183403015137 -4.09591007232666 -2.4020309448242188
2.9255359172821045 -3.9269073009490967 -2.4020309448242188
3.231175422668457 -3.6795201301574707 -2.4020309448242188
3.446830987930298 -3.478320598602295 -2.4020309448242188
3.5159788131713867 -3.40841007232666 -2.4020309448242188
1.8002245426177979 -4.2658610343933105 -2.4020309448242188
2.136683225631714 -4.107670307159424 -2.4020309448242188
2.2187304496765137 -4.06394100189209 -2.4020309448242188
2.3801050186157227 -3.971583843231201 -2.4020309448242188
2.6910839080810547 -3.7678163051605225 -2.4020309448242188
2.7661938667297363 -3.7130236625671387 -2.4020309448242188
2.8401880264282227 -3.656733989715576 -2.4020309448242188
2.913034677505493 -3.5989723205566406 -2.4020309448242188
2.984710693359375 -3.5397579669952393 -2.4020309448242188
3.124422550201416 -3.417069673538208 -2.4020309448242188
3.1924023628234863 -3.353644609451294 -2.4020309448242188
1.6236730813980103 -4.074009895324707 -2.4020309448242188
1.7859374284744263 -4.005529880523682 -2.4020309448242188
1.866003394126892 -3.9688634872436523 -2.4020309448242188
2.0238451957702637 -3.890745162963867 -2.4020309448242188
2.178424119949341 -3.806352376937866 -2.4020309448242188
2.254411458969116 -3.7618443965911865 -2.4020309448242188
2.403627872467041 -3.6682984828948975 -2.4020309448242188
2.690197706222534 -3.463623046875 -2.4020309448242188
2.8938403129577637 -3.295379877090454 -2.4020309448242188
3.023813486099243 -3.176539182662964 -2.4020309448242188
3.0869836807250977 -3.115184783935547 -2.4020309448242188
3.1489109992980957 -3.0525736808776855 -2.4020309448242188
1.6942321062088013 -3.799847364425659 -2.4020309448242188
1.845424771308899 -3.7287611961364746 -2.4020309448242188
2.0665600299835205 -3.6109001636505127 -2.4020309448242188
2.280202627182007 -3.479933738708496 -2.4020309448242188
2.349611759185791 -3.433450937271118 -2.4020309448242188
2.485565185546875 -3.3363494873046875 -2.4020309448242188
2.681907892227173 -3.180666446685791 -2.4020309448242188
2.8074536323547363 -3.0704166889190674 -2.4020309448242188
2.868537425994873 -3.013427734375 -2.4020309448242188
