ply
format ascii 1.0
element vertex 366
property float x
property float y
property float z
end_header
-17.310354232788086 25.803224563598633 5.478790760040283
-17.45599365234375 21.002832412719727 4.815471649169922
-17.837158203125 20.587568283081055 4.803129196166992
-17.246736526489258 19.100210189819336 4.537696361541748
-16.982606887817383 35.39569091796875 6.014250755310059
-17.296222686767578 34.23129653930664 5.875444412231445
-17.24674415588379 24.60253143310547 4.602809906005859
-17.246742248535156 23.559520721435547 4.47291374206543
-17.246740341186523 22.573360443115234 4.351926326751709
-17.416994094848633 20.955902099609375 4.174379348754883
-17.837158203125 20.587566375732422 4.173001766204834
-17.246734619140625 18.330148696899414 3.855644941329956
-17.48040199279785 32.9017219543457 4.851644039154053
-17.246746063232422 25.708419799804688 4.031325817108154
-17.24674415588379 24.602514266967773 3.912555456161499
-17.4169921875 20.95590591430664 3.5483715534210205
-16.632823944091797 34.66664123535156 4.128862380981445
-17.030012130737305 33.70443344116211 4.0550079345703125
-17.713489532470703 33.3404655456543 4.0540771484375
-17.31035614013672 25.80323600769043 3.336542844772339
-17.307870864868164 23.643030166625977 3.1464054584503174
-17.455995559692383 21.00282859802246 2.932584047317505
-17.837158203125 20.587562561035156 2.925069570541382
-17.07814598083496 35.59482192993164 3.342074394226074
-17.3090763092041 24.691452026367188 2.5526328086853027
-17.30786895751953 23.64303207397461 2.480421543121338
-17.306730270385742 22.651893615722656 2.413170337677002
-17.305648803710938 21.712690353393555 2.350431203842163
-17.837158203125 20.587562561035156 2.3059329986572266
-17.246736526489258 19.100210189819336 2.178502321243286
-17.246734619140625 18.330148696899414 2.130567789077759
-16.231307983398438 33.82981491088867 2.3267602920532227
-16.952125549316406 33.5502815246582 2.3309576511383057
-17.731334686279297 33.37405776977539 2.343487024307251
-18.721540451049805 33.55835723876953 2.3828907012939453
-17.246742248535156 23.55953025817871 1.8105558156967163
-17.246740341186523 22.573375701904297 1.761581540107727
-17.24673843383789 21.638769149780273 1.7158900499343872
-17.416994094848633 20.955902099609375 1.6897144317626953
-17.837158203125 20.587562561035156 1.6891547441482544
-13.76201343536377 38.31639862060547 1.605350136756897
-15.14922046661377 33.309059143066406 1.4428688287734985
-18.479602813720703 33.12467956542969 1.4956468343734741
-17.246746063232422 25.708417892456055 1.2206897735595703
-17.246742248535156 23.55953025817871 1.1512925624847412
-17.56654167175293 22.991952896118164 1.1409220695495605
-17.837162017822266 22.379541397094727 1.128449559211731
-17.837158203125 21.461444854736328 1.1003708839416504
-17.837158203125 20.58755874633789 1.0740971565246582
-17.837160110473633 19.75408172607422 1.0494779348373413
-15.951483726501465 33.2465934753418 0.6228886246681213
-16.71637725830078 33.08370590209961 0.6261289715766907
-18.486507415771484 33.13705062866211 0.6409565806388855
-17.837162017822266 22.379541397094727 0.48341473937034607
-16.038297653198242 35.26387023925781 -0.21811217069625854
-16.319225311279297 34.01304626464844 -0.21240036189556122
-17.767894744873047 33.44287109375 -0.21321441233158112
-17.8371639251709 23.34613800048828 -0.16541701555252075
-17.837162017822266 22.37954330444336 -0.16112609207630157
-17.837160110473633 21.46143913269043 -0.1571173071861267
-17.837158203125 20.587560653686523 -0.1533656269311905
-17.837160110473633 19.75408363342285 -0.1498512178659439
-17.837158203125 18.957660675048828 -0.1465536504983902
-11.492431640625 31.997392654418945 -0.9573255777359009
-12.961968421936035 31.91107749938965 -0.9698414206504822
-13.680092811584473 31.793134689331055 -0.9745792746543884
-14.489739418029785 31.85902976989746 -0.9855003356933594
-15.307653427124023 31.904743194580078 -0.9964167475700378
-16.973636627197266 31.94789695739746 -1.0186610221862793
-19.512781143188477 31.834230422973633 -1.05137038230896
-20.523481369018555 31.991722106933594 -1.0702491998672485
-22.338441848754883 31.865856170654297 -1.0957796573638916
-17.837158203125 21.46143913269043 -0.7857763767242432
-17.837160110473633 19.754085540771484 -0.749434769153595
-17.837158203125 18.95766258239746 -0.732944905757904
-12.137120246887207 41.68987274169922 -2.2020480632781982
-10.911587715148926 32.45743179321289 -1.7365823984146118
-11.495823860168457 32.006839752197266 -1.724726676940918
-12.176287651062012 31.8338680267334 -1.7284990549087524
-14.521900177001953 31.929750442504883 -1.7789037227630615
-15.346813201904297 31.986366271972656 -1.799215316772461
-16.19938087463379 32.060550689697266 -1.8216924667358398
-17.97404670715332 32.21847915649414 -1.871004343032837
-18.720129013061523 31.995607376098633 -1.8799619674682617
-19.449932098388672 31.731708526611328 -1.8874977827072144
-17.837162017822266 23.34614372253418 -1.490004539489746
-17.837162017822266 22.379541397094727 -1.4513568878173828
-17.837158203125 21.461442947387695 -1.4152437448501587
-17.837158203125 20.587566375732422 -1.3814514875411987
-17.837160110473633 19.75408172607422 -1.3497891426086426
-17.837158203125 18.957651138305664 -1.3200887441635132
-8.99560546875 28.693178176879883 -2.204814910888672
-9.646116256713867 28.693178176879883 -2.219550371170044
-10.29639720916748 28.667396545410156 -2.2334210872650146
-10.879365921020508 28.443172454833984 -2.2328667640686035
-12.03052806854248 27.95947265625 -2.2317726612091064
-13.160475730895996 27.42948341369629 -2.230698585510254
-13.716906547546387 27.14741325378418 -2.2301695346832275
-14.811590194702148 26.54975128173828 -2.2291290760040283
-15.34936237335205 26.234437942504883 -2.2286179065704346
-17.93415069580078 24.49854850769043 -2.2261605262756348
-17.837162017822266 22.37954330444336 -2.098356246948242
-17.837158203125 21.461442947387695 -2.046144723892212
-17.837158203125 20.587560653686523 -1.9972875118255615
-17.837160110473633 19.754085540771484 -1.9515103101730347
-17.837158203125 18.95765495300293 -1.9085701704025269
-6.513187885284424 22.372228622436523 -2.237014055252075
-7.422147750854492 22.077804565429688 -2.2361502647399902
-7.871796607971191 21.916776657104492 -2.235722780227661
-9.199178695678711 21.379301071166992 -2.2344610691070557
-12.147736549377441 19.818492889404297 -2.2316582202911377
-12.549417495727539 19.561885833740234 -2.231276273727417
-14.100699424743652 18.455673217773438 -2.229801654815674
-14.473872184753418 18.159765243530273 -2.2294466495513916
-15.201573371887207 17.54558563232422 -2.228754758834839
-15.555814743041992 17.227569580078125 -2.2284183502197266
-15.903481483459473 16.902481079101562 -2.2280890941619873
-5.63584566116333 17.976579666137695 -2.2378463745117188
-6.002341270446777 17.854455947875977 -2.2374980449676514
-9.498228073120117 16.233943939208984 -2.2341763973236084
-10.474017143249512 15.612801551818848 -2.2332522869110107
-10.790502548217773 15.39268970489502 -2.2329535484313965
-11.711910247802734 14.694425582885742 -2.232083797454834
-4.726634502410889 15.076601028442383 -2.238715410232544
-5.642447471618652 14.751758575439453 -2.2378478050231934
-6.828744888305664 14.232685089111328 -2.236721992492676
-7.118250370025635 14.087934494018555 -2.236447334289551
-4.436763286590576 8.350918769836426 -1.3398650884628296
-7.688072204589844 13.7808837890625 -2.2359068393707275
-8.244715690612793 13.45089054107666 -2.2353787422180176
-5.867055416107178 8.369380950927734 -1.4482061862945557
-9.314912796020508 12.724390983581543 -2.234370231628418
-9.572766304016113 12.529354095458984 -2.234128475189209
-9.826701164245605 12.329111099243164 -2.2338902950286865
-10.076360702514648 12.123741149902344 -2.2336549758911133
-7.969809532165527 8.470465660095215 -1.6479058265686035
-3.800075054168701 13.052919387817383 -2.239600658416748
-2.8238067626953125 8.399660110473633 -1.4598549604415894
-3.018463611602783 8.404067039489746 -1.4710701704025269
-4.854619026184082 12.692022323608398 -2.2386045455932617
-5.113295078277588 12.58843994140625 -2.238360643386841
-5.62391996383667 12.3655366897583 -2.2378790378570557
-5.875670433044434 12.24631404876709 -2.237640857696533
-4.436763286590576 8.350918769836426 -1.5578323602676392
-6.856502532958984 11.718842506408691 -2.236713171005249
-7.09467077255249 11.574615478515625 -2.236487865447998
-5.43098783493042 8.465760231018066 -1.6569584608078003
-7.561772346496582 11.27176284790039 -2.236046314239502
-8.016039848327637 10.950135231018066 -2.23561692237854
-8.23823070526123 10.782440185546875 -2.2354047298431396
-8.457255363464355 10.61074161529541 -2.2352991104125977
-7.312435150146484 8.439985275268555 -1.8396642208099365
-9.1528902053833 10.135184288024902 -2.249619960784912
-2.4630186557769775 8.460258483886719 -1.6562151908874512
-2.8238067626953125 8.399660110473633 -1.665631651878357
-3.0184643268585205 8.404067993164062 -1.6784321069717407
-4.255969524383545 11.12686538696289 -2.239184617996216
-3.4372034072875977 8.462063789367676 -1.7167408466339111
-4.930624961853027 10.84106159210205 -2.2385454177856445
-5.370453357696533 10.62875747680664 -2.238330602645874
-6.6698503494262695 9.942248344421387 -2.250317335128784
-5.867056846618652 8.369379997253418 -1.9211434125900269
-7.073757171630859 9.662935256958008 -2.2509071826934814
-7.2714104652404785 9.517160415649414 -2.251216173171997
-7.312435150146484 8.439985275268555 -2.098982334136963
-8.213461875915527 8.729421615600586 -2.2528953552246094
-3.018463611602783 8.404067039489746 -1.8875576257705688
-3.803654193878174 9.944306373596191 -2.2505457401275635
-4.007039546966553 9.8649263381958 -2.250706195831299
-4.208804607391357 9.781425476074219 -2.250875949859619
-4.4088358879089355 9.693836212158203 -2.2510550022125244
-4.607069492340088 9.602198600769043 -2.2512431144714355
-4.803415298461914 9.506540298461914 -2.2514402866363525
-5.19014310836792 9.303333282470703 -2.251861810684204
-5.380354404449463 9.195866584777832 -2.2520859241485596
-5.754098415374756 8.969413757324219 -2.2525603771209717
-6.2968292236328125 8.601640701293945 -2.253335952758789
-6.6447296142578125 8.336872100830078 -2.253511428833008
-6.978684425354004 8.054765701293945 -2.2527713775634766
-7.300572395324707 7.759188175201416 -2.2519986629486084
-2.823806047439575 8.399662017822266 -2.0826807022094727
-3.01846981048584 8.404082298278809 -2.098686933517456
-3.424410343170166 8.952826499938965 -2.252786636352539
-3.607497453689575 8.881296157836914 -2.2529313564300537
-4.6720075607299805 8.374589920043945 -2.2537894248962402
-4.842184543609619 8.276061058044434 -2.253525972366333
-5.660231113433838 7.732021331787109 -2.252082586288452
-5.816771507263184 7.6132707595825195 -2.251769542694092
-5.97081184387207 7.491328716278076 -2.2514488697052
-6.1222758293151855 7.366243839263916 -2.2511203289031982
-6.271100997924805 7.238074779510498 -2.250784397125244
-6.560580253601074 6.972708702087402 -2.2500905990600586
-2.604044198989868 8.306096076965332 -2.2538092136383057
-2.7736217975616455 8.250380516052246 -2.2536532878875732
-2.941990375518799 8.19117546081543 -2.2534890174865723
-3.109104633331299 8.12850570678711 -2.2533159255981445
-3.2748656272888184 8.062395095825195 -2.2531344890594482
-4.843156814575195 7.219326496124268 -2.2508697509765625
-4.989573955535889 7.117640972137451 -2.250600576400757
-5.553727149963379 6.682162284851074 -2.2496819496154785
-5.6895036697387695 6.566812038421631 -2.249659776687622
-5.82289981842041 6.448693752288818 -2.2496371269226074
-2.534785032272339 7.539928436279297 -2.251889944076538
-2.6886792182922363 7.485860347747803 -2.251739740371704
-3.585402727127075 7.09594202041626 -2.2506766319274902
-3.7298154830932617 7.020294666290283 -2.2504730224609375
-4.013766765594482 6.86014986038208 -2.250044107437134
-4.427206993103027 6.5992937088012695 -2.249666452407837
-4.694680690765381 6.413607597351074 -2.2501559257507324
-4.980796813964844 6.249625205993652 -2.2624332904815674
-5.187530517578125 6.241634845733643 -2.2975735664367676
-5.402152061462402 6.235138416290283 -2.3354761600494385
-5.814383029937744 6.1796183586120605 -2.4020309448242188
-2.045358896255493 7.025618553161621 -2.2506425380706787
-2.1888720989227295 6.981816291809082 -2.250519275665283
-2.3314404487609863 6.935061931610107 -2.2503886222839355
-2.6135034561157227 6.832777500152588 -2.250105142593384
-2.7528722286224365 6.777291297912598 -2.249953031539917
-3.16390323638916 6.594380855560303 -2.249666213989258
-3.2984514236450195 6.528079509735107 -2.2496533393859863
-3.4316203594207764 6.4590301513671875 -2.2496402263641357
-3.5634398460388184 6.387277603149414 -2.249630928039551
-3.6935601234436035 6.312869071960449 -2.249630928039551
-3.83296799659729 6.253316402435303 -2.2559492588043213
-4.004303455352783 6.241832733154297 -2.2809557914733887
-4.184067249298096 6.236886501312256 -2.3100204467773438
-4.36847448348999 6.23164176940918 -2.3407704830169678
-4.867458820343018 6.107025146484375 -2.4020309448242188
-4.9916839599609375 6.005929946899414 -2.4020309448242188
-5.113790988922119 5.9023118019104 -2.4020309448242188
-1.891722321510315 6.4980082511901855 -2.249648332595825
-2.024576425552368 6.457828044891357 -2.249640703201294
-2.1565489768981934 6.414931297302246 -2.2496323585510254
-2.417792797088623 6.321110725402832 -2.249630928039551
-2.837756872177124 6.239455223083496 -2.278461217880249
-2.991953134536743 6.236003398895264 -2.2991256713867188
-3.149035692214966 6.23231840133667 -2.321091651916504
-3.309086799621582 6.228389263153076 -2.344411611557007
-3.776370048522949 6.160943508148193 -2.4020309448242188
-4.025781631469727 6.000926971435547 -2.4020309448242188
-4.842841625213623 5.3632941246032715 -2.4020309448242188
-4.951758861541748 5.262862205505371 -2.4020309448242188
-1.9522509574890137 6.227067947387695 -2.333717107772827
-2.3788537979125977 6.219310283660889 -2.3812127113342285
-2.525062084197998 6.216300964355469 -2.399383068084717
-2.654876708984375 6.170021057128906 -2.4020309448242188
-3.029186248779297 5.995120525360107 -2.4020309448242188
-3.151484251022339 5.931746482849121 -2.4020309448242188
-3.272454261779785 5.865875244140625 -2.4020309448242188
-3.391995668411255 5.797538757324219 -2.4020309448242188
-3.510219097137451 5.72676420211792 -2.4020309448242188
-3.626901149749756 5.653580188751221 -2.4020309448242188
-3.7420713901519775 5.578023433685303 -2.4020309448242188
-3.967634916305542 5.419900894165039 -2.4020309448242188
-4.078007221221924 5.337402820587158 -2.4020309448242188
-4.186606407165527 5.252660274505615 -2.4020309448242188
-4.293356418609619 5.165708541870117 -2.4020309448242188
-4.398383140563965 5.076584815979004 -2.4020309448242188
-4.602831840515137 4.891973972320557 -2.4020309448242188
-1.7520726919174194 6.018200397491455 -2.4020309448242188
-1.8751085996627808 5.9810075759887695 -2.4020309448242188
-1.9973571300506592 5.941299915313721 -2.4020309448242188
-2.1187658309936523 5.899094104766846 -2.4020309448242188
-2.2392821311950684 5.854408264160156 -2.4020309448242188
-2.358830451965332 5.807261943817139 -2.4020309448242188
-2.477419376373291 5.757673263549805 -2.4020309448242188
-2.8267462253570557 5.594461441040039 -2.4020309448242188
-2.940869092941284 5.535322666168213 -2.4020309448242188
-3.053753614425659 5.473853588104248 -2.4020309448242188
-3.165355682373047 5.4100871086120605 -2.4020309448242188
-3.2756266593933105 5.344040393829346 -2.4020309448242188
-3.3844127655029297 5.275745868682861 -2.4020309448242188
-3.491990327835083 5.205240249633789 -2.4020309448242188
-3.90673828125 4.9016218185424805 -2.4020309448242188
-4.104426860809326 4.7373151779174805 -2.4020309448242188
-1.7557287216186523 5.600222110748291 -2.4020309448242188
-1.8701928853988647 5.563043117523193 -2.4020309448242188
-1.9838720560073853 5.523524284362793 -2.4020309448242188
-2.0967161655426025 5.481681823730469 -2.4020309448242188
-2.2086753845214844 5.437537670135498 -2.4020309448242188
-2.319709539413452 5.3911051750183105 -2.4020309448242188
-2.7536327838897705 5.182909965515137 -2.4020309448242188
-2.859332799911499 5.1253557205200195 -2.4020309448242188
-2.963824987411499 5.065647602081299 -2.4020309448242188
-3.067084789276123 5.003806114196777 -2.4020309448242188
-3.2696611881256104 4.873843193054199 -2.4020309448242188
-3.4667553901672363 4.735681533813477 -2.4020309448242188
-3.5631303787231445 4.663600444793701 -2.4020309448242188
-3.9332706928253174 4.3559699058532715 -2.4020309448242188
-1.6484887599945068 5.259159564971924 -2.4020309448242188
-1.9690197706222534 5.1478400230407715 -2.4020309448242188
-2.0741589069366455 5.106383323669434 -2.4020309448242188
-2.178433895111084 5.062777519226074 -2.4020309448242188
-2.2817845344543457 5.017045021057129 -2.4020309448242188
-2.4855797290802 4.919266223907471 -2.4020309448242188
-2.7833263874053955 4.757140159606934 -2.4020309448242188
-2.9760429859161377 4.639016151428223 -2.4020309448242188
-3.255620002746582 4.447272777557373 -2.4020309448242188
-3.522892951965332 4.238696098327637 -2.4020309448242188
-3.6090667247772217 4.165567398071289 -2.4020309448242188
-3.693726062774658 4.09068489074707 -2.4020309448242188
-3.77683162689209 4.014083385467529 -2.4020309448242188
-1.4505187273025513 4.9824137687683105 -2.4020309448242188
-1.5523828268051147 4.951620578765869 -2.4020309448242188
-1.7541064023971558 4.883805274963379 -2.4020309448242188
-1.8538793325424194 4.8468122482299805 -2.4020309448242188
-2.14836049079895 4.723663330078125 -2.4020309448242188
-2.5281713008880615 4.53175163269043 -2.4020309448242188
-2.9787418842315674 4.249181270599365 -2.4020309448242188
-3.0652453899383545 4.187209606170654 -2.4020309448242188
-3.150460720062256 4.123476028442383 -2.4020309448242188
-3.398019313812256 3.9219775199890137 -2.4020309448242188
-3.4777276515960693 3.8514745235443115 -2.4020309448242188
-1.3687865734100342 4.701679706573486 -2.4020309448242188
-1.560421109199524 4.641600131988525 -2.4020309448242188
-1.6552660465240479 4.6086273193359375 -2.4020309448242188
-1.8428356647491455 4.53688383102417 -2.4020309448242188
-1.9354760646820068 4.498142719268799 -2.4020309448242188
-2.0273094177246094 4.457508563995361 -2.4020309448242188
-2.2975316047668457 4.324432849884033 -2.4020309448242188
-2.472912549972534 4.22659158706665 -2.4020309448242188
-2.5590600967407227 4.174994468688965 -2.4020309448242188
-2.6441333293914795 4.121641635894775 -2.4020309448242188
-2.810903310775757 4.009762287139893 -2.4020309448242188
-2.8925328254699707 3.9512815475463867 -2.4020309448242188
-2.972947359085083 3.8911383152008057 -2.4020309448242188
-3.2817747592926025 3.634462833404541 -2.4020309448242188
-1.385125756263733 4.418121814727783 -2.4020309448242188
-1.6541393995285034 4.324604511260986 -2.4020309448242188
-1.7424670457839966 4.28977632522583 -2.4020309448242188
-1.8300634622573853 4.253145694732666 -2.4020309448242188
-1.9168908596038818 4.214725971221924 -2.4020309448242188
-2.0029137134552 4.174533367156982 -2.4020309448242188
-2.2557835578918457 4.043489933013916 -2.4020309448242188
-2.338223934173584 3.996385335922241 -2.4020309448242188
-2.5001182556152344 3.897150754928589 -2.4020309448242188
-2.8110241889953613 3.679203510284424 -2.4020309448242188
-2.959515333175659 3.5608508586883545 -2.4020309448242188
-3.0319104194641113 3.499415159225464 -2.4020309448242188
-3.172844886779785 3.372156858444214 -2.4020309448242188
-1.22589111328125 4.210824489593506 -2.4020309448242188
-1.3119786977767944 4.18480110168457 -2.4020309448242188
-1.3975133895874023 4.157018184661865 -2.4020309448242188
-1.5667834281921387 4.096221923828125 -2.4020309448242188
-1.8971399068832397 3.954075813293457 -2.4020309448242188
-1.9778209924697876 3.914341449737549 -2.4020309448242188
-2.0576696395874023 3.872962474822998 -2.4020309448242188
-2.3680882453918457 3.69134259223938 -2.4020309448242188
-2.5174474716186523 3.5911431312561035 -2.4020309448242188
-2.6625730991363525 3.4849040508270264 -2.4020309448242188
-2.7334728240966797 3.4295740127563477 -2.4020309448242188
-2.8717949390411377 3.3146111965179443 -2.4020309448242188
-2.9391589164733887 3.255025625228882 -2.4020309448242188
-3.0052855014801025 3.1940739154815674 -2.4020309448242188
-1.2446081638336182 3.9699132442474365 -2.4020309448242188
-1.7224254608154297 3.7871508598327637 -2.4020309448242188
-1.7997204065322876 3.7510364055633545 -2.4020309448242188
-1.9520105123519897 3.674088716506958 -2.4020309448242188
-2.026939630508423 3.633289098739624 -2.4020309448242188
-2.1010143756866455 3.59096360206604 -2.4020309448242188
-2.174208879470825 3.547123908996582 -2.4020309448242188
-2.2464866638183594 3.5017924308776855 -2.4020309448242188
-2.5258495807647705 3.305955648422241 -2.4020309448242188
-2.593111515045166 3.253467321395874 -2.4020309448242188
-2.724329710006714 3.1444079875946045 -2.4020309448242188
-2.850966691970825 3.030059814453125 -2.4020309448242188
