ply
format ascii 1.0
element vertex 280
property float x
property float y
property float z
end_header
-42.25908279418945 -20.43206024169922 -0.2642773389816284
-39.90287780761719 -21.28694725036621 -0.25463011860847473
-39.59213638305664 -21.12118148803711 -1.2635407447814941
-47.15933609008789 -4.398436069488525 -2.4020309448242188
-46.661781311035156 -8.125710487365723 -2.4020309448242188
-46.49126052856445 -9.050429344177246 -2.4020309448242188
-42.69997787475586 -11.894749641418457 -2.2479491233825684
-41.87456130981445 -12.565767288208008 -2.2171924114227295
-40.88719177246094 -14.975529670715332 -2.2082724571228027
-39.92966079711914 -17.38555145263672 -2.2086257934570312
-38.026214599609375 -21.266117095947266 -2.2095608711242676
-37.60042190551758 -22.019105911254883 -2.2097880840301514
-36.783538818359375 -22.533132553100586 -2.1876437664031982
-32.618404388427734 -3.042238473892212 -2.4020309448242188
-32.55158233642578 -3.689181327819824 -2.4020309448242188
-32.379478454589844 -4.978425979614258 -2.4020309448242188
-32.2742805480957 -5.6202616691589355 -2.4020309448242188
-31.88249397277832 -7.531406879425049 -2.4020309448242188
-31.72669792175293 -8.162856101989746 -2.4020309448242188
-31.558393478393555 -8.791086196899414 -2.4020309448242188
-29.88936996459961 -9.620031356811523 -2.302267551422119
-29.014095306396484 -9.978175163269043 -2.2496657371520996
-28.60096549987793 -11.124320030212402 -2.25012469291687
-28.392873764038086 -11.69748592376709 -2.251582384109497
-27.023231506347656 -13.73401927947998 -2.2226150035858154
-26.74699592590332 -14.26868724822998 -2.2227578163146973
-22.252267837524414 -12.444571495056152 -1.8694123029708862
-26.163272857666016 -15.321419715881348 -2.2230796813964844
-25.856035232543945 -15.839068412780762 -2.2232582569122314
-24.79988670349121 -3.3105244636535645 -2.4020309448242188
-24.648893356323242 -4.2923736572265625 -2.4020309448242188
-24.230669021606445 -6.234238147735596 -2.4020309448242188
-24.102191925048828 -6.714043617248535 -2.4020309448242188
-23.816675186157227 -7.665506362915039 -2.4020309448242188
-23.659807205200195 -8.136794090270996 -2.4020309448242188
-23.493587493896484 -8.604872703552246 -2.4020309448242188
-23.31802749633789 -9.069573402404785 -2.4020309448242188
-23.133493423461914 -9.530693054199219 -2.4020309448242188
-21.294355392456055 -9.77901554107666 -2.249630928039551
-20.890836715698242 -10.617338180541992 -2.249784231185913
-20.682836532592773 -11.033653259277344 -2.250535011291504
-20.469310760498047 -11.447437286376953 -2.2515923976898193
-20.2402400970459 -11.852849960327148 -2.2518393993377686
-19.875398635864258 -12.175416946411133 -2.237701892852783
-20.134136199951172 -1.8778610229492188 -2.4020309448242188
-19.92171287536621 -3.4691789150238037 -2.4020309448242188
-19.84891128540039 -3.8639771938323975 -2.4020309448242188
-19.768293380737305 -4.257252216339111 -2.4020309448242188
-19.67988395690918 -4.648859024047852 -2.4020309448242188
-19.583717346191406 -5.038629531860352 -2.4020309448242188
-19.479883193969727 -5.426418781280518 -2.4020309448242188
-19.249067306518555 -6.195407390594482 -2.4020309448242188
-19.12228775024414 -6.576305866241455 -2.4020309448242188
-18.987966537475586 -6.954622745513916 -2.4020309448242188
-18.54030990600586 -8.07253360748291 -2.4020309448242188
-18.0269775390625 -9.161833763122559 -2.4020309448242188
-17.841510772705078 -9.51789379119873 -2.4020309448242188
-17.242046356201172 -9.642595291137695 -2.3466389179229736
-16.493040084838867 -9.658540725708008 -2.2703731060028076
-16.803743362426758 -2.2431235313415527 -2.4020309448242188
-16.755903244018555 -2.5762622356414795 -2.4020309448242188
-16.70145606994629 -2.9084010124206543 -2.4020309448242188
-16.640426635742188 -3.239382266998291 -2.4020309448242188
-16.57284164428711 -3.569086790084839 -2.4020309448242188
-16.498720169067383 -3.8973917961120605 -2.4020309448242188
-16.418094635009766 -4.22415828704834 -2.4020309448242188
-16.03142738342285 -5.51329231262207 -2.4020309448242188
-15.799766540527344 -6.145308494567871 -2.4020309448242188
-15.405956268310547 -7.074882507324219 -2.4020309448242188
-15.11296558380127 -7.680865287780762 -2.4020309448242188
-14.957511901855469 -7.979366779327393 -2.4020309448242188
-14.79615592956543 -8.274731636047363 -2.4020309448242188
-14.456013679504395 -8.855570793151855 -2.4020309448242188
-14.517803192138672 -1.3540399074554443 -2.4020309448242188
-14.488059997558594 -1.6419811248779297 -2.4020309448242188
-14.364633560180664 -2.5014655590057373 -2.4020309448242188
-14.31214427947998 -2.7861366271972656 -2.4020309448242188
-14.190264701843262 -3.352079153060913 -2.4020309448242188
-14.120922088623047 -3.633124828338623 -2.4020309448242188
-14.046015739440918 -3.9127373695373535 -2.4020309448242188
-13.788206100463867 -4.741873741149902 -2.4020309448242188
-13.691351890563965 -5.014659881591797 -2.4020309448242188
-13.589067459106445 -5.285470485687256 -2.4020309448242188
-13.250394821166992 -6.08498477935791 -2.4020309448242188
-12.998392105102539 -6.606178283691406 -2.4020309448242188
-12.725919723510742 -7.116954326629639 -2.4020309448242188
-12.724201202392578 -1.1867551803588867 -2.4020309448242188
-12.698135375976562 -1.4391225576400757 -2.4020309448242188
-12.589957237243652 -2.192422866821289 -2.4020309448242188
-12.543950080871582 -2.4419243335723877 -2.4020309448242188
-12.49300479888916 -2.6904633045196533 -2.4020309448242188
-12.437131881713867 -2.9379475116729736 -2.4020309448242188
-12.240188598632812 -3.6730546951293945 -2.4020309448242188
-12.164870262145996 -3.9153201580047607 -2.4020309448242188
-12.084747314453125 -4.156039714813232 -2.4020309448242188
-11.99985122680664 -4.395122051239014 -2.4020309448242188
-11.910236358642578 -4.63247537612915 -2.4020309448242188
-11.505193710327148 -5.562712669372559 -2.4020309448242188
-11.39254093170166 -5.79002046585083 -2.4020309448242188
-11.275396347045898 -6.015041351318359 -2.4020309448242188
-11.027663230895996 -6.457888126373291 -2.4020309448242188
-10.89728832244873 -6.675541400909424 -2.4020309448242188
-11.291290283203125 -1.2796801328659058 -2.4020309448242188
-11.263660430908203 -1.5035803318023682 -2.4020309448242188
-11.059202194213867 -2.612447500228882 -2.4020309448242188
-10.946781158447266 -3.0493972301483154 -2.4020309448242188
-10.41882038116455 -4.536401271820068 -2.4020309448242188
-10.326716423034668 -4.742341041564941 -2.4020309448242188
-10.230538368225098 -4.946415901184082 -2.4020309448242188
-10.130319595336914 -5.148534297943115 -2.4020309448242188
-9.91798210144043 -5.546609878540039 -2.4020309448242188
-9.805986404418945 -5.7424187660217285 -2.4020309448242188
-9.690032958984375 -5.935952186584473 -2.4020309448242188
-10.155396461486816 -1.1509455442428589 -2.4020309448242188
-10.130546569824219 -1.3523213863372803 -2.4020309448242188
-10.068839073181152 -1.7534011602401733 -2.4020309448242188
-9.845545768737793 -2.742630958557129 -2.4020309448242188
-9.72891616821289 -3.131296396255493 -2.4020309448242188
-9.525278091430664 -3.7048487663269043 -2.4020309448242188
-9.201356887817383 -4.4488091468811035 -2.4020309448242188
-8.9202241897583 -4.988624572753906 -2.4020309448242188
-9.237109184265137 -0.8615224957466125 -2.4020309448242188
-9.0692720413208 -1.9531347751617432 -2.4020309448242188
-9.028708457946777 -2.1327970027923584 -2.4020309448242188
-8.984600067138672 -2.311614990234375 -2.4020309448242188
-8.831064224243164 -2.842318296432495 -2.4020309448242188
-8.646210670471191 -3.362935781478882 -2.4020309448242188
-8.577747344970703 -3.5339181423187256 -2.4020309448242188
-8.505900382995605 -3.7035071849823 -2.4020309448242188
-8.430706024169922 -3.871635675430298 -2.4020309448242188
-8.352180480957031 -4.038238525390625 -2.4020309448242188
-8.270370483398438 -4.203251361846924 -2.4020309448242188
-8.185301780700684 -4.366602897644043 -2.4020309448242188
-8.00550365447998 -4.688088417053223 -2.4020309448242188
-8.448295593261719 -0.7879517674446106 -2.4020309448242188
-8.410357475280762 -1.122694730758667 -2.4020309448242188
-8.359163284301758 -1.4556695222854614 -2.4020309448242188
-8.126935005187988 -2.4387428760528564 -2.4020309448242188
-7.967364311218262 -2.918164014816284 -2.4020309448242188
-7.907853603363037 -3.075754404067993 -2.4020309448242188
-7.845244407653809 -3.2321386337280273 -2.4020309448242188
-7.710750579833984 -3.541010618209839 -2.4020309448242188
-7.486307621002197 -3.9937126636505127 -2.4020309448242188
-7.4055399894714355 -4.141540050506592 -2.4020309448242188
-7.7598137855529785 -0.8794459104537964 -2.4020309448242188
-7.718788146972656 -1.186782956123352 -2.4020309448242188
-7.66559362411499 -1.4922566413879395 -2.4020309448242188
-7.634466171264648 -1.6441378593444824 -2.4020309448242188
-7.56317663192749 -1.9459037780761719 -2.4020309448242188
-7.523054599761963 -2.0956649780273438 -2.4020309448242188
-7.3330979347229 -2.6858551502227783 -2.4020309448242188
-7.22069787979126 -2.97483229637146 -2.4020309448242188
-7.160220146179199 -3.1175918579101562 -2.4020309448242188
-7.096919536590576 -3.259120464324951 -2.4020309448242188
-6.816009521484375 -3.8118443489074707 -2.4020309448242188
-6.73899507522583 -3.9464073181152344 -2.4020309448242188
-6.659321308135986 -4.079412937164307 -2.4020309448242188
-7.180239677429199 -0.8137609958648682 -2.4020309448242188
-7.1190690994262695 -1.239719033241272 -2.4020309448242188
-7.09305477142334 -1.3808010816574097 -2.4020309448242188
-7.064245223999023 -1.5213388204574585 -2.4020309448242188
-7.032676696777344 -1.6612805128097534 -2.4020309448242188
-6.9983038902282715 -1.8005656003952026 -2.4020309448242188
-6.961162090301514 -1.939141035079956 -2.4020309448242188
-6.833396911621094 -2.3500583171844482 -2.4020309448242188
-6.78539514541626 -2.485250473022461 -2.4020309448242188
-6.56685733795166 -3.015699625015259 -2.4020309448242188
-6.44196891784668 -3.2740023136138916 -2.4020309448242188
-6.30692720413208 -3.5271410942077637 -2.4020309448242188
-6.23566198348999 -3.6516542434692383 -2.4020309448242188
-6.16193962097168 -3.7747256755828857 -2.4020309448242188
-6.566408157348633 -1.4141254425048828 -2.4020309448242188
-6.470510482788086 -1.8024845123291016 -2.4020309448242188
-6.433535099029541 -1.9305825233459473 -2.4020309448242188
-6.3939361572265625 -2.0579183101654053 -2.4020309448242188
-6.307214260101318 -2.3101072311401367 -2.4020309448242188
-6.2600998878479 -2.4348628520965576 -2.4020309448242188
-6.210534572601318 -2.55865740776062 -2.4020309448242188
-5.926393508911133 -3.1615447998046875 -2.4020309448242188
-5.796217918395996 -3.39431095123291 -2.4020309448242188
-5.727687835693359 -3.508708953857422 -2.4020309448242188
-6.240967273712158 -0.5820797681808472 -2.4020309448242188
-6.228182792663574 -0.7058609127998352 -2.4020309448242188
-6.212941646575928 -0.8293623328208923 -2.4020309448242188
-6.195255756378174 -0.9525359869003296 -2.4020309448242188
-6.175123691558838 -1.075339674949646 -2.4020309448242188
-6.152557849884033 -1.1977146863937378 -2.4020309448242188
-6.127570629119873 -1.3196184635162354 -2.4020309448242188
-6.100164890289307 -1.4410046339035034 -2.4020309448242188
-6.003495216369629 -1.8015607595443726 -2.4020309448242188
-5.643080711364746 -2.728400230407715 -2.4020309448242188
-5.587800025939941 -2.83988881111145 -2.4020309448242188
-5.530322551727295 -2.950256586074829 -2.4020309448242188
-5.831659317016602 -0.6609217524528503 -2.4020309448242188
-5.817389488220215 -0.7765604853630066 -2.4020309448242188
-5.800827503204346 -0.8918917775154114 -2.4020309448242188
-5.760849952697754 -1.121461272239685 -2.4020309448242188
-5.737451553344727 -1.2356035709381104 -2.4020309448242188
-5.683879852294922 -1.4623866081237793 -2.4020309448242188
-5.653728485107422 -1.5749348402023315 -2.4020309448242188
-5.586737155914307 -1.798124074935913 -2.4020309448242188
-5.549970626831055 -1.9086742401123047 -2.4020309448242188
-5.469814777374268 -2.127480983734131 -2.4020309448242188
-5.381054401397705 -2.3429341316223145 -2.4020309448242188
-5.3334856033325195 -2.449295997619629 -2.4020309448242188
-5.283806800842285 -2.554694175720215 -2.4020309448242188
-5.122371673583984 -2.8646798133850098 -2.4020309448242188
-5.064488887786865 -2.965806722640991 -2.4020309448242188
-5.42984676361084 -0.9455567598342896 -2.4020309448242188
-5.410006523132324 -1.053162693977356 -2.4020309448242188
-5.363935470581055 -1.267089605331421 -2.4020309448242188
-5.309409141540527 -1.4790188074111938 -2.4020309448242188
-5.246511936187744 -1.6886144876480103 -2.4020309448242188
-5.211851119995117 -1.792433738708496 -2.4020309448242188
-5.175304412841797 -1.8955471515655518 -2.4020309448242188
-5.1367106437683105 -1.9979130029678345 -2.4020309448242188
-5.053337097167969 -2.2002458572387695 -2.4020309448242188
-4.962006568908691 -2.399109363555908 -2.4020309448242188
-4.810410022735596 -2.690216302871704 -2.4020309448242188
-5.166840076446533 -0.48189833760261536 -2.4020309448242188
-5.15625524520874 -0.5843754410743713 -2.4020309448242188
-5.128993511199951 -0.78859543800354 -2.4020309448242188
-5.112326622009277 -0.8902631998062134 -2.4020309448242188
-5.09364652633667 -0.9915769696235657 -2.4020309448242188
-5.072958469390869 -1.092499852180481 -2.4020309448242188
-5.05026912689209 -1.1929939985275269 -2.4020309448242188
-4.998929500579834 -1.3925302028656006 -2.4020309448242188
-4.872661590576172 -1.784700870513916 -2.4020309448242188
-4.798027038574219 -1.9767216444015503 -2.4020309448242188
-4.757835388183594 -2.071582555770874 -2.4020309448242188
-4.71577262878418 -2.16562557220459 -2.4020309448242188
-4.671851634979248 -2.258816719055176 -2.4020309448242188
-4.578508377075195 -2.4424891471862793 -2.4020309448242188
-4.477938175201416 -2.622314929962158 -2.4020309448242188
-4.875712871551514 -0.4547456204891205 -2.4020309448242188
-4.853818416595459 -0.6479334831237793 -2.4020309448242188
-4.8242716789245605 -0.8401015996932983 -2.4020309448242188
-4.806644916534424 -0.935706615447998 -2.4020309448242188
-4.7871222496032715 -1.0309425592422485 -2.4020309448242188
-4.71726655960083 -1.3140689134597778 -2.4020309448242188
-4.598155975341797 -1.6841422319412231 -2.4020309448242188
-4.5637922286987305 -1.7750931978225708 -2.4020309448242188
-4.4897589683532715 -1.9548587799072266 -2.4020309448242188
-4.450061321258545 -2.0436034202575684 -2.4020309448242188
-4.365432262420654 -2.218644142150879 -2.4020309448242188
-4.320528030395508 -2.3048672676086426 -2.4020309448242188
-4.225623607635498 -2.4745614528656006 -2.4020309448242188
-4.175668239593506 -2.5579614639282227 -2.4020309448242188
-4.576383590698242 -0.7036302089691162 -2.4020309448242188
-4.544846057891846 -0.8847424387931824 -2.4020309448242188
-4.506141185760498 -1.0644580125808716 -2.4020309448242188
-4.4841227531433105 -1.1537047624588013 -2.4020309448242188
-4.407496452331543 -1.4185731410980225 -2.4020309448242188
-4.347712516784668 -1.5924135446548462 -2.4020309448242188
-4.315241813659668 -1.6784106492996216 -2.4020309448242188
-4.168474197387695 -2.0154480934143066 -2.4020309448242188
-4.127662181854248 -2.0978026390075684 -2.4020309448242188
-4.085206031799316 -2.179330348968506 -2.4020309448242188
-3.9954724311828613 -2.3397817611694336 -2.4020309448242188
-4.347079277038574 -0.5802893042564392 -2.4020309448242188
-4.334705829620361 -0.6664717197418213 -2.4020309448242188
-4.3048319816589355 -0.8380189538002014 -2.4020309448242188
-4.287346839904785 -0.9233123660087585 -2.4020309448242188
-4.268171310424805 -1.0082437992095947 -2.4020309448242188
-4.247317314147949 -1.092777967453003 -2.4020309448242188
-4.200589656829834 -1.2605175971984863 -2.4020309448242188
-4.14724063873291 -1.4262686967849731 -2.4020309448242188
-3.985478401184082 -1.8302520513534546 -2.4020309448242188
-3.948364734649658 -1.9090112447738647 -2.4020309448242188
-3.8277244567871094 -2.1406495571136475 -2.4020309448242188
-4.067194938659668 -0.8759008646011353 -2.4020309448242188
-4.049003601074219 -0.9564715623855591 -2.4020309448242188
-4.007845401763916 -1.116447925567627 -2.4020309448242188
-3.9848930835723877 -1.195791482925415 -2.4020309448242188
-3.877471923828125 -1.508139967918396 -2.4020309448242188
-3.846766233444214 -1.584816813468933 -2.4020309448242188
-3.7088916301727295 -1.8849849700927734 -2.4020309448242188
-3.631171226501465 -2.0307281017303467 -2.4020309448242188
-3.590142250061035 -2.102416515350342 -2.4020309448242188
-3.547696352005005 -2.173273801803589 -2.4020309448242188
