ply
format ascii 1.0
element vertex 273
property float x
property float y
property float z
end_header
-17.309606552124023 25.153167724609375 5.383907318115234
-17.308378219604492 24.085094451904297 5.229726314544678
-16.91448211669922 35.95820617675781 6.0876078605651855
-17.02385711669922 34.354942321777344 5.873708248138428
-17.69377326965332 33.94949722290039 5.864840030670166
-16.35029411315918 34.75881576538086 5.002084732055664
-17.25529670715332 33.10820007324219 4.861786842346191
-18.180803298950195 33.2142219543457 4.065964221954346
-17.308378219604492 24.085084915161133 3.1848649978637695
-16.543704986572266 33.38596725463867 3.154172897338867
-17.641199111938477 33.8486328125 3.231187582015991
-17.30919647216797 26.283973693847656 2.6641509532928467
-17.308378219604492 24.085092544555664 2.510739803314209
-15.714975357055664 35.2564697265625 2.393613338470459
-16.6777286529541 33.656429290771484 2.3292300701141357
-18.283235549926758 33.4013557434082 2.3612232208251953
-17.246747970581055 26.189184188842773 1.9445194005966187
-17.246746063232422 25.06182289123535 1.8865259885787964
-15.650901794433594 35.112728118896484 1.5158411264419556
-16.94069480895996 32.50456619262695 1.4453150033950806
-18.031349182128906 32.94118118286133 1.480764627456665
-17.246742248535156 23.999319076538086 1.1653300523757935
-15.698805809020996 35.22018814086914 0.6513557434082031
-16.54030418395996 33.37910461425781 0.6292600631713867
-17.055740356445312 32.72530746459961 0.6233600974082947
-18.120283126831055 33.103660583496094 0.6374714374542236
-15.961103439331055 35.808650970458984 -0.22073043882846832
-16.68307113647461 33.66720199584961 -0.21154922246932983
-17.439374923706055 33.46137619018555 -0.2124452143907547
-18.378036499023438 33.57453918457031 -0.21549758315086365
-11.305137634277344 32.18718338012695 -0.9605964422225952
-12.764513969421387 32.09457778930664 -0.9725620746612549
-14.238628387451172 31.94432258605957 -0.9847862124443054
-15.01603889465332 31.922393798828125 -0.9933418035507202
-15.73507308959961 31.75413703918457 -0.9978803992271423
-17.386320114135742 31.762800216674805 -1.0195902585983276
-18.2775821685791 31.832916259765625 -1.0335884094238281
-19.2600040435791 32.014705657958984 -1.052021861076355
-21.948511123657227 31.894121170043945 -1.0901691913604736
-7.792724609375 32.42469787597656 -1.691218376159668
-11.004843711853027 42.00295639038086 -2.2020480632781982
-10.801834106445312 35.29326248168945 -1.8718267679214478
-13.551047325134277 41.25196838378906 -2.2020480632781982
-11.920308113098145 31.847286224365234 -1.7245409488677979
-13.424196243286133 31.84728240966797 -1.7527329921722412
-16.691946029663086 32.02728271484375 -1.831598162651062
-17.46315574645996 31.903167724609375 -1.844475507736206
-20.16856575012207 32.02851104736328 -1.9195150136947632
-7.017964839935303 29.201019287109375 -2.2020480632781982
-7.611642837524414 29.051923751831055 -2.2020480632781982
-8.202192306518555 28.89076042175293 -2.2020480632781982
-9.425549507141113 28.693178176879883 -2.214449644088745
-10.077929496765137 28.693178176879883 -2.2298412322998047
-11.252360343933105 28.29248046875 -2.2325122356414795
-11.823766708374023 28.05044937133789 -2.231969118118286
-12.950888633728027 27.532066345214844 -2.2308976650238037
-14.598881721496582 26.67045021057129 -2.2293312549591064
-15.666529655456543 26.041481018066406 -2.228316307067871
-16.190397262573242 25.711027145385742 -2.227818250656128
-17.217205047607422 25.018898010253906 -2.226842164993286
-5.9071044921875 22.54604148864746 -2.2375903129577637
-6.364140510559082 22.416589736938477 -2.2371559143066406
-6.818369388580322 22.27792739868164 -2.2367241382598877
-7.717653751373291 21.973148345947266 -2.2358691692352295
-8.162335395812988 21.807165145874023 -2.2354466915130615
-9.040888786315918 21.44839859008789 -2.2346115112304688
-9.47440242767334 21.255762100219727 -2.2341995239257812
-10.749784469604492 20.62588882446289 -2.2329869270324707
-11.16594123840332 20.398876190185547 -2.232591390609741
-11.57734489440918 20.16352653503418 -2.2322003841400146
-12.385186195373535 19.66819953918457 -2.2314324378967285
-12.78131103515625 19.408416748046875 -2.231055974960327
-13.557182312011719 18.86519432067871 -2.230318307876587
-4.404663562774658 18.327314376831055 -2.239016532897949
-4.776517391204834 18.23085594177246 -2.2386631965637207
-5.146275520324707 18.126876831054688 -2.238311767578125
-6.241466522216797 17.770246505737305 -2.2372705936431885
-6.601329803466797 17.636653900146484 -2.236928701400757
-6.958351135253906 17.495800018310547 -2.236589193344116
-7.663285255432129 17.192535400390625 -2.235919237136841
-8.010903358459473 17.030263900756836 -2.235588550567627
-10.020034790039062 15.912237167358398 -2.2336814403533936
-3.3801770210266113 15.443572998046875 -2.2399909496307373
-3.6937718391418457 15.369434356689453 -2.2396938800811768
-4.005724906921387 15.288941383361816 -2.239398241043091
-4.315954685211182 15.20213508605957 -2.2391045093536377
-4.930591106414795 15.009709358215332 -2.238522529602051
-5.23482608795166 14.904186248779297 -2.238234281539917
-5.536777973175049 14.792509078979492 -2.237948179244995
-6.13345193862915 14.550898551940918 -2.237381935119629
-6.719669818878174 14.285298347473145 -2.236825704574585
-7.008573532104492 14.143646240234375 -2.236551523208618
-4.361492156982422 8.368521690368652 -1.3371050357818604
-8.13327693939209 13.519434928894043 -2.2354846000671387
-8.675501823425293 13.173711776733398 -2.2349703311920166
-5.809575080871582 8.442094802856445 -1.452025055885315
-2.907862424850464 13.285459518432617 -2.240447521209717
-3.446085214614868 13.15291690826416 -2.239936590194702
-3.97831654548645 12.998621940612793 -2.239431858062744
-2.77933406829834 8.460844993591309 -1.4671083688735962
-4.763659477233887 12.727002143859863 -2.2386903762817383
-4.193885326385498 8.46346664428711 -1.5560567378997803
-4.361492156982422 8.368521690368652 -1.554624319076538
-6.998696804046631 11.633523941040039 -2.2365787029266357
-7.465534687042236 11.336397171020508 -2.2361373901367188
-1.8514916896820068 8.459124565124512 -1.627623200416565
-2.78555965423584 11.590413093566895 -2.240577459335327
-3.4875946044921875 11.395151138305664 -2.239912271499634
-4.4023118019104 11.068987846374512 -2.2390458583831787
-4.36149263381958 8.368521690368652 -1.7737635374069214
-5.729155540466309 10.466650009155273 -2.242767095565796
-6.584346771240234 9.998323440551758 -2.250199317932129
-5.809574604034424 8.442095756530762 -1.926209807395935
-2.275489568710327 10.396453857421875 -2.249624490737915
-2.487095832824707 10.34849739074707 -2.2497518062591553
-2.697603702545166 10.296116828918457 -2.2498514652252197
-3.1152727603912354 10.178658485412598 -2.250079393386841
-3.3222742080688477 10.11362361907959 -2.2502074241638184
-2.931476354598999 8.346305847167969 -1.8698976039886475
-3.732151985168457 9.971092224121094 -2.2504918575286865
-3.9348607063293457 9.893644332885742 -2.250648021697998
-4.7290191650390625 9.54336929321289 -2.251364231109619
-5.492611408233643 9.130022048950195 -2.2522237300872803
-5.678144454956055 9.01712703704834 -2.252460241317749
-5.861382961273193 8.900496482849121 -2.2527053356170654
-2.9910728931427 9.105398178100586 -2.252481698989868
-3.360038995742798 8.97696304321289 -2.2527382373809814
-3.5425195693969727 8.907175064086914 -2.2528789043426514
-3.903104782104492 8.756596565246582 -2.253185272216797
-4.081060886383057 8.67586612701416 -2.2533507347106934
-4.257361888885498 8.591551780700684 -2.2535243034362793
-4.604701995849609 8.412275314331055 -2.2538902759552
-5.271973133087158 8.005475044250488 -2.2528059482574463
-5.4333176612854 7.895345211029053 -2.252514123916626
-1.8612792491912842 8.503827095031738 -2.2539148330688477
-2.206446409225464 8.421488761901855 -2.2540700435638428
-2.377545118331909 8.374521255493164 -2.254002094268799
-2.547569513320923 8.323793411254883 -2.253858804702759
-2.8842601776123047 8.211917877197266 -2.2535464763641357
-3.050816535949707 8.150813102722168 -2.2533774375915527
-3.216043710708618 8.086305618286133 -2.253200054168701
-3.379913330078125 8.018423080444336 -2.253014087677002
-3.542322874069214 7.947185039520264 -2.2528200149536133
-4.176182270050049 7.629397869110107 -2.251962423324585
-4.330355644226074 7.541910171508789 -2.251728057861328
-4.781547546386719 7.26077938079834 -2.2509796619415283
-0.7057141065597534 3.224271059036255 -0.9343757629394531
-0.7716430425643921 3.210724353790283 -0.9348142743110657
-0.9162194728851318 3.227229595184326 -0.9497105479240417
-1.072412133216858 3.2646288871765137 -0.9727805852890015
-1.1525390148162842 3.281428098678589 -0.984581708908081
-1.2675927877426147 3.3866076469421387 -1.0236808061599731
-3.67423939704895 7.049858093261719 -2.2505524158477783
-3.816805362701416 6.972861289978027 -2.2503457069396973
-4.234531879425049 6.724637985229492 -2.2496907711029053
-4.370682239532471 6.636880397796631 -2.249673843383789
-4.505016803741455 6.546380996704102 -2.2496564388275146
-0.6478955149650574 2.96010684967041 -0.9320185780525208
-0.7085815072059631 2.9483354091644287 -0.9326664805412292
-0.8303515315055847 2.9247734546661377 -0.9351487755775452
-0.9685644507408142 2.948496103286743 -0.9545716643333435
-1.1829822063446045 2.9744420051574707 -0.984575629234314
-1.2631664276123047 2.9967076778411865 -1.0002613067626953
-1.353338599205017 3.036207914352417 -1.022442102432251
-1.5504992008209229 3.1289758682250977 -1.0740848779678345
-3.7707786560058594 6.267284393310547 -2.249630928039551
-3.9317033290863037 6.243779182434082 -2.26949143409729
-4.108634948730469 6.2389817237854 -2.297715187072754
-0.6006737947463989 2.7443645000457764 -0.9338377118110657
-0.6568945050239563 2.733268976211548 -0.9344245791435242
-0.7129198908805847 2.721050977706909 -0.9350221157073975
-0.8267626762390137 2.70131516456604 -0.9390467405319214
-1.017800211906433 2.71923828125 -0.9651316404342651
-1.083461880683899 2.724215030670166 -0.9745347499847412
-1.2195483446121216 2.7360503673553467 -0.9957349896430969
-1.2989709377288818 2.7614641189575195 -1.0144096612930298
-1.3806860446929932 2.786285877227783 -1.0336521863937378
-1.464016079902649 2.809047222137451 -1.052949070930481
-1.5541430711746216 2.839240074157715 -1.0759186744689941
-1.650948405265808 2.8753576278686523 -1.102129340171814
-1.875557780265808 2.9784631729125977 -1.169999599456787
-2.16667103767395 3.148463010787964 -1.2704367637634277
-4.217026710510254 5.868109703063965 -2.4020309448242188
-0.6727026104927063 2.567552328109741 -0.9491660594940186
-0.8350659012794495 2.5421009063720703 -0.9568659663200378
-0.8957849144935608 2.5504143238067627 -0.9666669964790344
-1.018649935722351 2.5612518787384033 -0.9857035875320435
-1.0799779891967773 2.562114715576172 -0.9943015575408936
-1.1420129537582397 2.562098979949951 -1.0031214952468872
-1.2075207233428955 2.567047595977783 -1.0144859552383423
-1.4292773008346558 2.611123561859131 -1.064493179321289
-1.8681102991104126 2.7146124839782715 -1.1784206628799438
-0.5862719416618347 2.439412832260132 -0.9614460468292236
-0.6366833448410034 2.4300754070281982 -0.9626808166503906
-0.6870190501213074 2.4199044704437256 -0.9639997482299805
-0.8413988947868347 2.3955705165863037 -0.9730048775672913
-0.8987280130386353 2.4011170864105225 -0.9824949502944946
-1.1358764171600342 2.4147424697875977 -1.0226396322250366
-1.198510766029358 2.418649673461914 -1.0344260931015015
-1.410760521888733 2.4570319652557373 -1.0857486724853516
-1.5581250190734863 2.4743666648864746 -1.1205602884292603
-0.6155419945716858 2.3493809700012207 -0.99399733543396
-0.7711449861526489 2.3475143909454346 -1.0112892389297485
-0.8782067894935608 2.3462884426116943 -1.0253394842147827
-1.225533366203308 2.351464033126831 -1.085258960723877
-1.2893164157867432 2.3554325103759766 -1.0989927053451538
-1.4214208126068115 2.3627402782440186 -1.1285141706466675
-1.7066576480865479 2.3748619556427 -1.1969211101531982
-0.7615002393722534 2.3181519508361816 -1.0634028911590576
-0.8133959770202637 2.315840244293213 -1.0697263479232788
-0.9201415777206421 2.3135673999786377 -1.0851099491119385
-1.392360806465149 2.3144328594207764 -1.1771299839019775
-1.4579747915267944 2.315324544906616 -1.1924521923065186
-1.5932482481002808 2.315201759338379 -1.2248389720916748
-1.6643115282058716 2.3159360885620117 -1.2429181337356567
-0.5017871260643005 2.292569875717163 -1.0863178968429565
-0.6004431247711182 2.2917518615722656 -1.0966224670410156
-0.6504309177398682 2.291032552719116 -1.1023939847946167
-0.7009069919586182 2.2901010513305664 -1.1085904836654663
-0.7519079446792603 2.288954257965088 -1.11522376537323
-0.9612035751342773 2.280339479446411 -1.1454750299453735
-1.0168359279632568 2.281266927719116 -1.1561131477355957
-1.0734179019927979 2.2819643020629883 -1.1673134565353394
-1.1302807331085205 2.2809598445892334 -1.178341269493103
-1.241174340248108 2.267481565475464 -1.1965359449386597
-1.3639209270477295 2.267160415649414 -1.2247041463851929
-1.428841471672058 2.2690608501434326 -1.2412071228027344
-1.4900487661361694 2.262636184692383 -1.2540481090545654
-1.6244542598724365 2.2604727745056152 -1.288499116897583
-0.6422656178474426 2.262272834777832 -1.1535522937774658
-0.692059338092804 2.2611937522888184 -1.1599549055099487
-0.7929333448410034 2.2575840950012207 -1.1737180948257446
-0.894122302532196 2.2481439113616943 -1.1867835521697998
-0.9467114210128784 2.2459583282470703 -1.1955689191818237
-1.0013647079467773 2.2465574741363525 -1.20650315284729
-1.0569299459457397 2.246912956237793 -1.2180120944976807
-1.1127489805221558 2.245577812194824 -1.229329228401184
-1.2771410942077637 2.2243165969848633 -1.258139967918396
-1.3360570669174194 2.2208433151245117 -1.2713162899017334
-1.3992663621902466 2.222093343734741 -1.2880929708480835
-1.4603551626205444 2.217545509338379 -1.3024429082870483
-0.5372338891029358 2.2353732585906982 -1.1926863193511963
-0.5854699611663818 2.234602212905884 -1.198393702507019
-0.6832422018051147 2.2323853969573975 -1.2111430168151855
-0.782763659954071 2.2286276817321777 -1.2254071235656738
-0.8324145078659058 2.2239456176757812 -1.2319068908691406
-1.0953772068023682 2.210521936416626 -1.279846429824829
-1.202272891998291 2.1964125633239746 -1.298989176750183
-1.256744384765625 2.1887922286987305 -1.3093621730804443
-1.370269775390625 2.1760454177856445 -1.3340611457824707
-1.489996314048767 2.1651618480682373 -1.3635131120681763
-1.54977285861969 2.156552791595459 -1.3777002096176147
-0.4844726324081421 2.2134599685668945 -1.241019368171692
-0.5311328172683716 2.2099859714508057 -1.2448832988739014
-0.5780529379844666 2.2062954902648926 -1.2491825819015503
-0.6260082721710205 2.2050070762634277 -1.255417823791504
-0.6744470000267029 2.203645944595337 -1.262208342552185
-0.8215698003768921 2.194973945617676 -1.2836480140686035
-0.8709667921066284 2.1899235248565674 -1.2908092737197876
-0.9712353348731995 2.1789591312408447 -1.306610107421875
-1.0243786573410034 2.1777098178863525 -1.3181087970733643
-1.183083415031433 2.1613569259643555 -1.3495254516601562
-1.4604369401931763 2.1222102642059326 -1.4109774827957153
-0.5715197920799255 2.1813602447509766 -1.3019170761108398
-0.6656628251075745 2.1749470233917236 -1.313201904296875
-0.8107433915138245 2.1660516262054443 -1.3353005647659302
-0.9085705280303955 2.1554746627807617 -1.350502848625183
-1.0083800554275513 2.1436994075775146 -1.3677572011947632
-1.11224365234375 2.134091377258301 -1.3894158601760864
-1.2714147567749023 2.113394021987915 -1.4239531755447388
-1.3851391077041626 2.103330373764038 -1.4540297985076904
-1.4457238912582397 2.100829839706421 -1.4723670482635498
-1.507759928703308 2.098090648651123 -1.491679072380066
