ply
format ascii 1.0
element vertex 329
property float x
property float y
property float z
end_header
33.33420181274414 -5.267334461212158 5.950645446777344
33.33420181274414 -4.5764923095703125 5.932851314544678
33.334197998046875 -3.205716371536255 5.9048333168029785
33.33421325683594 -0.4916035234928131 5.878358840942383
33.33421325683594 0.18451033532619476 5.877809524536133
33.33420944213867 2.2160093784332275 5.890693187713623
33.33420944213867 2.896090030670166 5.899859428405762
33.33420181274414 3.578559398651123 5.9114909172058105
33.33420181274414 4.26402473449707 5.92561149597168
33.33420181274414 4.953061580657959 5.942248821258545
33.33420181274414 5.64625358581543 5.96143913269043
33.334197998046875 6.344223976135254 5.983222961425781
33.334197998046875 7.757040977478027 6.034764289855957
33.294036865234375 8.463008880615234 6.057321071624756
33.33420181274414 -5.267334461212158 5.169972896575928
33.334197998046875 -3.88948655128479 5.141258239746094
33.29404067993164 -2.5215790271759033 5.115069389343262
33.33421325683594 -1.1681275367736816 5.109750747680664
33.33421325683594 -0.4916096329689026 5.1071696281433105
33.33420944213867 1.5377628803253174 5.112045764923096
33.33420944213867 2.2160072326660156 5.117885589599609
33.33420944213867 2.8960888385772705 5.125850677490234
33.33420181274414 3.5785679817199707 5.135956287384033
33.33420181274414 4.264018535614014 5.14822244644165
33.33420181274414 4.953060150146484 5.1626787185668945
33.334197998046875 6.344221115112305 5.198277950286865
33.29404067993164 7.74769401550293 5.2367401123046875
33.294036865234375 8.463007926940918 5.262660026550293
33.29404067993164 -3.884800910949707 4.364991188049316
33.29404067993164 -3.2018558979034424 4.355580806732178
33.29404067993164 -2.5215790271759033 4.347994327545166
33.2940559387207 -1.1667262315750122 4.3382415771484375
33.29405212402344 0.8597453236579895 4.337025165557861
33.29405212402344 1.5359067916870117 4.340190410614014
33.29405212402344 2.2133359909057617 4.345149040222168
33.29404830932617 3.574254035949707 4.360490798950195
33.29404830932617 4.947090148925781 4.3831787109375
27.84259796142578 4.716073513031006 3.677332639694214
33.29404067993164 7.039109230041504 4.431416988372803
33.294036865234375 8.46300983428955 4.473452091217041
33.294036865234375 9.185730934143066 4.497563362121582
36.48777770996094 -5.765634059906006 3.96673583984375
36.4877815246582 -5.009436130523682 3.9548754692077637
36.4877815246582 -4.257434368133545 3.944704532623291
36.48776626586914 -1.278624415397644 3.9205260276794434
36.48777389526367 -0.5381031632423401 3.9185473918914795
36.48636245727539 0.9421973824501038 3.919275999069214
36.486419677734375 1.6831940412521362 3.9221434593200684
36.48777770996094 2.4256675243377686 3.926769971847534
36.48777770996094 3.170084238052368 3.932882070541382
36.4877815246582 6.180428504943848 3.9739317893981934
36.487789154052734 6.944432258605957 3.9884533882141113
36.487789154052734 7.714357852935791 4.004734992980957
34.3551025390625 9.47848129272461 3.8269426822662354
40.19404602050781 9.353375434875488 2.5590412616729736
34.3551025390625 9.478487014770508 2.209965229034424
39.84891891479492 9.273064613342285 1.613266110420227
36.48085021972656 9.273077011108398 1.484221339225769
39.84891128540039 9.273063659667969 0.6911039352416992
34.35434341430664 9.478276252746582 0.6019871234893799
33.025726318359375 2.8692967891693115 -0.9334333539009094
34.35434341430664 9.478273391723633 -1.0034828186035156
46.78352737426758 -7.392528533935547 -2.4020309448242188
46.92384719848633 -6.44221305847168 -2.4020309448242188
47.044837951660156 -5.489249229431152 -2.4020309448242188
47.29158020019531 -2.618374824523926 -2.4020309448242188
47.3349609375 -1.658740758895874 -2.4020309448242188
31.80375862121582 2.114276885986328 -1.616464614868164
31.34198570251465 2.723012685775757 -1.5954740047454834
31.3597354888916 3.3666088581085205 -1.5995244979858398
44.00045394897461 5.628431797027588 -2.249630928039551
43.795467376708984 7.4182281494140625 -2.252692222595215
42.720703125 9.9413423538208 -2.224437952041626
36.48085021972656 9.273077011108398 -1.9089502096176147
32.53921890258789 -3.796715497970581 -2.4020309448242188
32.609519958496094 -3.136014938354492 -2.4020309448242188
32.66640853881836 -2.4740333557128906 -2.4020309448242188
32.756404876708984 -0.4830755591392517 -2.4020309448242188
32.75947189331055 0.18133895099163055 -2.4020309448242188
32.72516632080078 1.5096772909164429 -2.4020309448242188
32.57280731201172 3.4968371391296387 -2.4020309448242188
32.49519348144531 4.156710147857666 -2.4020309448242188
32.40420150756836 4.814883708953857 -2.4020309448242188
30.142826080322266 5.736842632293701 -2.2498087882995605
30.03483772277832 6.350050449371338 -2.2509000301361084
29.914325714111328 6.9612274169921875 -2.2519874572753906
24.713069915771484 -3.9050488471984863 -2.402017116546631
24.787181854248047 -3.403049945831299 -2.402017116546631
24.85110092163086 -2.8996541500091553 -2.402017116546631
24.98143768310547 -1.383137822151184 -2.402017116546631
25.01931381225586 0.13849258422851562 -2.402017116546631
25.01136016845703 0.6458738446235657 -2.402017116546631
24.817480087280273 3.174595355987549 -2.40201735496521
24.6683292388916 4.178404331207275 -2.40201735496521
24.47859001159668 5.175334453582764 -2.40201735496521
24.36858558654785 5.6707048416137695 -2.4020166397094727
24.248571395874023 6.16375207901001 -2.4020166397094727
24.11858367919922 6.654253959655762 -2.4020166397094727
20.190492630004883 -1.117879033088684 -2.4020190238952637
20.209009170532227 -0.708176851272583 -2.4020190238952637
20.214677810668945 0.5220078825950623 -2.4020190238952637
20.199935913085938 0.9318656921386719 -2.402019500732422
20.1768741607666 1.3413361310958862 -2.4020187854766846
20.145526885986328 1.7502555847167969 -2.4020187854766846
20.10588264465332 2.1584575176239014 -2.4020187854766846
20.001813888549805 2.972033739089966 -2.4020187854766846
19.937429428100586 3.3770697116851807 -2.4020187854766846
19.598175048828125 4.981666088104248 -2.4020190238952637
19.493114471435547 5.378100872039795 -2.4020190238952637
16.744958877563477 -2.6459648609161377 -2.4020204544067383
16.795190811157227 -2.3058149814605713 -2.4020209312438965
16.83855438232422 -1.9646669626235962 -2.4020204544067383
16.8748722076416 -1.6228337287902832 -2.4020204544067383
16.904314041137695 -1.280269742012024 -2.4020204544067383
16.950883865356445 -0.24998290836811066 -2.4020204544067383
16.952465057373047 0.09383895993232727 -2.4020204544067383
16.915388107299805 1.1245149374008179 -2.4020204544067383
16.889101028442383 1.4673359394073486 -2.4020204544067383
16.714641571044922 2.831183910369873 -2.4020204544067383
16.653785705566406 3.1695823669433594 -2.4020204544067383
16.586078643798828 3.5066771507263184 -2.4020204544067383
16.43023109436035 4.1764044761657715 -2.4020204544067383
16.34215545654297 4.508758544921875 -2.4020206928253174
14.4452486038208 -1.9831998348236084 -2.402021646499634
14.5137939453125 -1.3957725763320923 -2.402021646499634
14.539111137390137 -1.1011407375335693 -2.402021646499634
14.558456420898438 -0.8060528635978699 -2.402021646499634
14.580527305603027 0.08071059733629227 -2.402021646499634
14.57589340209961 0.3763948082923889 -2.402021646499634
14.565260887145996 0.6719236373901367 -2.402021646499634
14.526029586791992 1.2620313167572021 -2.402021646499634
14.497450828552246 1.5563666820526123 -2.402021646499634
14.422409057617188 2.143000364303589 -2.402021646499634
14.375983238220215 2.4350526332855225 -2.402021646499634
14.323644638061523 2.726104736328125 -2.402021646499634
14.265409469604492 3.016033887863159 -2.402021646499634
14.201308250427246 3.304722309112549 -2.402021646499634
14.055609703063965 3.8779070377349854 -2.402021646499634
12.69326114654541 -1.4810646772384644 -2.40202260017395
12.742880821228027 -0.9650994539260864 -2.40202260017395
12.775114059448242 0.32989487051963806 -2.40202260017395
12.751227378845215 0.8476859927177429 -2.40202260017395
12.731415748596191 1.1061115264892578 -2.40202260017395
12.6760835647583 1.6214936971664429 -2.40202260017395
12.640595436096191 1.8782426118850708 -2.40202260017395
12.59990406036377 2.134216070175171 -2.40202260017395
12.554028511047363 2.3893094062805176 -2.40202260017395
12.446808815002441 2.8964390754699707 -2.40202260017395
12.319110870361328 3.398813486099243 -2.40202260017395
11.286962509155273 -1.3169775009155273 -2.4020233154296875
11.311352729797363 -1.087796926498413 -2.4020233154296875
11.346161842346191 -0.6281989812850952 -2.4020233154296875
11.3565673828125 -0.39796462655067444 -2.4020233154296875
11.362299919128418 -0.16756652295589447 -2.4020233154296875
11.363361358642578 0.0629008486866951 -2.4020233154296875
11.351462364196777 0.5236653089523315 -2.4020233154296875
11.320890426635742 0.9835661053657532 -2.4020233154296875
11.298615455627441 1.2129572629928589 -2.4020233154296875
11.27169132232666 1.4418494701385498 -2.4020233154296875
11.240131378173828 1.6701505184173584 -2.4020233154296875
11.203949928283691 1.8977631330490112 -2.4020233154296875
11.163156509399414 2.124596357345581 -2.4020233154296875
10.954264640808105 3.0222532749176025 -2.4020233154296875
10.151508331298828 -1.1844909191131592 -2.4020237922668457
10.191190719604492 -0.7718438506126404 -2.4020237922668457
10.209521293640137 0.47098493576049805 -2.4020237922668457
10.137773513793945 1.2967997789382935 -2.4020237922668457
10.109387397766113 1.5021353960037231 -2.4020237922668457
10.040156364440918 1.9108628034591675 -2.4020237922668457
9.95440673828125 2.3164451122283936 -2.4020237922668457
9.905378341674805 2.517850637435913 -2.4020237922668457
9.163471221923828 -1.4479649066925049 -2.402024507522583
9.234564781188965 -0.8880703449249268 -2.402024269104004
9.27615737915039 -0.1367926001548767 -2.402024269104004
9.277023315429688 0.05135909840464592 -2.402024269104004
9.274079322814941 0.23948806524276733 -2.402024269104004
9.242350578308105 0.8029810786247253 -2.402024269104004
9.224164962768555 0.9902552366256714 -2.402024269104004
9.202184677124023 1.1771217584609985 -2.402024269104004
9.146880149841309 1.549329400062561 -2.402024269104004
9.113576889038086 1.734514594078064 -2.402024269104004
9.076525688171387 1.918985366821289 -2.402024269104004
9.035741806030273 2.1026670932769775 -2.402024269104004
8.943038940429688 2.4673619270324707 -2.402024507522583
8.380951881408691 -1.3243173360824585 -2.402024745941162
8.406079292297363 -1.1540734767913818 -2.402024745941162
8.427763938903809 -0.9833582639694214 -2.402024745941162
8.445963859558105 -0.8122381567955017 -2.402024745941162
8.460705757141113 -0.6407780051231384 -2.402024745941162
8.479731559753418 -0.29714643955230713 -2.402024745941162
8.484015464782715 -0.1251145899295807 -2.402024745941162
8.482109069824219 0.21903914213180542 -2.402024745941162
8.453085899353027 0.7344129681587219 -2.402024745941162
8.436454772949219 0.905689537525177 -2.402024745941162
8.392792701721191 1.2470731735229492 -2.402024745941162
8.335309982299805 1.586390495300293 -2.402024745941162
8.264121055603027 1.9231116771697998 -2.402024745941162
8.223420143127441 2.090315341949463 -2.402024745941162
7.713761806488037 -1.2188949584960938 -2.4020256996154785
7.756847858428955 -0.9050787091255188 -2.4020254611968994
7.787168025970459 -0.589677095413208 -2.402024984359741
7.808620452880859 -0.1151580810546875 -2.402024984359741
7.801171779632568 0.3597828447818756 -2.402024984359741
7.792267799377441 0.5178312659263611 -2.402024984359741
7.6997971534729 1.3042176961898804 -2.4020259380340576
7.671762466430664 1.4599348306655884 -2.4020259380340576
7.640578269958496 1.6153925657272339 -2.402026414871216
7.606245040893555 1.7700157165527344 -2.402026414871216
7.528207778930664 2.0770132541656494 -2.402027130126953
7.137639045715332 -1.1278579235076904 -2.402029275894165
7.21514892578125 -0.39951980113983154 -2.402028799057007
7.221765041351318 -0.25311461091041565 -2.402028799057007
7.225412368774414 -0.10662399232387543 -2.402028799057007
7.22608757019043 0.03978118672966957 -2.402028799057007
7.210283279418945 0.4791676104068756 -2.402028799057007
7.167791366577148 0.9168879389762878 -2.402029037475586
7.147723197937012 1.0620677471160889 -2.402029037475586
7.124715328216553 1.2068085670471191 -2.402029275894165
7.098775386810303 1.3510535955429077 -2.402029275894165
7.069913387298584 1.494741678237915 -2.402029275894165
7.03814697265625 1.6378159523010254 -2.402029514312744
7.003484725952148 1.7802174091339111 -2.4020297527313232
6.965940952301025 1.9218649864196777 -2.4020297527313232
6.634631156921387 -1.0483289957046509 -2.4020304679870605
6.686103343963623 -0.6429945230484009 -2.4020304679870605
6.71282958984375 -0.2352377325296402 -2.4020304679870605
6.716220378875732 -0.09908080846071243 -2.4020304679870605
6.714710712432861 0.17344528436660767 -2.4020304679870605
6.702155590057373 0.445546418428421 -2.4020304679870605
6.6917405128479 0.5813825726509094 -2.4020304679870605
6.678572654724121 0.7169749140739441 -2.4020304679870605
6.662662029266357 0.8522721529006958 -2.4020304679870605
6.622618198394775 1.1217411756515503 -2.4020304679870605
6.598506927490234 1.2558244466781616 -2.4020307064056396
6.50993013381958 1.654761791229248 -2.4020307064056396
6.209803104400635 -0.8526577353477478 -2.4020309448242188
6.225815296173096 -0.7264193296432495 -2.4020309448242188
6.258466720581055 -0.34651046991348267 -2.4020309448242188
6.26420783996582 -0.21951355040073395 -2.4020309448242188
6.267956256866455 0.03469528257846832 -2.4020309448242188
6.261394023895264 0.2888508439064026 -2.4020309448242188
6.217391014099121 0.7952876091003418 -2.4020309448242188
6.199984073638916 0.9212055802345276 -2.4020309448242188
6.132490158081055 1.2965492010116577 -2.4020309448242188
6.104935169219971 1.4206520318984985 -2.4020309448242188
6.074866771697998 1.544171929359436 -2.4020309448242188
6.042299747467041 1.6670551300048828 -2.4020309448242188
5.797064304351807 -0.915965735912323 -2.4020309448242188
5.814449310302734 -0.7982714772224426 -2.4020309448242188
5.829443454742432 -0.6801864504814148 -2.4020309448242188
5.852231502532959 -0.44322723150253296 -2.4020309448242188
5.865390300750732 -0.20553892850875854 -2.4020309448242188
5.868901252746582 0.03248687833547592 -2.4020309448242188
5.867035865783691 0.15150557458400726 -2.4020309448242188
5.862754821777344 0.2704603374004364 -2.4020309448242188
5.846965312957764 0.5079877972602844 -2.4020309448242188
5.835460186004639 0.6264625191688538 -2.4020309448242188
5.821555137634277 0.7446802854537964 -2.4020309448242188
5.805254936218262 0.8625925779342651 -2.4020309448242188
5.742059230804443 1.2140690088272095 -2.4020309448242188
5.716257095336914 1.3302055597305298 -2.4020309448242188
5.68810510635376 1.4458613395690918 -2.4020309448242188
5.657613277435303 1.5609211921691895 -2.4020309448242188
5.444013595581055 -0.8602389097213745 -2.4020309448242188
5.503132343292236 -0.30466750264167786 -2.4020309448242188
5.508179664611816 -0.19300659000873566 -2.4020309448242188
5.511476993560791 0.030507659539580345 -2.4020309448242188
5.509722709655762 0.14232254028320312 -2.4020309448242188
5.505702972412109 0.2539832890033722 -2.4020309448242188
5.499421119689941 0.36556777358055115 -2.4020309448242188
5.490876197814941 0.4770762622356415 -2.4020309448242188
5.451706409454346 0.8100593090057373 -2.4020309448242188
5.414371013641357 1.0304744243621826 -2.4020309448242188
5.368128776550293 1.2491939067840576 -2.4020309448242188
5.341691970825195 1.3578062057495117 -2.4020309448242188
5.313055515289307 1.4658589363098145 -2.4020309448242188
5.125665187835693 -0.8099355697631836 -2.4020309448242188
5.174443244934082 -0.3918934464454651 -2.4020309448242188
5.181325435638428 -0.2868727147579193 -2.4020309448242188
5.186079025268555 -0.1817338466644287 -2.4020309448242188
5.188698768615723 -0.07652053982019424 -2.4020309448242188
5.159613132476807 0.5539079308509827 -2.4020309448242188
5.132907390594482 0.7626893520355225 -2.4020309448242188
5.116383075714111 0.8666303753852844 -2.4020309448242188
5.097754955291748 0.9702146649360657 -2.4020309448242188
5.077031135559082 1.0734003782272339 -2.4020309448242188
5.02932596206665 1.2784059047698975 -2.4020309448242188
5.002364158630371 1.3801419734954834 -2.4020309448242188
4.863875389099121 -0.5675230026245117 -2.4020309448242188
4.889384746551514 -0.2707308828830719 -2.4020309448242188
4.896798133850098 0.02707870490849018 -2.4020309448242188
4.886087417602539 0.3248274028301239 -2.4020309448242188
4.878496170043945 0.42390182614326477 -2.4020309448242188
4.843695163726807 0.7197160124778748 -2.4020309448242188
4.769437313079834 1.109877109527588 -2.4020309448242188
4.587131023406982 -0.629770815372467 -2.4020309448242188
4.616937160491943 -0.3496696352958679 -2.4020309448242188
4.623078346252441 -0.25596389174461365 -2.4020309448242188
4.629655838012695 -0.06827560067176819 -2.4020309448242188
4.62861442565918 0.11952590942382812 -2.4020309448242188
4.625239372253418 0.21337172389030457 -2.4020309448242188
4.619962215423584 0.30712997913360596 -2.4020309448242188
4.603707313537598 0.494229257106781 -2.4020309448242188
4.592735290527344 0.5874925255775452 -2.4020309448242188
4.530020713806152 0.9577519297599792 -2.4020309448242188
4.509666442871094 1.0494272708892822 -2.4020309448242188
4.487454891204834 1.140673041343689 -2.4020309448242188
4.331892013549805 -0.6845065355300903 -2.4020309448242188
4.365501403808594 -0.4198194742202759 -2.4020309448242188
4.382951736450195 -0.1535845845937729 -2.4020309448242188
4.385573863983154 0.024278564378619194 -2.4020309448242188
4.375982761383057 0.2909165918827057 -2.4020309448242188
4.360584735870361 0.46813520789146423 -2.4020309448242188
4.350193977355957 0.5564701557159424 -2.4020309448242188
4.3380126953125 0.6445832848548889 -2.4020309448242188
4.32404899597168 0.7324284315109253 -2.4020309448242188
4.271510124206543 0.9940043687820435 -2.4020309448242188
4.250472545623779 1.080429196357727 -2.4020309448242188
4.109451770782471 -0.6493600606918335 -2.4020309448242188
4.132404804229736 -0.4821760356426239 -2.4020309448242188
4.141331672668457 -0.3982659876346588 -2.4020309448242188
4.154077053070068 -0.22999876737594604 -2.4020309448242188
4.157887935638428 -0.14570708572864532 -2.4020309448242188
4.160376071929932 0.023029327392578125 -2.4020309448242188
4.15601921081543 0.19172713160514832 -2.4020309448242188
4.15127420425415 0.27597060799598694 -2.4020309448242188
4.144825458526611 0.36010757088661194 -2.4020309448242188
4.13667106628418 0.44408583641052246 -2.4020309448242188
4.032210826873779 1.0249500274658203 -2.4020309448242188
