ply
format ascii 1.0
element vertex 842
property float x
property float y
property float z
end_header
34.35434341430664 10.06342887878418 -0.20154936611652374
34.35435104370117 11.582063674926758 -0.2041180431842804
34.35435485839844 12.356620788574219 -0.2055528163909912
34.3543586730957 13.142457008361816 -0.20709228515625
31.652578353881836 15.126252174377441 -0.1975138783454895
31.157489776611328 19.81439971923828 -0.20789077877998352
31.157489776611328 20.705678939819336 -0.21062606573104858
31.157493591308594 21.62110137939453 -0.21352188289165497
31.157493591308594 22.56241798400879 -0.21658706665039062
30.50557518005371 28.269733428955078 -0.23416228592395782
30.50557518005371 29.4315185546875 -0.23865631222724915
30.50557518005371 30.63933563232422 -0.24342742562294006
32.26601028442383 38.09135818481445 -0.2810632288455963
30.97249984741211 38.09135818481445 -0.2764105200767517
3.8314733505249023 48.07369613647461 -0.2715223729610443
1.222725749015808 20.551044464111328 -0.11591064184904099
-16.811426162719727 33.65159225463867 -0.21179336309432983
-17.582162857055664 33.49271011352539 -0.21297438442707062
-17.8371639251709 23.74571990966797 -0.1672099232673645
-17.837162017822266 22.77733612060547 -0.16288360953330994
-17.837158203125 20.981769561767578 -0.15504959225654602
-17.837160110473633 20.14657974243164 -0.15149840712547302
-17.837160110473633 19.348480224609375 -0.14816421270370483
-17.837158203125 18.58445930480957 -0.1450306624174118
-18.024150848388672 16.64362907409668 -0.13812728226184845
-18.417442321777344 16.333229064941406 -0.13859954476356506
-19.071258544921875 16.239952087402344 -0.14102935791015625
-19.916357040405273 15.623078346252441 -0.142516627907753
32.38992691040039 -14.414770126342773 -0.9982684254646301
32.38992691040039 -13.641413688659668 -0.9896216988563538
35.55322265625 -14.139033317565918 -1.0773584842681885
38.987831115722656 -13.716920852661133 -1.1637722253799438
41.22276306152344 -13.578275680541992 -1.2220872640609741
42.858680725097656 9.793197631835938 -1.237909197807312
39.8044319152832 9.941354751586914 -1.155232548713684
34.35434341430664 10.063427925109863 -1.0079902410507202
34.35434341430664 10.817934036254883 -1.0141674280166626
34.35435104370117 11.582062721252441 -1.0208364725112915
31.004119873046875 12.580999374389648 -0.9421442747116089
34.354366302490234 14.75163745880127 -1.0527513027191162
33.36042785644531 15.12624740600586 -1.0314055681228638
30.48918342590332 15.330676078796387 -0.9609266519546509
31.157480239868164 17.269601821899414 -1.0030754804611206
31.15748405456543 18.09781265258789 -1.0145859718322754
31.15748405456543 18.945619583129883 -1.02678382396698
31.157489776611328 20.705671310424805 -1.0533839464187622
31.157493591308594 21.621089935302734 -1.0678666830062866
31.157493591308594 22.562416076660156 -1.0831966400146484
31.15750503540039 24.53059959411621 -1.1166043281555176
31.157508850097656 26.627580642700195 -1.1540623903274536
31.4769287109375 29.169891357421875 -1.2083845138549805
31.018680572509766 31.154691696166992 -1.2379074096679688
32.26601028442383 38.09135818481445 -1.4056473970413208
6.1473388671875 9.338772773742676 -0.31481489539146423
5.991451263427734 9.513023376464844 -0.31656354665756226
4.520151138305664 32.11115264892578 -0.9130921959877014
3.182706117630005 31.837236404418945 -0.900933027267456
0.616809070110321 32.093772888183594 -0.9038550853729248
-0.028330078348517418 31.90093994140625 -0.8982585072517395
-0.6685424447059631 31.840375900268555 -0.8967506289482117
-1.9436352252960205 31.71699333190918 -0.8947538733482361
-2.60113525390625 31.920095443725586 -0.9017775058746338
-3.2248449325561523 31.689594268798828 -0.8969160318374634
-3.908099889755249 32.001861572265625 -0.9077949523925781
-4.533977031707764 31.79967498779297 -0.9044630527496338
-5.858304500579834 31.861839294433594 -0.9121968150138855
-6.553178787231445 32.00876998901367 -0.919990062713623
-7.162509441375732 31.72516441345215 -0.9157930016517639
-12.076626777648926 31.815685272216797 -0.9582252502441406
-13.537859916687012 31.755001068115234 -0.972015380859375
-15.192575454711914 32.0048828125 -0.9975662231445312
-15.913431167602539 31.85413932800293 -1.0026371479034424
-16.785924911499023 31.975963592529297 -1.0168931484222412
-17.529592514038086 31.821256637573242 -1.0229742527008057
-18.40447425842285 31.875802993774414 -1.0364152193069458
-20.207704544067383 31.959020614624023 -1.0646955966949463
-23.021162033081055 31.96549415588379 -1.1092029809951782
-17.8371639251709 23.745737075805664 -0.836253821849823
-17.837162017822266 22.77734375 -0.8146165013313293
-17.837158203125 19.348480224609375 -0.7409976124763489
-17.837158203125 18.58445930480957 -0.725326657295227
-18.024147033691406 16.643632888793945 -0.6908015012741089
-19.071258544921875 16.239952087402344 -0.7053207159042358
32.38992691040039 -14.414769172668457 -1.7979567050933838
35.553218841552734 -14.139033317565918 -1.9404042959213257
38.987831115722656 -13.716919898986816 -2.0960428714752197
43.11058044433594 -10.448344230651855 -2.249630928039551
46.24639892578125 -10.228506088256836 -2.4020309448242188
46.44265365600586 -9.296706199645996 -2.4020309448242188
46.91859817504883 -6.48029088973999 -2.4020309448242188
47.141170501708984 -4.588958740234375 -2.4020309448242188
47.223915100097656 -3.640305757522583 -2.4020309448242188
47.28754806518555 -2.690197706222534 -2.4020309448242188
47.33207321166992 -1.7389886379241943 -2.4020309448242188
47.35747146606445 -0.7870898246765137 -2.4020309448242188
47.36371994018555 0.165139302611351 -2.4020309448242188
47.350830078125 1.1172895431518555 -2.4020309448242188
47.31879806518555 2.068988561630249 -2.4020309448242188
43.922035217285156 6.378839015960693 -2.2508432865142822
43.69121551513672 8.150718688964844 -2.253995418548584
43.50734329223633 9.025116920471191 -2.2534162998199463
34.354339599609375 9.317758560180664 -1.8052014112472534
34.35434341430664 10.06342887878418 -1.8154674768447876
34.35434341430664 10.817934036254883 -1.8265936374664307
34.35435104370117 11.58206558227539 -1.8386045694351196
31.6525821685791 15.126252174377441 -1.7791178226470947
30.489179611206055 15.330669403076172 -1.7307019233703613
30.48918342590332 16.106597900390625 -1.7487329244613647
31.15748405456543 18.097814559936523 -1.827346920967102
31.15748405456543 18.94562530517578 -1.849316954612732
31.157489776611328 19.81439971923828 -1.8725860118865967
31.157489776611328 20.70567512512207 -1.8972246646881104
31.157493591308594 21.621103286743164 -1.9233088493347168
31.157499313354492 23.531558990478516 -1.9801464080810547
31.157499313354492 24.530597686767578 -2.0110881328582764
30.50557518005371 28.26973533630371 -2.1092309951782227
30.50557518005371 29.431520462036133 -2.1497139930725098
30.50557518005371 30.63933563232422 -2.192687749862671
30.6715087890625 32.07044982910156 -2.250511407852173
29.351728439331055 33.27091979980469 -2.2500669956207275
28.67399787902832 33.85085678100586 -2.2498390674591064
31.39962387084961 38.61665344238281 -2.524115562438965
25.129613876342773 36.5539436340332 -2.2496156692504883
6.147339820861816 9.338772773742676 -0.5670070052146912
23.60986328125 41.059661865234375 -2.4020156860351562
22.779470443725586 41.52790069580078 -2.4020156860351562
21.940229415893555 41.97510528564453 -2.4020156860351562
21.091903686523438 42.407958984375 -2.4020156860351562
20.235042572021484 42.82363510131836 -2.4020156860351562
18.49720001220703 43.60246658325195 -2.4020156860351562
17.616901397705078 43.965492248535156 -2.4020156860351562
14.934711456298828 44.94749450683594 -2.4020156860351562
14.02806568145752 45.23863220214844 -2.4020156860351562
12.198161125183105 45.76597595214844 -2.4020156860351562
11.275629997253418 46.00197982788086 -2.4020156860351562
10.348539352416992 46.21937942504883 -2.4020156860351562
8.8197603225708 43.47307586669922 -2.2496156692504883
7.944018363952637 43.6414680480957 -2.2496156692504883
7.065047264099121 43.79238510131836 -2.2496156692504883
4.534668922424316 32.214229583740234 -1.6498279571533203
3.8420372009277344 31.932401657104492 -1.6311086416244507
3.1898584365844727 31.90879249572754 -1.6262967586517334
1.2221105098724365 20.54069709777832 -1.0435487031936646
0.6180676221847534 32.1600341796875 -1.631273865699768
-0.6667870879173279 31.757125854492188 -1.6108932495117188
-3.2361767292022705 31.80099105834961 -1.6210933923721313
-5.2133588790893555 31.953500747680664 -1.6419252157211304
-6.547435760498047 31.980690002441406 -1.655518889427185
-7.168427467346191 31.7513484954834 -1.6507760286331177
-13.764595985412598 41.18119430541992 -2.2020480632781982
-11.439554214477539 32.0660400390625 -1.7265911102294922
-12.093143463134766 31.859195709228516 -1.7281980514526367
-12.889273643493652 32.0021858215332 -1.7496591806411743
-13.543877601623535 31.76910400390625 -1.7514513731002808
-14.360788345336914 31.89225959777832 -1.773801326751709
-20.319835662841797 32.136356353759766 -1.9282360076904297
-17.837160110473633 21.85744857788086 -1.4307464361190796
-17.837162017822266 20.146570205688477 -1.3646275997161865
-17.837158203125 18.58445930480957 -1.3063689470291138
-18.024145126342773 16.643632888793945 -1.2441856861114502
-18.41744613647461 16.333229064941406 -1.2484132051467896
-19.07126235961914 16.23995018005371 -1.270336389541626
-19.91635513305664 15.623075485229492 -1.283724308013916
28.030799865722656 -12.474797248840332 -2.249624013900757
28.275970458984375 -11.908780097961426 -2.2496278285980225
28.50967788696289 -11.337836265563965 -2.2496297359466553
29.72774314880371 -10.458984375 -2.3106706142425537
31.315214157104492 -9.621455192565918 -2.4020309448242188
31.676673889160156 -8.354829788208008 -2.4020309448242188
31.8382568359375 -7.716300964355469 -2.4020309448242188
32.12269973754883 -6.430198669433594 -2.4020309448242188
32.355224609375 -5.133687496185303 -2.4020309448242188
32.4518928527832 -4.482180595397949 -2.4020309448242188
32.53544235229492 -3.8288731575012207 -2.4020309448242188
32.60585021972656 -3.1740167140960693 -2.4020309448242188
32.750850677490234 0.7727891206741333 -2.4020309448242188
32.50795364379883 4.0556464195251465 -2.4020309448242188
32.41986846923828 4.708365440368652 -2.4020309448242188
30.05611801147461 6.234807014465332 -2.250694751739502
29.668075561523438 8.046724319458008 -2.2539193630218506
29.490848541259766 8.638760566711426 -2.2531957626342773
29.073505401611328 9.801701545715332 -2.2496187686920166
28.19210433959961 12.105583190917969 -2.2496163845062256
27.943037033081055 12.669899940490723 -2.2496156692504883
27.41112518310547 13.782951354980469 -2.2496156692504883
26.530452728271484 15.410212516784668 -2.2496156692504883
25.8895263671875 16.464271545410156 -2.2496156692504883
25.553300857543945 16.981416702270508 -2.2496156692504883
25.206750869750977 17.49169921875 -2.2496156692504883
24.818058013916016 18.743724822998047 -2.280380964279175
24.811256408691406 19.53414535522461 -2.3153798580169678
24.804073333740234 20.34939193725586 -2.3524184226989746
24.796478271484375 21.19136619567871 -2.391627311706543
24.471263885498047 21.7797794342041 -2.4020156860351562
24.02846908569336 22.267333984375 -2.4020156860351562
23.11391258239746 23.215267181396484 -2.4020156860351562
22.642526626586914 23.67525863647461 -2.4020156860351562
22.16200065612793 24.12566566467285 -2.4020156860351562
21.672510147094727 24.56632423400879 -2.4020156860351562
21.174245834350586 24.99704360961914 -2.4020156860351562
20.152252197265625 25.82806396484375 -2.4020156860351562
19.62894058227539 26.22797393798828 -2.4020156860351562
18.55873680114746 26.995840072631836 -2.4020156860351562
6.1473388671875 9.338772773742676 -0.819773256778717
5.991451263427734 9.513023376464844 -0.8243272304534912
16.897716522216797 28.065439224243164 -2.4020156860351562
16.330062866210938 28.39952278137207 -2.4020156860351562
15.175211906433105 29.03299903869629 -2.4020156860351562
14.588479042053223 29.33220100402832 -2.4020156860351562
11.571168899536133 30.648168563842773 -2.4020156860351562
10.329794883728027 31.088537216186523 -2.4020156860351562
9.702712059020996 31.2899227142334 -2.4020156860351562
7.304135799407959 29.799150466918945 -2.2496156692504883
6.098647117614746 30.060497283935547 -2.2490031719207764
3.12060546875 22.168710708618164 -1.6414822340011597
2.481060743331909 24.81855010986328 -1.8288192749023438
1.2218017578125 20.535512924194336 -1.5083705186843872
0.5770800709724426 30.02696418762207 -2.2020480632781982
-3.040503978729248 29.878202438354492 -2.2020480632781982
-3.6405529975891113 29.8110408782959 -2.2020480632781982
-4.239138126373291 29.7318172454834 -2.2020480632781982
-4.835987567901611 29.64058494567871 -2.2020480632781982
-5.430902481079102 29.537370681762695 -2.2020480632781982
-6.613889217376709 29.29517936706543 -2.2020480632781982
-7.2014994621276855 29.156295776367188 -2.2020480632781982
-7.786222457885742 29.00562858581543 -2.2020480632781982
-8.367751121520996 28.843236923217773 -2.2020480632781982
-8.953421592712402 28.693178176879883 -2.2038912773132324
-10.235194206237793 28.690141677856445 -2.2334790229797363
-11.93733024597168 28.00071144104004 -2.231861114501953
-12.494885444641113 27.748476028442383 -2.2313311100006104
-13.047136306762695 27.485204696655273 -2.2308061122894287
-13.593892097473145 27.211008071899414 -2.2302865982055664
-15.199019432067871 26.324079513549805 -2.2287607192993164
-15.721644401550293 26.007404327392578 -2.2282638549804688
-16.747100830078125 25.34328842163086 -2.2272889614105225
-17.837162017822266 22.77733039855957 -2.1212425231933594
-17.837160110473633 21.857450485229492 -2.0685582160949707
-17.837158203125 20.981769561767578 -2.019221544265747
-17.837162017822266 20.14657974243164 -1.9729641675949097
-17.837158203125 18.584457397460938 -1.888734221458435
-17.837156295776367 17.851791381835938 -1.8503504991531372
-17.837156295776367 17.148048400878906 -1.8142155408859253
-18.024147033691406 16.643632888793945 -1.7988306283950806
-18.417448043823242 16.333229064941406 -1.8049376010894775
-19.491605758666992 15.933119773864746 -1.8458917140960693
22.858251571655273 -10.172805786132812 -2.402017831802368
23.42988395690918 -8.776442527770996 -2.402017593383789
23.60158920288086 -8.30363941192627 -2.40201735496521
23.76374626159668 -7.827488422393799 -2.40201735496521
23.916330337524414 -7.348175525665283 -2.40201735496521
24.0591983795166 -6.865877628326416 -2.40201735496521
24.19236183166504 -6.380810260772705 -2.40201735496521
24.31574821472168 -5.893160820007324 -2.40201735496521
24.626771926879883 -4.416719436645508 -2.40201735496521
24.71061134338379 -3.9207396507263184 -2.402017116546631
24.784414291381836 -3.4231653213500977 -2.402017116546631
24.901994705200195 -2.4240846633911133 -2.402017116546631
24.97930908203125 -1.4210779666900635 -2.402017116546631
25.016244888305664 -0.4157748222351074 -2.402017116546631
25.019542694091797 0.08723342418670654 -2.402017116546631
24.995817184448242 1.0929279327392578 -2.40201735496521
24.96879005432129 1.5952210426330566 -2.40201735496521
24.931703567504883 2.0968663692474365 -2.40201735496521
24.884489059448242 2.5976574420928955 -2.40201735496521
24.827228546142578 3.09740948677063 -2.40201735496521
24.68265151977539 4.092948913574219 -2.40201735496521
24.59540557861328 4.588340759277344 -2.40201735496521
24.391042709350586 5.573345184326172 -2.4020166397094727
24.14727783203125 6.549346923828125 -2.4020166397094727
23.708574295043945 7.992996692657471 -2.4020159244537354
22.786745071411133 10.331936836242676 -2.4020156860351562
22.574426651000977 10.787947654724121 -2.4020156860351562
22.122533798217773 11.686724662780762 -2.4020156860351562
21.88309097290039 12.129101753234863 -2.4020156860351562
20.837980270385742 13.847857475280762 -2.4020156860351562
20.555376052856445 14.263978004455566 -2.4020156860351562
20.264469146728516 14.674327850341797 -2.4020156860351562
19.020126342773438 16.25482940673828 -2.4020156860351562
18.351318359375 17.006290435791016 -2.4020156860351562
16.925859451293945 18.425561904907227 -2.4020156860351562
16.551992416381836 18.7620849609375 -2.4020156860351562
16.171445846557617 19.0910587310791 -2.4020156860351562
15.784369468688965 19.412317276000977 -2.4020156860351562
15.39093017578125 19.725719451904297 -2.4020156860351562
14.585527420043945 20.32847785949707 -2.4020156860351562
12.471820831298828 21.689603805541992 -2.4020156860351562
12.03323745727539 21.935941696166992 -2.4020156860351562
9.771074295043945 23.032821655273438 -2.4020156860351562
8.715620040893555 21.751068115234375 -2.2496156692504883
7.834191799163818 22.08384895324707 -2.2496156692504883
7.388654708862305 22.236879348754883 -2.2496156692504883
6.940113544464111 22.380922317504883 -2.2496156692504883
6.488057613372803 22.51348114013672 -2.249370574951172
5.575650691986084 22.74734878540039 -2.2485034465789795
4.654885292053223 22.94413948059082 -2.2476284503936768
3.1206066608428955 19.3428955078125 -1.881051778793335
2.895352602005005 20.568546295166016 -1.9941520690917969
2.4812657833099365 20.622596740722656 -1.9941520690917969
2.0661706924438477 20.668312072753906 -1.9941520690917969
1.6502416133880615 20.705692291259766 -1.9941520690917969
-0.6877905130386353 16.72555923461914 -1.6070934534072876
-1.4057934284210205 17.25132942199707 -1.6617019176483154
-2.3631553649902344 23.2221622467041 -2.2409586906433105
-2.82897686958313 23.165407180786133 -2.240515947341919
-3.2934789657592773 23.099281311035156 -2.240074396133423
-3.7564384937286377 23.023876190185547 -2.2396342754364014
-4.217734336853027 22.939210891723633 -2.2391960620880127
-4.677134990692139 22.84532356262207 -2.2387592792510986
-5.589556694030762 22.63007354736328 -2.2378921508789062
-6.042219161987305 22.50879669189453 -2.237461805343628
-6.492262363433838 22.37852668762207 -2.2370338439941406
-6.939525127410889 22.23923110961914 -2.2366087436676025
-7.824957847595215 21.934038162231445 -2.235767364501953
-8.697136878967285 21.593734741210938 -2.234938383102417
-9.554691314697266 21.218917846679688 -2.2341229915618896
-10.810587882995605 20.5933780670166 -2.232929229736328
-11.625658988952637 20.135160446166992 -2.232154607772827
-12.02606201171875 19.89400291442871 -2.231773853302002
-12.811777114868164 19.38799285888672 -2.2310268878936768
-13.576370239257812 18.85115623474121 -2.230299949645996
-13.950366020202637 18.571435928344727 -2.2299444675445557
-14.318669319152832 18.284372329711914 -2.2295944690704346
-15.037497520446777 17.688539505004883 -2.2289109230041504
-15.387763023376465 17.38005828857422 -2.2285778522491455
-16.069374084472656 16.74257469177246 -2.2279319763183594
-16.400442123413086 16.413846969604492 -2.227618455886841
-17.65665054321289 15.035284042358398 -2.226435899734497
-17.95302391052246 14.675430297851562 -2.22615647315979
-18.242172241210938 14.30979061126709 -2.2258827686309814
18.474489212036133 -8.221861839294434 -2.402019500732422
18.936491012573242 -7.093297004699707 -2.4020192623138428
19.20633316040039 -6.326333045959473 -2.4020192623138428
19.55274772644043 -5.157099723815918 -2.4020190238952637
19.903837203979492 -3.569683074951172 -2.4020190238952637
19.971582412719727 -3.168818712234497 -2.4020190238952637
20.03125 -2.7666680812835693 -2.4020190238952637
20.082826614379883 -2.3634097576141357 -2.4020190238952637
20.126277923583984 -1.9591931104660034 -2.4020190238952637
20.188772201538086 -1.148543119430542 -2.4020190238952637
20.207780838012695 -0.7424374222755432 -2.4020190238952637
20.218624114990234 -0.336037278175354 -2.4020190238952637
20.202117919921875 0.883326530456543 -2.402019500732422
20.180267333984375 1.2892893552780151 -2.4020187854766846
20.150272369384766 1.6947263479232788 -2.4020187854766846
20.06585693359375 2.503387212753296 -2.4020187854766846
19.878463745117188 3.708383083343506 -2.4020187854766846
19.799894332885742 4.107268810272217 -2.4020187854766846
19.61878204345703 4.8998894691467285 -2.4020190238952637
19.405954360961914 5.684590816497803 -2.4020190238952637
19.161752700805664 6.46010160446167 -2.4020190238952637
19.028005599975586 6.844021320343018 -2.4020190238952637
18.886573791503906 7.22516393661499 -2.4020183086395264
18.580846786499023 7.978549480438232 -2.402017831802368
18.41668701171875 8.35047435760498 -2.402017593383789
18.24509048461914 8.719034194946289 -2.402017593383789
18.066112518310547 9.084067344665527 -2.40201735496521
17.879846572875977 9.44543170928955 -2.40201735496521
16.613248825073242 11.528422355651855 -2.4020156860351562
16.378131866455078 11.860074996948242 -2.4020156860351562
16.136390686035156 12.186939239501953 -2.4020156860351562
15.633444786071777 12.82575798034668 -2.4020156860351562
15.372431755065918 13.137462615966797 -2.4020156860351562
15.105209350585938 13.443853378295898 -2.4020156860351562
14.831879615783691 13.744810104370117 -2.4020156860351562
13.377631187438965 15.163885116577148 -2.4020156860351562
12.757230758666992 15.689409255981445 -2.4020156860351562
12.439237594604492 15.942708015441895 -2.4020156860351562
6.147339820861816 9.338772773742676 -1.3280788660049438
10.079960823059082 17.52994728088379 -2.4020156860351562
8.433595657348633 16.956937789916992 -2.2496156692504883
8.090995788574219 17.12305450439453 -2.2496156692504883
7.044126987457275 17.579626083374023 -2.2496156692504883
6.689123153686523 17.717254638671875 -2.2495596408843994
4.873579978942871 18.285070419311523 -2.2478346824645996
4.133296012878418 18.460424423217773 -2.247131109237671
3.7607421875 18.536869049072266 -2.246777057647705
2.712453603744507 16.813030242919922 -2.0229742527008057
2.366701602935791 16.813030242919922 -2.0168402194976807
2.0229077339172363 16.813030242919922 -2.011554479598999
1.3399975299835205 16.813030242919922 -2.003483772277832
0.9962829351425171 16.745140075683594 -1.992604374885559
-0.3512622117996216 16.729473114013672 -1.9876632690429688
-1.3700757026672363 16.813030242919922 -2.003770351409912
-1.9103221893310547 18.772184371948242 -2.241387367248535
-2.286961555480957 18.72699737548828 -2.2410292625427246
-2.662567138671875 18.674257278442383 -2.2406723499298096
-3.0369627475738525 18.61400032043457 -2.24031662940979
-3.7815916538238525 18.47103500366211 -2.2396087646484375
-4.151498794555664 18.388391494750977 -2.2392570972442627
-4.885829925537109 18.200963973999023 -2.2385592460632324
-5.611814022064209 17.984298706054688 -2.2378692626953125
-5.971319675445557 17.865116119384766 -2.237527370452881
-6.328306674957275 17.738767623901367 -2.2371881008148193
-6.682643890380859 17.60530662536621 -2.236851215362549
-7.034167289733887 17.464799880981445 -2.2365171909332275
-7.382751941680908 17.317293167114258 -2.2361857891082764
-8.745000839233398 16.65858268737793 -2.234890937805176
-9.076835632324219 16.47708511352539 -2.2345759868621826
-9.729146957397461 16.09442138671875 -2.233957290649414
-10.049408912658691 15.893420219421387 -2.2336535453796387
-7.400752544403076 8.358954429626465 -1.326169729232788
-12.731045722961426 13.809748649597168 -2.2311174869537354
-13.27292537689209 13.2837495803833 -2.230604648590088
-8.804122924804688 8.46399974822998 -1.4507031440734863
-13.793097496032715 12.736681938171387 -2.230119228363037
-10.404485702514648 8.859841346740723 -1.6232911348342896
-10.80487060546875 8.47572135925293 -1.6312332153320312
15.7527437210083 -6.264653205871582 -2.4020204544067383
15.99184799194336 -5.626340866088867 -2.4020204544067383
16.101722717285156 -5.303711891174316 -2.4020204544067383
16.20509147644043 -4.978938579559326 -2.4020204544067383
16.301910400390625 -4.65214729309082 -2.4020204544067383
16.392141342163086 -4.323478698730469 -2.4020204544067383
16.68648338317871 -2.9926598072052 -2.4020204544067383
16.836532592773438 -1.9813811779022217 -2.4020204544067383
16.872968673706055 -1.64249849319458 -2.4020204544067383
16.90258026123047 -1.3029546737670898 -2.4020204544067383
16.925355911254883 -0.9628865122795105 -2.4020204544067383
16.941295623779297 -0.6224254965782166 -2.4020204544067383
16.95038604736328 -0.281717985868454 -2.4020204544067383
16.936542510986328 0.7405409216880798 -2.4020204544067383
16.91823387145996 1.0808820724487305 -2.4020204544067383
16.776723861694336 2.4364991188049316 -2.4020204544067383
16.724346160888672 2.7732818126678467 -2.4020204544067383
16.665212631225586 3.1089415550231934 -2.4020204544067383
16.526763916015625 3.776362180709839 -2.4020204544067383
16.361600875854492 4.437676429748535 -2.4020206928253174
16.269079208374023 4.765705585479736 -2.4020206928253174
16.169986724853516 5.0918097496032715 -2.4020206928253174
16.064350128173828 5.415858268737793 -2.4020206928253174
15.952228546142578 5.7377190589904785 -2.4020209312438965
15.833654403686523 6.057255268096924 -2.4020209312438965
15.708681106567383 6.3743438720703125 -2.4020209312438965
15.577360153198242 6.688860893249512 -2.4020209312438965
15.439738273620605 7.000670433044434 -2.4020209312438965
15.145827293395996 7.6156744956970215 -2.4020192623138428
14.989655494689941 7.918623924255371 -2.4020190238952637
14.48507308959961 8.807793617248535 -2.4020187854766846
14.305075645446777 9.09721565246582 -2.4020187854766846
14.119250297546387 9.382946968078613 -2.4020168781280518
13.73071002960205 9.942947387695312 -2.4020156860351562
13.527999877929688 10.216975212097168 -2.4020156860351562
13.31988525390625 10.486869812011719 -2.4020156860351562
12.200214385986328 11.770665168762207 -2.4020156860351562
11.717175483703613 12.25159740447998 -2.4020156860351562
10.957355499267578 12.935616493225098 -2.4020156860351562
10.695082664489746 13.153290748596191 -2.4020156860351562
10.42849063873291 13.365641593933105 -2.4020156860351562
10.157690048217773 13.572588920593262 -2.4020156860351562
9.88277530670166 13.774049758911133 -2.4020156860351562
9.603872299194336 13.969948768615723 -2.4020156860351562
6.147339820861816 9.338772773742676 -1.584149956703186
5.991451263427734 9.51302433013916 -1.5929501056671143
7.07034158706665 14.215923309326172 -2.2496156692504883
6.783124923706055 14.355191230773926 -2.2496156692504883
5.605334281921387 14.846538543701172 -2.2485296726226807
5.002718448638916 15.056018829345703 -2.2479562759399414
4.698367595672607 15.151602745056152 -2.247666835784912
4.392242431640625 15.241023063659668 -2.247375965118408
3.1520214080810547 15.536458015441895 -2.24619722366333
2.208890438079834 15.69194221496582 -2.2453010082244873
1.5758776664733887 15.76383113861084 -2.244699478149414
0.9406591653823853 15.810182571411133 -2.244095802307129
0.3042529225349426 15.830952644348145 -2.2434909343719482
-0.01406249962747097 15.831730842590332 -2.2431883811950684
-0.33229491114616394 15.826115608215332 -2.2428860664367676
-0.967974841594696 15.795706748962402 -2.242281675338745
-4.4029130935668945 15.176568031311035 -2.2390220165252686
-5.3076887130737305 14.877874374389648 -2.2381653785705566
-5.899960994720459 14.64880657196045 -2.2376034259796143
-6.192484378814697 14.525435447692871 -2.23732590675354
-6.769725799560547 14.26126766204834 -2.2367782592773438
-7.054225921630859 14.120579719543457 -2.2365081310272217
-4.3875932693481445 8.358053207397461 -1.337504506111145
-7.889810562133789 13.66483211517334 -2.235715389251709
-8.430816650390625 13.333559036254883 -2.2352023124694824
-8.696167945861816 13.159893035888672 -2.2349510192871094
-9.470539093017578 12.607672691345215 -2.2342240810394287
-9.721065521240234 12.413419723510742 -2.2339894771575928
-9.967620849609375 12.214218139648438 -2.233757495880127
-7.178553104400635 8.444106101989746 -1.570353388786316
-7.400752544403076 8.358954429626465 -1.5818746089935303
-8.13013744354248 8.47076416015625 -1.6635857820510864
-8.464426040649414 8.471383094787598 -1.6967912912368774
-11.574320793151855 10.687981605529785 -2.232234239578247
-11.794891357421875 10.460097312927246 -2.233720302581787
-10.391292572021484 8.848608016967773 -1.9338256120681763
-12.495217323303223 9.801685333251953 -2.250157117843628
13.321115493774414 -5.928412914276123 -2.402021646499634
13.548551559448242 -5.388238430023193 -2.402022361755371
13.848822593688965 -4.561633586883545 -2.402022123336792
13.937731742858887 -4.282299995422363 -2.402022123336792
14.098608016967773 -3.718549966812134 -2.402022123336792
14.2366943359375 -3.148789405822754 -2.402021884918213
14.35176944732666 -2.573932647705078 -2.402021884918213
14.400609970092773 -2.2848904132843018 -2.402021646499634
14.557211875915527 -0.828163743019104 -2.402021646499634
14.578740119934082 -0.24230360984802246 -2.402021646499634
14.580663681030273 0.05083785951137543 -2.402021646499634
14.5668306350708 0.6369258165359497 -2.402021646499634
14.529455184936523 1.2219916582107544 -2.402021646499634
14.501953125 1.5138376951217651 -2.402021646499634
14.468585968017578 1.8050763607025146 -2.402021646499634
14.429374694824219 2.095590591430664 -2.402021646499634
14.384330749511719 2.3852505683898926 -2.402021646499634
14.276813507080078 2.961566686630249 -2.402021646499634
14.072333335876465 3.81676983833313 -2.402021646499634
13.99276065826416 4.098903179168701 -2.402021884918213
13.9075288772583 4.3793792724609375 -2.402021884918213
13.81667709350586 4.658088684082031 -2.402021884918213
13.618256568908691 5.209743022918701 -2.402022123336792
13.279459953308105 6.021158218383789 -2.402022123336792
12.752839088439941 7.0684943199157715 -2.402022361755371
12.14377212524414 8.070128440856934 -2.402020215988159
11.979074478149414 8.312630653381348 -2.40201997756958
11.63522720336914 8.787446975708008 -2.402017831802368
11.45620059967041 9.019577026367188 -2.4020166397094727
11.272523880004883 9.24806022644043 -2.4020161628723145
11.084352493286133 9.472823143005371 -2.4020156860351562
10.891676902770996 9.693746566772461 -2.4020156860351562
10.49319076538086 10.123745918273926 -2.4020156860351562
10.287565231323242 10.332658767700195 -2.4020156860351562
9.86386489868164 10.737849235534668 -2.4020156860351562
8.615041732788086 10.595147132873535 -2.2496156692504883
8.400290489196777 10.766201972961426 -2.2496156692504883
8.18215274810791 10.932900428771973 -2.2496156692504883
7.043663024902344 11.698832511901855 -2.2496156692504883
5.581915378570557 12.455336570739746 -2.2485134601593018
5.329829216003418 12.563698768615723 -2.2482736110687256
5.075643062591553 12.666939735412598 -2.2480313777923584
2.980674982070923 8.40223217010498 -1.4686921834945679
4.30143928527832 12.945613861083984 -2.2472949028015137
3.7767174243927 13.105159759521484 -2.246796131134033
3.246121644973755 13.243413925170898 -2.2462921142578125
2.7104992866516113 13.360174179077148 -2.2457830905914307
1.5214037895202637 8.357996940612793 -1.3995144367218018
2.1707446575164795 13.455262184143066 -2.245270252227783
1.6277258396148682 13.52854061126709 -2.2447545528411865
0.8090002536773682 13.597346305847168 -2.2439768314361572
-0.007432861253619194 8.376072883605957 -1.3798675537109375
-0.5593420267105103 13.60200309753418 -2.2426772117614746
-1.6494725942611694 13.506875038146973 -2.2416422367095947
-1.9204626083374023 13.469436645507812 -2.241384744644165
-1.364172339439392 8.36126708984375 -1.3956403732299805
-2.727958917617798 13.324621200561523 -2.2406182289123535
-2.9949371814727783 13.265585899353027 -2.2403650283813477
-3.26065731048584 13.20120906829834 -2.240112543106079
-4.049131870269775 12.976322174072266 -2.2393648624420166
-2.81467342376709 8.421016693115234 -1.4627118110656738
-2.985325336456299 8.368135452270508 -1.4636571407318115
-4.822370529174805 12.704506874084473 -2.2386350631713867
-4.2281413078308105 8.463530540466309 -1.5585802793502808
-4.3875932693481445 8.358053207397461 -1.5550888776779175
-6.552000045776367 11.893768310546875 -2.2370009422302246
-6.789107322692871 11.758465766906738 -2.23677659034729
-7.483351230621338 11.324519157409668 -2.2361204624176025
-5.815772533416748 8.427602767944336 -1.686848521232605
-8.150248527526855 10.849781036376953 -2.2354891300201416
-8.58332633972168 10.517536163330078 -2.23637318611145
-8.815995216369629 10.369956016540527 -2.2422332763671875
-7.400752544403076 8.358954429626465 -1.8392057418823242
-10.04111385345459 9.272038459777832 -2.251537322998047
-10.227468490600586 9.070060729980469 -2.251972198486328
-10.37804889678955 8.837329864501953 -2.2455496788024902
-10.540043830871582 8.615798950195312 -2.2426600456237793
-10.762076377868652 8.442140579223633 -2.253328561782837
11.675373077392578 -5.195991516113281 -2.4020233154296875
11.7774658203125 -4.9602203369140625 -2.4020233154296875
11.874804496765137 -4.722445487976074 -2.4020230770111084
12.05504322052002 -4.241267681121826 -2.4020230770111084
12.137873649597168 -3.9980621337890625 -2.4020228385925293
12.21579360961914 -3.753244161605835 -2.4020228385925293
12.288779258728027 -3.506899833679199 -2.4020228385925293
12.356799125671387 -3.259141206741333 -2.4020228385925293
12.41982364654541 -3.0100624561309814 -2.4020228385925293
12.578679084777832 -2.255939483642578 -2.40202260017395
12.659198760986328 -1.748460054397583 -2.40202260017395
12.758745193481445 -0.7258492708206177 -2.40202260017395
12.770758628845215 -0.4691995084285736 -2.40202260017395
12.77581787109375 0.3014588952064514 -2.40202260017395
12.753374099731445 0.8147935271263123 -2.40202260017395
12.734418869018555 1.0710209608078003 -2.40202260017395
12.646698951721191 1.8366907835006714 -2.40202260017395
12.607221603393555 2.0905673503875732 -2.40202260017395
12.512988090515137 2.59567928314209 -2.40202260017395
12.398527145385742 3.096597194671631 -2.40202260017395
12.189323425292969 3.8383312225341797 -2.4020228385925293
12.109697341918945 4.082606792449951 -2.4020228385925293
11.935792922973633 4.56610631942749 -2.4020228385925293
11.530405044555664 5.51019287109375 -2.4020230770111084
11.299582481384277 5.9692583084106445 -2.4020230770111084
11.177287101745605 6.195217132568359 -2.4020233154296875
11.050480842590332 6.418671131134033 -2.4020233154296875
10.919203758239746 6.639534950256348 -2.4020233154296875
10.783522605895996 6.85770845413208 -2.4020233154296875
10.499125480651855 7.285653114318848 -2.4020228385925293
10.350534439086914 7.495246410369873 -2.4020214080810547
10.040863990783691 7.905267238616943 -2.4020209312438965
9.373334884643555 8.686332702636719 -2.4020168781280518
7.91790246963501 8.975119590759277 -2.249617099761963
6.977190971374512 9.724431991577148 -2.2496161460876465
6.780296325683594 9.862727165222168 -2.2496161460876465
6.147342205047607 9.33877182006836 -2.101487159729004
5.991451263427734 9.513023376464844 -2.113161563873291
6.176315784454346 10.25825023651123 -2.250657320022583
5.328197956085205 10.712909698486328 -2.248903512954712
5.109776496887207 10.81386947631836 -2.248075008392334
4.447392463684082 11.099102973937988 -2.2474446296691895
3.156404972076416 8.360250473022461 -1.679665207862854
2.980674982070923 8.402231216430664 -1.6757196187973022
2.613694906234741 8.42879867553711 -1.6587049961090088
3.0776476860046387 11.546939849853516 -2.2461421489715576
2.3753013610839844 11.707979202270508 -2.2454745769500732
1.5214037895202637 8.357996940612793 -1.596790075302124
1.426512360572815 11.856202125549316 -2.2445731163024902
0.7090258598327637 11.917011260986328 -2.243891954421997
-0.17754149436950684 8.456021308898926 -1.5897506475448608
-0.7297619581222534 11.908477783203125 -2.2425265312194824
-0.9689196348190308 11.890199661254883 -2.2422995567321777
-1.2076390981674194 11.867114067077637 -2.2420730590820312
-1.032845377922058 8.45760726928711 -1.6015074253082275
-1.683380126953125 11.806599617004395 -2.24162220954895
-1.3641735315322876 8.361266136169434 -1.5923699140548706
-2.1562023162841797 11.727042198181152 -2.24117374420166
-1.7317919731140137 8.458902359008789 -1.6229195594787598
-3.0900909900665283 11.51137638092041 -2.240288734436035
-3.5496490001678467 11.375641822814941 -2.2398533821105957
-3.6076953411102295 8.462380409240723 -1.7291091680526733
-4.889988422393799 10.859658241271973 -2.238584041595459
-5.321701526641846 10.652280807495117 -2.238158941268921
-4.3875932693481445 8.358053207397461 -1.7742972373962402
-5.758575916290283 10.453584671020508 -2.243274450302124
-6.397289276123047 10.117460250854492 -2.2499489784240723
-6.600187301635742 9.988019943237305 -2.250221014022827
-5.815772533416748 8.427602767944336 -1.9246304035186768
-6.998132705688477 9.717095375061035 -2.2507925033569336
-7.400752544403076 8.358954429626465 -2.0984675884246826
-8.300366401672363 8.648115158081055 -2.2530696392059326
-8.473898887634277 8.480854034423828 -2.2534282207489014
-8.64200210571289 8.30813980102539 -2.253253698348999
-8.805489540100098 8.131061553955078 -2.252793550491333
10.472626686096191 -4.410676002502441 -2.4020237922668457
10.641469955444336 -3.9861199855804443 -2.4020237922668457
10.793105125427246 -3.55511474609375 -2.4020237922668457
10.862397193908691 -3.337416410446167 -2.4020235538482666
10.927294731140137 -3.1183669567108154 -2.4020235538482666
11.0953950881958 -2.4540154933929443 -2.4020233154296875
11.25667667388916 -1.554742455482483 -2.4020233154296875
11.345192909240723 -0.645428478717804 -2.4020233154296875
11.355874061584473 -0.4172145128250122 -2.4020233154296875
11.361967086791992 -0.1888386458158493 -2.4020233154296875
11.363466262817383 0.03961990401148796 -2.4020233154296875
11.276123046875 1.4067929983139038 -2.4020233154296875
11.245561599731445 1.6332032680511475 -2.4020233154296875
11.078012466430664 2.531322717666626 -2.4020233154296875
11.024882316589355 2.753518581390381 -2.4020233154296875
10.967297554016113 2.9746062755584717 -2.4020233154296875
10.905282974243164 3.1944873332977295 -2.4020233154296875
10.838857650756836 3.4130778312683105 -2.4020233154296875
10.768049240112305 3.6302897930145264 -2.4020233154296875
10.441617965698242 4.4835920333862305 -2.4020235538482666
10.252942085266113 4.899713039398193 -2.4020237922668457
10.152365684509277 5.104846477508545 -2.4020237922668457
10.047687530517578 5.307915687561035 -2.4020237922668457
9.938944816589355 5.508843421936035 -2.4020237922668457
9.335922241210938 6.478470325469971 -2.402024269104004
9.20379638671875 6.664846420288086 -2.402024269104004
9.067949295043945 6.848526954650879 -2.402024269104004
8.92844009399414 7.02944278717041 -2.402024269104004
8.785314559936523 7.207517623901367 -2.402024269104004
8.33486270904541 7.723973751068115 -2.4020211696624756
8.177900314331055 7.889969348907471 -2.4020204544067383
8.017626762390137 8.05278205871582 -2.4020204544067383
7.374755859375 7.711116790771484 -2.2554168701171875
7.040683269500732 7.980790615081787 -2.2496249675750732
6.878825664520264 8.120712280273438 -2.2496252059936523
6.20421838760376 8.647083282470703 -2.2496259212493896
5.851601600646973 8.88949966430664 -2.249626636505127
5.489521503448486 9.11755084991455 -2.249626874923706
5.305109977722168 9.226058006286621 -2.2496256828308105
5.12534761428833 9.343232154846191 -2.2526116371154785
4.744621276855469 9.539730072021484 -2.2521426677703857
2.980674982070923 8.402231216430664 -1.8845065832138062
3.357518196105957 10.104782104492188 -2.250770330429077
2.5342442989349365 10.339138984680176 -2.250180959701538
2.116330623626709 10.431546211242676 -2.249940872192383
1.5214061737060547 8.35799503326416 -1.7957428693771362
1.4835021495819092 10.538784980773926 -2.249650478363037
1.0578625202178955 10.582587242126465 -2.248096227645874
-0.007432861253619194 8.376072883605957 -1.7705330848693848
-0.4362207055091858 10.609803199768066 -2.2445945739746094
-0.8626757860183716 10.585637092590332 -2.2450084686279297
-1.0754809379577637 10.568181991577148 -2.245438814163208
-1.5003026723861694 10.522695541381836 -2.2467808723449707
-1.364174723625183 8.361266136169434 -1.790771722793579
-1.9235399961471558 10.463448524475098 -2.248835325241089
-2.134167432785034 10.425949096679688 -2.2495460510253906
-2.3438329696655273 10.381582260131836 -2.249689817428589
-2.7595129013061523 10.279851913452148 -2.249882698059082
-2.965751886367798 10.222797393798828 -2.249993085861206
-2.81467342376709 8.421016693115234 -1.8768279552459717
-3.9779233932495117 9.876585006713867 -2.2506825923919678
-4.1759843826293945 9.795336723327637 -2.250847578048706
-4.567093849182129 9.621073722839355 -2.251204252243042
-4.760010242462158 9.528121948242188 -2.2513959407806396
-5.140103816986084 9.330766677856445 -2.251804828643799
-5.327166557312012 9.226432800292969 -2.2520222663879395
-5.5121283531188965 9.118387222290039 -2.2522478103637695
-5.694919109344482 9.006665229797363 -2.2524821758270264
-6.402941703796387 8.523918151855469 -2.2535006999969482
-6.573482036590576 8.394073486328125 -2.253661870956421
-6.9034037590026855 8.120444297790527 -2.252943277359009
-7.064072608947754 7.978707313537598 -2.2525722980499268
-7.3765997886657715 7.685671329498291 -2.2518067359924316
-7.6769022941589355 7.380317687988281 -2.251011371612549
-7.822307586669922 7.223176956176758 -2.250602960586548
-8.10333251953125 6.900317192077637 -2.249765157699585
-8.240144729614258 6.735787391662598 -2.2496910095214844
9.707331657409668 -3.197479724884033 -2.402024269104004
9.828022003173828 -2.804663896560669 -2.402024269104004
9.932819366455078 -2.407317638397217 -2.402024030685425
9.97921085357666 -2.2071444988250732 -2.402024030685425
10.0598726272583 -1.8042017221450806 -2.402024030685425
10.094106674194336 -1.6015973091125488 -2.402024030685425
10.150331497192383 -1.1945230960845947 -2.4020237922668457
10.218964576721191 -0.16984176635742188 -2.4020237922668457
10.220316886901855 0.035634610801935196 -2.4020237922668457
10.217534065246582 0.24109236896038055 -2.4020237922668457
10.210622787475586 0.44645369052886963 -2.4020237922668457
10.165141105651855 1.0611258745193481 -2.4020237922668457
10.114270210266113 1.4689044952392578 -2.4020237922668457
10.082695007324219 1.6719419956207275 -2.4020237922668457
10.007333755493164 2.07590913772583 -2.4020237922668457
9.963579177856445 2.2766754627227783 -2.4020237922668457
9.864001274108887 2.6753649711608887 -2.402024030685425
9.748483657836914 3.06972599029541 -2.402024030685425
9.684797286987305 3.265087842941284 -2.402024030685425
9.617199897766113 3.4591288566589355 -2.402024030685425
9.545717239379883 3.6517698764801025 -2.402024030685425
9.221506118774414 4.406806468963623 -2.402024269104004
9.03689956665039 4.773946285247803 -2.402024269104004
8.939099311828613 4.954661846160889 -2.402024269104004
8.837685585021973 5.133368968963623 -2.402024507522583
8.512182235717773 5.6567606925964355 -2.402024745941162
8.277902603149414 5.99437141418457 -2.402024745941162
8.15572452545166 6.159572601318359 -2.402024745941162
7.496401309967041 6.946969509124756 -2.402027130126953
7.211082458496094 7.242701053619385 -2.4020273685455322
6.332411766052246 7.177945613861084 -2.2496302127838135
5.888216495513916 7.546611785888672 -2.2496306896209717
5.735310077667236 7.663463115692139 -2.249630928039551
5.580087661743164 7.777214050292969 -2.249630928039551
5.422614574432373 7.887819766998291 -2.249630928039551
4.93728494644165 8.200345039367676 -2.249630928039551
4.603642463684082 8.392191886901855 -2.249630928039551
4.43560791015625 8.486136436462402 -2.2504494190216064
4.271262168884277 8.587979316711426 -2.254225730895996
3.9218969345092773 8.751216888427734 -2.253833532333374
3.744865655899048 8.827568054199219 -2.2536487579345703
3.5663647651672363 8.900372505187988 -2.253471851348877
3.1564037799835205 8.360248565673828 -2.100224018096924
2.83904767036438 9.155552864074707 -2.2528440952301025
2.4684154987335205 9.261188507080078 -2.2525784969329834
2.281611204147339 9.308443069458008 -2.252457857131958
2.0939111709594727 9.351964950561523 -2.2523458003997803
1.5261815786361694 9.45997142791748 -2.252058744430542
1.3356456756591797 9.488411903381348 -2.2519798278808594
1.144588589668274 9.513046264648438 -2.2519094944000244
0.7612035870552063 9.55087947845459 -2.25179386138916
0.37663573026657104 9.57341194152832 -2.2517125606536865
-0.007434081751853228 8.37607479095459 -1.9685697555541992
-0.7781359553337097 9.548995971679688 -2.2516729831695557
-1.1614000797271729 9.51023006439209 -2.251728057861328
-1.3523839712142944 9.48513126373291 -2.2517685890197754
-2.110217332839966 9.346856117248535 -2.2520151138305664
-2.297785520553589 9.302887916564941 -2.2520980834960938
-2.6701207160949707 9.203778266906738 -2.252288579940796
-2.814673900604248 8.421015739440918 -2.0867574214935303
-2.985325336456299 8.36813735961914 -2.088106393814087
-3.401594877243042 8.961441040039062 -2.2527694702148438
-3.581282377243042 8.891802787780762 -2.2529098987579346
-3.936368227005005 8.74183464050293 -2.2532155513763428
-4.111611843109131 8.661566734313965 -2.253380060195923
-4.457184314727783 8.490607261657715 -2.2537331581115723
-4.627223014831543 8.399746894836426 -2.253856658935547
-5.2845330238342285 7.997067928314209 -2.2527835369110107
-5.6002702713012695 7.77615213394165 -2.2521989345550537
-5.754708290100098 7.660959243774414 -2.2518951892852783
-5.906745433807373 7.542674541473389 -2.2515838146209717
-6.056326866149902 7.421353816986084 -2.251264810562134
-6.4897894859313965 7.0396599769592285 -2.25026535987854
-6.76581335067749 6.7713775634765625 -2.2496984004974365
-6.90048885345459 6.633915901184082 -2.2496719360351562
-7.032392501831055 6.493768215179443 -2.249645233154297
-7.342632293701172 6.252614498138428 -2.2666079998016357
8.687678337097168 -3.2542598247528076 -2.402024745941162
8.751338005065918 -3.0789458751678467 -2.402024745941162
8.92101764678955 -2.5458319187164307 -2.402024745941162
8.970399856567383 -2.3659677505493164 -2.402024507522583
9.016152381896973 -2.185154914855957 -2.402024507522583
9.058257102966309 -2.003450632095337 -2.402024507522583
9.096701622009277 -1.8209389448165894 -2.402024507522583
9.162553787231445 -1.4537866115570068 -2.402024507522583
9.189924240112305 -1.2692853212356567 -2.402024507522583
9.249724388122559 -0.713016927242279 -2.402024269104004
9.262189865112305 -0.5269222855567932 -2.402024269104004
9.277112007141113 0.03234649449586868 -2.402024269104004
9.274589538574219 0.21884536743164062 -2.402024269104004
9.268310546875 0.40525496006011963 -2.402024269104004
9.258296012878418 0.5915018916130066 -2.402024269104004
9.24453353881836 0.7775053381919861 -2.402024269104004
9.227028846740723 0.9631974697113037 -2.402024269104004
9.180849075317383 1.333343267440796 -2.402024269104004
9.119833946228027 1.7013300657272339 -2.402024269104004
9.083786010742188 1.8843305110931396 -2.402024269104004
9.04406452178955 2.066566228866577 -2.402024269104004
9.00069522857666 2.2479684352874756 -2.402024507522583
8.903056144714355 2.6079742908477783 -2.402024507522583
8.848817825317383 2.7864298820495605 -2.402024507522583
8.79101276397705 2.9637627601623535 -2.402024507522583
8.524518966674805 3.66039776802063 -2.402024745941162
8.449203491210938 3.8310277462005615 -2.402024745941162
8.370478630065918 4.000115871429443 -2.402024745941162
8.022077560424805 4.65963077545166 -2.402024745941162
7.828278541564941 4.9783453941345215 -2.402024984359741
7.513969421386719 5.441173076629639 -2.402027130126953
7.289167404174805 5.73883056640625 -2.4020285606384277
7.172321796417236 5.8842082023620605 -2.402028799057007
7.052576541900635 6.02721643447876 -2.402029275894165
6.929982662200928 6.167783260345459 -2.4020297527313232
6.676445007324219 6.441384315490723 -2.4020304679870605
6.545598030090332 6.574299335479736 -2.4020304679870605
6.412109375 6.704567909240723 -2.4020304679870605
5.748012542724609 6.515512466430664 -2.249630928039551
5.481440544128418 6.741318702697754 -2.249630928039551
5.344811916351318 6.850154399871826 -2.249630928039551
5.206017971038818 6.956221580505371 -2.249630928039551
5.065120697021484 7.059471130371094 -2.249630928039551
4.331089973449707 7.532148838043213 -2.249630928039551
3.074784994125366 8.144079208374023 -2.2539291381835938
2.9106175899505615 8.204751014709473 -2.2540664672851562
