ply
format ascii 1.0
element vertex 276
property float x
property float y
property float z
end_header
-47.352630615234375 1.037437915802002 -2.4020309448242188
-47.356658935546875 -0.8335416913032532 -2.4020309448242188
-47.33095932006836 -1.7686991691589355 -2.4020309448242188
-47.28680419921875 -2.703164577484131 -2.4020309448242188
-47.04372024536133 -5.498799800872803 -2.4020309448242188
-46.789886474609375 -7.352427959442139 -2.4020309448242188
-46.63555145263672 -8.275139808654785 -2.4020309448242188
-43.89200210571289 -9.59035873413086 -2.2784669399261475
-43.14309310913086 -10.323559761047363 -2.2497384548187256
-42.93388748168945 -11.17446231842041 -2.249901056289673
-42.62725830078125 -11.998675346374512 -2.2458677291870117
-41.280120849609375 -12.504203796386719 -2.1874284744262695
-41.37793731689453 -13.431623458862305 -2.2062416076660156
-41.14106369018555 -14.2588472366333 -2.2081985473632812
-40.85298156738281 -15.069218635559082 -2.2082831859588623
-40.549259185791016 -15.873867988586426 -2.2083849906921387
-40.22999572753906 -16.672534942626953 -2.2085039615631104
-32.75210952758789 0.7175483703613281 -2.4020309448242188
-32.75489044189453 -0.5765319466590881 -2.4020309448242188
-32.70656967163086 -1.8696808815002441 -2.4020309448242188
-32.538448333740234 -3.8033287525177 -2.4020309448242188
-32.36285400390625 -5.085396766662598 -2.4020309448242188
-32.256072998046875 -5.723606586456299 -2.4020309448242188
-31.703739166259766 -8.251574516296387 -2.4020309448242188
-31.534574508666992 -8.876113891601562 -2.4020309448242188
-28.99032211303711 -10.047590255737305 -2.2496790885925293
-28.787614822387695 -10.61874008178711 -2.2497880458831787
-28.578598022460938 -11.187691688537598 -2.2502858638763428
-25.00242042541504 -0.934309184551239 -2.4020309448242188
-24.97905921936035 -1.4279356002807617 -2.4020309448242188
-24.946014404296875 -1.9210201501846313 -2.4020309448242188
-24.90317726135254 -2.413327217102051 -2.4020309448242188
-24.850683212280273 -2.904728412628174 -2.4020309448242188
-24.78846549987793 -3.3949689865112305 -2.4020309448242188
-24.716556549072266 -3.8838887214660645 -2.4020309448242188
-24.443193435668945 -5.340811729431152 -2.4020309448242188
-24.08400535583496 -6.778982162475586 -2.4020309448242188
-23.298202514648438 -9.120597839355469 -2.4020309448242188
-23.113550186157227 -9.578961372375488 -2.4020309448242188
-20.218379974365234 -0.35586822032928467 -2.4020309448242188
-20.2074031829834 -0.755117654800415 -2.4020309448242188
-20.127227783203125 -1.9504972696304321 -2.4020309448242188
-20.084775924682617 -2.347654104232788 -2.4020309448242188
-19.976329803466797 -3.1390459537506104 -2.4020309448242188
-19.836833953857422 -3.9255211353302 -2.4020309448242188
-19.755435943603516 -4.316543102264404 -2.4020309448242188
-19.66632652282715 -4.705885410308838 -2.4020309448242188
-19.569543838500977 -5.093392848968506 -2.4020309448242188
-19.465255737304688 -5.478910446166992 -2.4020309448242188
-19.106508255004883 -6.622016429901123 -2.4020309448242188
-18.971988677978516 -6.998101234436035 -2.4020309448242188
-18.830076217651367 -7.3714280128479 -2.4020309448242188
-16.952770233154297 0.0364907830953598 -2.4020309448242188
-16.940977096557617 -0.6330633163452148 -2.4020309448242188
-16.87375259399414 -1.6352081298828125 -2.4020309448242188
-16.838163375854492 -1.968166470527649 -2.4020309448242188
-16.747299194335938 -2.631617307662964 -2.4020309448242188
-16.562057495117188 -3.618793487548828 -2.4020309448242188
-16.487354278564453 -3.9452006816864014 -2.4020309448242188
-16.224782943725586 -4.914665222167969 -2.4020309448242188
-16.018171310424805 -5.551609992980957 -2.4020309448242188
-15.905253410339355 -5.866889953613281 -2.4020309448242188
-15.78628158569336 -6.17987060546875 -2.4020309448242188
-14.577311515808105 0.31936630606651306 -2.4020309448242188
-14.580777168273926 0.03138794004917145 -2.4020309448242188
-14.557045936584473 -0.8321577310562134 -2.4020309448242188
-14.537769317626953 -1.1195114850997925 -2.4020309448242188
-14.512823104858398 -1.40641450881958 -2.4020309448242188
-14.482219696044922 -1.6927860975265503 -2.4020309448242188
-14.445963859558105 -1.9784846305847168 -2.4020309448242188
-14.356548309326172 -2.547464609146118 -2.4020309448242188
-14.303433418273926 -2.8305139541625977 -2.4020309448242188
-14.244738578796387 -3.112461805343628 -2.4020309448242188
-14.180487632751465 -3.3931984901428223 -2.4020309448242188
-14.035417556762695 -3.9505815505981445 -2.4020309448242188
-13.954654693603516 -4.227017879486084 -2.4020309448242188
-13.868443489074707 -4.501809120178223 -2.4020309448242188
-13.679831504821777 -5.0460100173950195 -2.4020309448242188
-13.576272964477539 -5.315087795257568 -2.4020309448242188
-12.776363372802734 0.27990829944610596 -2.4020309448242188
-12.770503997802734 -0.47721755504608154 -2.4020309448242188
-12.758597373962402 -0.72934889793396 -2.4020309448242188
-12.741703033447266 -0.9812017679214478 -2.4020309448242188
-12.71983528137207 -1.232658863067627 -2.4020309448242188
-12.693011283874512 -1.483651041984558 -2.4020309448242188
-12.62452220916748 -1.98377525806427 -2.4020309448242188
-12.582868576049805 -2.2327377796173096 -2.4020309448242188
-12.536321640014648 -2.480818510055542 -2.4020309448242188
-12.484869003295898 -2.7279319763183594 -2.4020309448242188
-12.42855453491211 -2.973985195159912 -2.4020309448242188
-12.367399215698242 -3.2188799381256104 -2.4020309448242188
-12.230619430541992 -3.7047903537750244 -2.4020309448242188
-11.353713035583496 0.47323042154312134 -2.4020309448242188
-11.360848426818848 0.2488984614610672 -2.4020309448242188
-11.355648040771484 -0.42434629797935486 -2.4020309448242188
-11.33002758026123 -0.8724924921989441 -2.4020309448242188
-11.28673267364502 -1.31927490234375 -2.4020309448242188
-11.258501052856445 -1.541933536529541 -2.4020309448242188
-11.051583290100098 -2.64449405670166 -2.4020309448242188
-10.938521385192871 -3.0788915157318115 -2.4020309448242188
-10.875580787658691 -3.29433274269104 -2.4020309448242188
-10.808390617370605 -3.508492946624756 -2.4020309448242188
-10.661397933959961 -3.932615280151367 -2.4020309448242188
-10.581649780273438 -4.142410755157471 -2.4020309448242188
-10.49777603149414 -4.350597381591797 -2.4020309448242188
-10.21154499053955 0.4256232976913452 -2.4020309448242188
-10.220346450805664 0.022006988525390625 -2.4020309448242188
-10.218829154968262 -0.17986586689949036 -2.4020309448242188
-10.213278770446777 -0.3816572427749634 -2.4020309448242188
-10.203749656677246 -0.5833002924919128 -2.4020309448242188
-10.190242767333984 -0.7847214937210083 -2.4020309448242188
-10.096539497375488 -1.5865347385406494 -2.4020309448242188
-9.939803123474121 -2.37846040725708 -2.4020309448242188
-9.78150749206543 -2.962925910949707 -2.4020309448242188
-9.721080780029297 -3.1555399894714355 -2.4020309448242188
-9.6568603515625 -3.3469161987304688 -2.4020309448242188
-9.588871002197266 -3.5369977951049805 -2.4020309448242188
-9.517143249511719 -3.7256879806518555 -2.4020309448242188
-9.277168273925781 0.019971312955021858 -2.4020309448242188
-9.270729064941406 -0.34643569588661194 -2.4020309448242188
-9.249815940856934 -0.7123017907142639 -2.4020309448242188
-9.233940124511719 -0.894846498966217 -2.4020309448242188
-9.191396713256836 -1.25883150100708 -2.4020309448242188
-9.100733757019043 -1.8009448051452637 -2.4020309448242188
-9.06336784362793 -1.980336308479309 -2.4020309448242188
-8.978096961975098 -2.3367390632629395 -2.4020309448242188
-8.570351600646973 -3.5518155097961426 -2.4020309448242188
-8.484930992126465 0.018265685066580772 -2.4020309448242188
-8.47904109954834 -0.316850870847702 -2.4020309448242188
-8.471121788024902 -0.4842541515827179 -2.4020309448242188
-8.459905624389648 -0.6514727473258972 -2.4020309448242188
-8.445388793945312 -0.8184289336204529 -2.4020309448242188
-8.42758560180664 -0.9850773215293884 -2.4020309448242188
-8.406484603881836 -1.1513317823410034 -2.4020309448242188
-8.289384841918945 -1.8112221956253052 -2.4020309448242188
-8.251996994018555 -1.9745904207229614 -2.4020309448242188
-8.120580673217773 -2.4598138332366943 -2.4020309448242188
-8.017094612121582 -2.7786014080047607 -2.4020309448242188
-7.838481903076172 -3.2485058307647705 -2.4020309448242188
-7.802714824676514 0.3252220153808594 -2.4020309448242188
-7.809470176696777 0.01681167632341385 -2.4020309448242188
-7.714822769165039 -1.2122830152511597 -2.4020309448242188
-7.689375400543213 -1.3644235134124756 -2.4020309448242188
-7.5950775146484375 -1.8173989057540894 -2.4020309448242188
-7.427947998046875 -2.4111714363098145 -2.4020309448242188
-7.32692813873291 -2.702643871307373 -2.4020309448242188
-7.272120952606201 -2.8468241691589355 -2.4020309448242188
-7.219936370849609 0.30093154311180115 -2.4020309448242188
-7.2244696617126465 0.15827743709087372 -2.4020309448242188
-7.2250871658325195 -0.1271716207265854 -2.4020309448242188
-7.214427471160889 -0.4124148488044739 -2.4020309448242188
-7.204874515533447 -0.5548267960548401 -2.4020309448242188
-7.192511558532715 -0.6970147490501404 -2.4020309448242188
-7.177340507507324 -0.8389396667480469 -2.4020309448242188
-7.115061283111572 -1.262515902519226 -2.4020309448242188
-7.088738441467285 -1.4027938842773438 -2.4020309448242188
-7.05975341796875 -1.5425260066986084 -2.4020309448242188
-6.915884971618652 -2.094897508621216 -2.4020309448242188
-6.779683589935303 -2.5007874965667725 -2.4020309448242188
-6.728971481323242 -2.6341986656188965 -2.4020309448242188
-6.715343475341797 0.14712265133857727 -2.4020309448242188
-6.716936111450195 0.014459838159382343 -2.4020309448242188
-6.715914249420166 -0.11820968240499496 -2.4020309448242188
-6.712268352508545 -0.25082916021347046 -2.4020309448242188
-6.685632228851318 -0.6478937864303589 -2.4020309448242188
-6.671535015106201 -0.7798173427581787 -2.4020309448242188
-6.589175701141357 -1.3039356470108032 -2.4020309448242188
-6.562134742736816 -1.4338200092315674 -2.4020309448242188
-6.532534599304199 -1.5631471872329712 -2.4020309448242188
-6.500387191772461 -1.6918648481369019 -2.4020309448242188
-6.465705394744873 -1.8199175596237183 -2.4020309448242188
-6.428506851196289 -1.9472637176513672 -2.4020309448242188
-6.388786315917969 -2.0738513469696045 -2.4020309448242188
-6.346580505371094 -2.1996257305145264 -2.4020309448242188
-6.254761695861816 -2.448556661605835 -2.4020309448242188
-6.205180644989014 -2.57161545753479 -2.4020309448242188
-6.26261568069458 0.2610292136669159 -2.4020309448242188
-6.266550064086914 0.13729019463062286 -2.4020309448242188
-6.268040180206299 0.013493041507899761 -2.4020309448242188
-6.263682842254639 -0.23406600952148438 -2.4020309448242188
-6.257837295532227 -0.3577311635017395 -2.4020309448242188
-6.2256693840026855 -0.7277012467384338 -2.4020309448242188
-6.2100830078125 -0.8505178689956665 -2.4020309448242188
-6.192070960998535 -0.9730023145675659 -2.4020309448242188
-6.1716461181640625 -1.0951135158538818 -2.4020309448242188
-6.123581409454346 -1.337996482849121 -2.4020309448242188
-5.998878002166748 -1.8171263933181763 -2.4020309448242188
-5.922436237335205 -2.0526225566864014 -2.4020309448242188
-5.836750507354736 -2.2849197387695312 -2.4020309448242188
-5.79048490524292 -2.3997528553009033 -2.4020309448242188
-5.86390495300293 0.24441024661064148 -2.4020309448242188
-5.867586135864258 0.12854933738708496 -2.4020309448242188
-5.868977069854736 0.012632903642952442 -2.4020309448242188
-5.864899158477783 -0.21916426718235016 -2.4020309448242188
-5.859426021575928 -0.3349559009075165 -2.4020309448242188
-5.829304218292236 -0.68137127161026 -2.4020309448242188
-5.679768085479736 -1.478280782699585 -2.4020309448242188
-5.616954803466797 -1.7014375925064087 -2.4020309448242188
-5.582252025604248 -1.812045693397522 -2.4020309448242188
-5.545375823974609 -1.9219409227371216 -2.4020309448242188
-5.465147972106934 -2.139446496963501 -2.4020309448242188
-5.506783485412598 0.2295255959033966 -2.4020309448242188
-5.511552810668945 0.011864318512380123 -2.4020309448242188
-5.510708332061768 -0.09699615091085434 -2.4020309448242188
-5.495291233062744 -0.423176109790802 -2.4020309448242188
-5.4605865478515625 -0.7478687763214111 -2.4020309448242188
-5.426790237426758 -0.9629443287849426 -2.4020309448242188
-5.3602399826049805 -1.28263258934021 -2.4020309448242188
-5.333860397338867 -1.3882509469985962 -2.4020309448242188
-5.274874210357666 -1.5978171825408936 -2.4020309448242188
-5.132319450378418 -2.009150981903076 -2.4020309448242188
-5.1884613037109375 -0.09132415801286697 -2.4020309448242188
-5.1808037757873535 -0.2961622476577759 -2.4020309448242188
-5.173942565917969 -0.3984301686286926 -2.4020309448242188
-5.154172897338867 -0.60245680809021 -2.4020309448242188
-5.126358985900879 -0.8055396676063538 -2.4020309448242188
-5.10944938659668 -0.9066346287727356 -2.4020309448242188
-5.090547561645508 -1.0073710680007935 -2.4020309448242188
-5.069658279418945 -1.1077152490615845 -2.4020309448242188
-5.046789646148682 -1.2076281309127808 -2.4020309448242188
-4.9951581954956055 -1.4059988260269165 -2.4020309448242188
-4.903128147125244 -1.6993473768234253 -2.4020309448242188
-4.832161903381348 -1.8916621208190918 -2.4020309448242188
-4.793880939483643 -1.9867324829101562 -2.4020309448242188
-4.892622947692871 0.20392806828022003 -2.4020309448242188
-4.895697116851807 0.10725753754377365 -2.4020309448242188
-4.896862030029297 0.010541534051299095 -2.4020309448242188
-4.896114826202393 -0.08617828041315079 -2.4020309448242188
-4.893457412719727 -0.18286223709583282 -2.4020309448242188
-4.888892650604248 -0.2794750928878784 -2.4020309448242188
-4.837515354156494 -0.7601515054702759 -2.4020309448242188
-4.82155704498291 -0.8555500507354736 -2.4020309448242188
-4.7840070724487305 -1.0453006029129028 -2.4020309448242188
-4.73898983001709 -1.2334234714508057 -2.4020309448242188
-4.7137064933776855 -1.3267781734466553 -2.4020309448242188
-4.686582565307617 -1.4196174144744873 -2.4020309448242188
-4.65762996673584 -1.511904001235962 -2.4020309448242188
-4.523759841918945 -1.8747903108596802 -2.4020309448242188
-4.626147747039795 0.19282028079032898 -2.4020309448242188
-4.630148887634277 0.009967498481273651 -2.4020309448242188
-4.629443645477295 -0.08148467540740967 -2.4020309448242188
-4.622613430023193 -0.2642529308795929 -2.4020309448242188
-4.616492748260498 -0.35550275444984436 -2.4020309448242188
-4.587337017059326 -0.6282703876495361 -2.4020309448242188
-4.503036975860596 -1.0775154829025269 -2.4020309448242188
-4.480876922607422 -1.1662436723709106 -2.4020309448242188
-4.45697021484375 -1.2545136213302612 -2.4020309448242188
-4.4313225746154785 -1.3422943353652954 -2.4020309448242188
-4.403946399688721 -1.4295575618743896 -2.4020309448242188
-4.344052791595459 -1.602368712425232 -2.4020309448242188
-4.311558723449707 -1.6878505945205688 -2.4020309448242188
-4.277413845062256 -1.7726773023605347 -2.4020309448242188
-4.381837844848633 0.18263748288154602 -2.4020309448242188
-4.3849616050720215 -0.07718154788017273 -2.4020309448242188
-4.36519193649292 -0.4230239689350128 -2.4020309448242188
-4.332479953765869 -0.6807920932769775 -2.4020309448242188
-4.318187713623047 -0.7662308812141418 -2.4020309448242188
-4.284557342529297 -0.9361712336540222 -2.4020309448242188
-4.244241714477539 -1.1046545505523682 -2.4020309448242188
-4.221597671508789 -1.188262939453125 -2.4020309448242188
-4.143818378448486 -1.4361823797225952 -2.4020309448242188
-4.083865642547607 -1.598714828491211 -2.4020309448242188
-4.051515579223633 -1.6790624856948853 -2.4020309448242188
-2.2240147590637207 0.09269851446151733 -1.2851499319076538
-2.211080312728882 0.0047602844424545765 -1.2765710353851318
-2.216928720474243 -0.039020996540784836 -1.2801417112350464
-2.222928524017334 -0.08306808024644852 -1.2843036651611328
-4.096451282501221 -0.726885199546814 -2.4020309448242188
-4.081296920776367 -0.8076496720314026 -2.4020309448242188
-4.064547061920166 -0.8880993723869324 -2.4020309448242188
-4.026302814483643 -1.04793119430542 -2.4020309448242188
-3.981775999069214 -1.2061234712600708 -2.4020309448242188
-3.957178831100464 -1.284531831741333 -2.4020309448242188
-3.931034564971924 -1.362434983253479 -2.4020309448242188
-3.874162435531616 -1.5166230201721191 -2.4020309448242188
-3.8434526920318604 -1.592843770980835 -2.4020309448242188
