ply
format ascii 1.0
element vertex 260
property float x
property float y
property float z
end_header
-41.83871841430664 8.483814239501953 -2.165009021759033
-43.64927673339844 7.9329833984375 -2.249903440475464
-43.79787063598633 7.045645713806152 -2.2497336864471436
-47.133689880371094 4.6653594970703125 -2.4020309448242188
-47.218597412109375 3.708611249923706 -2.4020309448242188
-47.330116271972656 1.790880799293518 -2.4020309448242188
-47.19755935668945 -3.967390775680542 -2.4020309448242188
-47.107391357421875 -4.923679351806641 -2.4020309448242188
-46.86898422241211 -6.8297929763793945 -2.4020309448242188
-46.72085952758789 -7.778833389282227 -2.4020309448242188
-46.553504943847656 -8.724695205688477 -2.4020309448242188
-45.88865661621094 -9.567205429077148 -2.3772504329681396
-43.233280181884766 -9.932525634765625 -2.2496635913848877
-31.06744384765625 6.2996745109558105 -2.3242909908294678
-32.442996978759766 4.546138763427734 -2.4020309448242188
-32.600643157958984 3.2268552780151367 -2.4020309448242188
-32.65938949584961 2.5651092529296875 -2.4020309448242188
-32.75983810424805 -0.08980590850114822 -2.4020309448242188
-32.69377517700195 -2.0815236568450928 -2.4020309448242188
-24.70226287841797 3.9737865924835205 -2.4020309448242188
-24.77775764465332 3.4720330238342285 -2.4020309448242188
-24.89822769165039 2.464460849761963 -2.4020309448242188
-24.977630615234375 1.452829360961914 -2.4020309448242188
-25.001977920532227 0.9460224509239197 -2.4020309448242188
-25.016029357910156 0.4388081133365631 -2.4020309448242188
-25.019750595092773 -0.06858795136213303 -2.4020309448242188
-25.013214111328125 -0.5759425163269043 -2.4020309448242188
-24.99638557434082 -1.0830661058425903 -2.4020309448242188
-24.969316482543945 -1.5897282361984253 -2.4020309448242188
-24.931921005249023 -2.095757484436035 -2.4020309448242188
-24.826425552368164 -3.105013132095337 -2.4020309448242188
-19.818185806274414 4.018615245819092 -2.4020309448242188
-19.89560317993164 3.615901470184326 -2.4020309448242188
-19.9648380279541 3.211690664291382 -2.4020309448242188
-20.07865333557129 2.399487018585205 -2.4020309448242188
-20.15943145751953 1.583350658416748 -2.4020309448242188
-20.187395095825195 1.1742069721221924 -2.4020309448242188
-20.207056045532227 0.7645878195762634 -2.4020309448242188
-20.21840476989746 0.3546485900878906 -2.4020309448242188
-20.216156005859375 -0.46548765897750854 -2.4020309448242188
-20.20254898071289 -0.8753448128700256 -2.4020309448242188
-20.1806583404541 -1.284847378730774 -2.4020309448242188
-20.15045166015625 -1.6938310861587524 -2.4020309448242188
-20.111957550048828 -2.1021084785461426 -2.4020309448242188
-19.795860290527344 -4.127187252044678 -2.4020309448242188
-16.614662170410156 3.3690245151519775 -2.4020309448242188
-16.679567337036133 3.0314080715179443 -2.4020309448242188
-16.737613677978516 2.692535877227783 -2.4020309448242188
-16.788774490356445 2.352560520172119 -2.4020309448242188
-16.83303451538086 2.0116212368011475 -2.4020309448242188
-16.8703556060791 1.669853687286377 -2.4020309448242188
-16.940689086914062 0.6409928798675537 -2.4020309448242188
-16.95018196105957 0.29733017086982727 -2.4020309448242188
-16.948307037353516 -0.3902435302734375 -2.4020309448242188
-16.93691062927246 -0.7338575720787048 -2.4020309448242188
-16.91854476928711 -1.077157735824585 -2.4020309448242188
-16.893220901489258 -1.420030951499939 -2.4020309448242188
-16.821744918823242 -2.1038763523101807 -2.4020309448242188
-16.72260284423828 -2.784245491027832 -2.4020309448242188
-16.662700653076172 -3.122793436050415 -2.4020309448242188
-16.595947265625 -3.46004581451416 -2.4020309448242188
-16.522369384765625 -3.7958922386169434 -2.4020309448242188
-14.289982795715332 2.8976385593414307 -2.4020309448242188
-14.395731925964355 2.315803289413452 -2.4020309448242188
-14.439736366271973 2.0233964920043945 -2.4020309448242188
-14.509902954101562 1.436211109161377 -2.4020309448242188
-14.570383071899414 0.5513096451759338 -2.4020309448242188
-14.580755233764648 -0.03997085615992546 -2.4020309448242188
-14.501811981201172 -1.515734076499939 -2.4020309448242188
-14.382823944091797 -2.394681215286255 -2.4020309448242188
-14.331300735473633 -2.6858601570129395 -2.4020309448242188
-14.27388858795166 -2.975925922393799 -2.4020309448242188
-14.210603713989258 -3.264780282974243 -2.4020309448242188
-12.57344913482666 2.2851459980010986 -2.4020309448242188
-12.617202758789062 2.029696226119995 -2.4020309448242188
-12.655780792236328 1.7734156847000122 -2.4020309448242188
-12.740191459655762 1.000630259513855 -2.4020309448242188
-12.757862091064453 0.7420622110366821 -2.4020309448242188
-12.770289421081543 0.48319563269615173 -2.4020309448242188
-12.779390335083008 -0.035034943372011185 -2.4020309448242188
-12.734511375427246 -1.0704532861709595 -2.4020309448242188
-12.560748100280762 -2.3540353775024414 -2.4020309448242188
-12.510416030883789 -2.608264207839966 -2.4020309448242188
-12.454949378967285 -2.8614323139190674 -2.4020309448242188
-11.180434226989746 2.031972646713257 -2.4020309448242188
-11.283294677734375 1.348401665687561 -2.4020309448242188
-11.308311462402344 1.1193122863769531 -2.4020309448242188
-11.344382286071777 0.6598533391952515 -2.4020309448242188
-11.363532066345215 -0.03115127421915531 -2.4020309448242188
-11.360562324523926 -0.26158279180526733 -2.4020309448242188
-11.32364273071289 -0.9518566727638245 -2.4020309448242188
-11.275726318359375 -1.4102423191070557 -2.4020309448242188
-11.244813919067383 -1.638607144355774 -2.4020309448242188
-11.169130325317383 -2.093229055404663 -2.4020309448242188
-11.075053215026855 -2.5444109439849854 -2.4020309448242188
-10.17070484161377 1.0067112445831299 -2.4020309448242188
-10.189031600952148 0.8002592325210571 -2.4020309448242188
-10.213109970092773 0.38643813133239746 -2.4020309448242188
-10.218838691711426 0.179249107837677 -2.4020309448242188
-10.220321655273438 -0.028010405600070953 -2.4020309448242188
-10.21769905090332 -0.23526763916015625 -2.4020309448242188
-10.210827827453613 -0.44242385029792786 -2.4020309448242188
-10.184491157531738 -0.85610032081604 -2.4020309448242188
-10.141400337219238 -1.2683732509613037 -2.4020309448242188
-10.113594055175781 -1.4737648963928223 -2.4020309448242188
-10.081626892089844 -1.678550362586975 -2.4020309448242188
-10.00527286529541 -2.0859735012054443 -2.4020309448242188
-9.127670288085938 1.6588969230651855 -2.4020309448242188
-9.187430381774902 1.2874070405960083 -2.4020309448242188
-9.211649894714355 1.1008327007293701 -2.4020309448242188
-9.232064247131348 0.9138069152832031 -2.4020309448242188
-9.270560264587402 0.35077956318855286 -2.4020309448242188
-9.275771141052246 0.16270674765110016 -2.4020309448242188
-9.26849365234375 -0.4015931487083435 -2.4020309448242188
-9.226934432983398 -0.9644018411636353 -2.4020309448242188
-9.205474853515625 -1.151318073272705 -2.4020309448242188
-9.151225090026855 -1.523641586303711 -2.4020309448242188
-9.118438720703125 -1.708909511566162 -2.4020309448242188
-9.081911087036133 -1.8934649229049683 -2.4020309448242188
-9.041646003723145 -2.07725191116333 -2.4020309448242188
-8.377251625061035 1.3476262092590332 -2.4020309448242188
-8.402856826782227 1.177466869354248 -2.4020309448242188
-8.425006866455078 1.0068256855010986 -2.4020309448242188
-8.470659255981445 0.4926927089691162 -2.4020309448242188
-8.47889232635498 0.3208238184452057 -2.4020309448242188
-8.483704566955566 0.14880599081516266 -2.4020309448242188
-8.419360160827637 -1.052999496459961 -2.4020309448242188
-8.396276473999023 -1.2235151529312134 -2.4020309448242188
-8.269536018371582 -1.8998606204986572 -2.4020309448242188
-7.653725624084473 1.5519773960113525 -2.4020309448242188
-7.68362283706665 1.3964500427246094 -2.4020309448242188
-7.754316806793213 0.9266752600669861 -2.4020309448242188
-7.796330451965332 0.45347151160240173 -2.4020309448242188
-7.809458255767822 -0.0214080810546875 -2.4020309448242188
-7.802168846130371 -0.33805936574935913 -2.4020309448242188
-7.782044887542725 -0.6541526913642883 -2.4020309448242188
-7.749118328094482 -0.9691735506057739 -2.4020309448242188
-7.727872371673584 -1.1261146068572998 -2.4020309448242188
-7.675852298736572 -1.4385485649108887 -2.4020309448242188
-7.611196041107178 -1.7486181259155273 -2.4020309448242188
-7.082075595855713 1.436060905456543 -2.4020309448242188
-7.109737396240234 1.2921509742736816 -2.4020309448242188
-7.134474277496338 1.1477067470550537 -2.4020309448242188
-7.156287670135498 1.0027891397476196 -2.4020309448242188
-7.204041004180908 0.5658097863197327 -2.4020309448242188
-7.21397590637207 0.41960981488227844 -2.4020309448242188
-7.221036911010742 0.2732270658016205 -2.4020309448242188
-7.2242913246154785 -0.1663430780172348 -2.4020309448242188
-7.211605072021484 -0.4591432213783264 -2.4020309448242188
-7.187055587768555 -0.7511933445930481 -2.4020309448242188
-7.170343399047852 -0.896786630153656 -2.4020309448242188
-7.0740966796875 -1.4748597145080566 -2.4020309448242188
-7.042766094207764 -1.6180150508880615 -2.4020309448242188
-6.582980155944824 1.3348585367202759 -2.4020309448242188
-6.608692646026611 1.2010890245437622 -2.4020309448242188
-6.631691932678223 1.0668226480484009 -2.4020309448242188
-6.651962757110596 0.9321192502975464 -2.4020309448242188
-6.684288024902344 0.661620020866394 -2.4020309448242188
-6.696335792541504 0.525938868522644 -2.4020309448242188
-6.7159247398376465 0.11780440807342529 -2.4020309448242188
-6.715173721313477 -0.15462051331996918 -2.4020309448242188
-6.710655212402344 -0.2907652258872986 -2.4020309448242188
-6.703384876251221 -0.426786333322525 -2.4020309448242188
-6.68056583404541 -0.6982550024986267 -2.4020309448242188
-6.646753311157227 -0.9685726761817932 -2.4020309448242188
-6.625744342803955 -1.1031593084335327 -2.4020309448242188
-6.602010250091553 -1.2372974157333374 -2.4020309448242188
-6.575567245483398 -1.3709228038787842 -2.4020309448242188
-6.5464091300964355 -1.5039888620376587 -2.4020309448242188
-6.143033981323242 1.2456482648849487 -2.4020309448242188
-6.16702938079834 1.1208192110061646 -2.4020309448242188
-6.188490390777588 0.9955259561538696 -2.4020309448242188
-6.207391738891602 0.8698270916938782 -2.4020309448242188
-6.223769187927246 0.7437678575515747 -2.4020309448242188
-6.257474899291992 0.36396774649620056 -2.4020309448242188
-6.267087936401367 0.10993178933858871 -2.4020309448242188
-6.2460246086120605 -0.5250356793403625 -2.4020309448242188
-6.234094619750977 -0.6515896320343018 -2.4020309448242188
-6.2195963859558105 -0.7778775095939636 -2.4020309448242188
-6.202545642852783 -0.9038419723510742 -2.4020309448242188
-6.18294095993042 -1.029434323310852 -2.4020309448242188
-6.13611364364624 -1.2793023586273193 -2.4020309448242188
-6.10890531539917 -1.4034756422042847 -2.4020309448242188
-5.751901149749756 1.1663475036621094 -2.4020309448242188
-5.774399280548096 1.0494612455368042 -2.4020309448242188
-5.794497966766357 0.9321448802947998 -2.4020309448242188
-5.85097599029541 0.4595423638820648 -2.4020309448242188
-5.8590922355651855 0.3407948315143585 -2.4020309448242188
-5.864798545837402 0.22191116213798523 -2.4020309448242188
-5.868092060089111 0.10293197631835938 -2.4020309448242188
-5.857133865356445 -0.3729078471660614 -2.4020309448242188
-5.84836483001709 -0.4916088879108429 -2.4020309448242188
-5.823622226715088 -0.7283538579940796 -2.4020309448242188
-5.807653903961182 -0.8462982177734375 -2.4020309448242188
-5.745450973510742 -1.197853922843933 -2.4020309448242188
-5.4016289710998535 1.0953108072280884 -2.4020309448242188
-5.422731399536133 0.9855470061302185 -2.4020309448242188
-5.441603183746338 0.8753758072853088 -2.4020309448242188
-5.472626686096191 0.6540018916130066 -2.4020309448242188
-5.494644641876221 0.4315553307533264 -2.4020309448242188
-5.502264976501465 0.3200398087501526 -2.4020309448242188
-5.507625579833984 0.20839492976665497 -2.4020309448242188
-5.510720252990723 0.0966627448797226 -2.4020309448242188
-5.49219274520874 -0.4616694450378418 -2.4020309448242188
-5.417247295379639 -1.0152579545974731 -2.4020309448242188
-5.371623516082764 -1.2340905666351318 -2.4020309448242188
-5.105625629425049 0.9279154539108276 -2.4020309448242188
-5.173331260681152 0.40632033348083496 -2.4020309448242188
-5.180510520935059 0.30132460594177246 -2.4020309448242188
-5.185555934906006 0.19621017575263977 -2.4020309448242188
-5.189244747161865 -0.014225616119801998 -2.4020309448242188
-5.1843976974487305 -0.2246340960264206 -2.4020309448242188
-5.161149024963379 -0.5394447445869446 -2.4020309448242188
-5.135027885437012 -0.7482823133468628 -2.4020309448242188
-5.118798732757568 -0.8522590398788452 -2.4020309448242188
-5.1004638671875 -0.955889105796814 -2.4020309448242188
-4.799202919006348 0.9731541275978088 -2.4020309448242188
-4.873060703277588 0.48234206438064575 -2.4020309448242188
-4.888613224029541 0.2843467593193054 -2.4020309448242188
-4.89685583114624 -0.013423919677734375 -2.4020309448242188
-4.895576000213623 -0.11272323131561279 -2.4020309448242188
-4.879664897918701 -0.4101806581020355 -2.4020309448242188
-4.870345115661621 -0.5090499520301819 -2.4020309448242188
-4.8130784034729 -0.9020296931266785 -2.4020309448242188
-4.7725419998168945 -1.0964558124542236 -2.4020309448242188
-4.555535316467285 0.8279402256011963 -2.4020309448242188
-4.585361957550049 0.6425331234931946 -2.4020309448242188
-4.597451210021973 0.5494148135185242 -2.4020309448242188
-4.607645034790039 0.45607098937034607 -2.4020309448242188
-4.6159467697143555 0.36254194378852844 -2.4020309448242188
-4.622348308563232 0.26885971426963806 -2.4020309448242188
-4.628932952880859 -0.10658370703458786 -2.4020309448242188
-4.625820159912109 -0.20043151080608368 -2.4020309448242188
-4.6208038330078125 -0.29419371485710144 -2.4020309448242188
-4.605074882507324 -0.4813236892223358 -2.4020309448242188
-4.567288875579834 -0.7604349851608276 -2.4020309448242188
-4.550927639007568 -0.8528993129730225 -2.4020309448242188
-4.512599945068359 -1.0367361307144165 -2.4020309448242188
-4.298165798187256 0.8715571165084839 -2.4020309448242188
-4.314957141876221 0.7842167615890503 -2.4020309448242188
-4.343209743499756 0.6086003184318542 -2.4020309448242188
-4.364314556121826 0.43198561668395996 -2.4020309448242188
-4.372175693511963 0.34339645504951477 -2.4020309448242188
-4.38496732711792 0.07691696286201477 -2.4020309448242188
-4.376779079437256 -0.2786575257778168 -2.4020309448242188
-4.361880302429199 -0.45590513944625854 -2.4020309448242188
-4.310593605041504 -0.8078579306602478 -2.4020309448242188
-4.274288654327393 -0.9819859266281128 -2.4020309448242188
-4.107630729675293 0.6607838273048401 -2.4020309448242188
-2.238454580307007 0.31366804242134094 -1.3049993515014648
-2.2299633026123047 0.2207249402999878 -1.2937616109848022
-2.2300121784210205 0.1751481592655182 -1.2914626598358154
-2.227424383163452 0.12955795228481293 -1.2881779670715332
-2.223050594329834 0.08411514014005661 -1.284396767616272
-2.211322069168091 -0.0060620117001235485 -1.27671217918396
-2.2304015159606934 -0.18748579919338226 -1.2922637462615967
-2.245436906814575 -0.3272077739238739 -1.3100953102111816
-4.089247226715088 -0.7663748264312744 -2.4020309448242188
-4.072866916656494 -0.8491412401199341 -2.4020309448242188
-4.054807662963867 -0.9315618872642517 -2.4020309448242188
