ply
format ascii 1.0
element vertex 178
property float x
property float y
property float z
end_header
5.450964450836182 -12.400166511535645 2.3884153366088867
5.450964450836182 -12.400168418884277 2.0750763416290283
29.114593505859375 -38.236026763916016 6.25826358795166
5.450964450836182 -12.400166511535645 1.4545271396636963
28.903564453125 -37.958885192871094 4.038827419281006
5.450964450836182 -12.400169372558594 0.8399534225463867
5.722218036651611 -12.350311279296875 0.8440568447113037
5.450963020324707 -12.40017032623291 0.5341084003448486
5.722212791442871 -12.350306510925293 0.5367173552513123
5.450964450836182 -12.400165557861328 0.22880598902702332
5.722216606140137 -12.350311279296875 -0.076634980738163
5.450964450836182 -12.400169372558594 -0.3814069926738739
5.72221565246582 -12.350309371948242 -0.383269339799881
5.450964450836182 -12.400169372558594 -0.6869434714317322
21.59033966064453 -42.15656661987305 -2.4020156860351562
22.4173583984375 -41.722679138183594 -2.4020156860351562
24.04495620727539 -40.806373596191406 -2.4020156860351562
24.844873428344727 -40.3243408203125 -2.4020156860351562
26.171876907348633 -35.815093994140625 -2.2496156692504883
12.589386940002441 -30.244163513183594 -2.4020156860351562
5.722212791442871 -12.350306510925293 -0.9980267286300659
14.35543441772461 -29.44696044921875 -2.4020156860351562
14.933259010314941 -29.158180236816406 -2.4020156860351562
16.631025314331055 -28.224288940429688 -2.4020156860351562
17.184295654296875 -27.89089584350586 -2.4020156860351562
19.846221923828125 -26.063941955566406 -2.4020156860351562
5.450964450836182 -12.400169372558594 -1.3004238605499268
10.963698387145996 -22.489591598510742 -2.4020156860351562
11.405014038085938 -22.26904296875 -2.4020156860351562
11.841894149780273 -22.039840698242188 -2.4020156860351562
12.274179458618164 -21.802087783813477 -2.4020156860351562
13.953842163085938 -20.767154693603516 -2.4020156860351562
14.7617769241333 -20.200857162475586 -2.4020156860351562
15.1572265625 -19.905893325805664 -2.4020156860351562
7.283260345458984 -17.49698257446289 -2.251267910003662
8.632909774780273 -16.85633659362793 -2.2496156692504883
9.920205116271973 -17.620840072631836 -2.4020156860351562
11.606511116027832 -16.558788299560547 -2.4020156860351562
12.250344276428223 -16.08830451965332 -2.4020156860351562
6.961825847625732 -14.280622482299805 -2.251046895980835
7.237446308135986 -14.131585121154785 -2.2496156692504883
7.514655590057373 -13.986136436462402 -2.2496156692504883
8.328410148620605 -13.517391204833984 -2.2496156692504883
9.730324745178223 -13.882132530212402 -2.4020156860351562
5.433676719665527 -12.36083984375 -2.224377393722534
6.463266372680664 -12.029288291931152 -2.2496259212493896
7.16314697265625 -11.626124382019043 -2.249624490737915
7.390995979309082 -11.48261547088623 -2.249624252319336
8.368932723999023 -11.939798355102539 -2.4020187854766846
8.60272216796875 -11.772465705871582 -2.4020190238952637
8.833024978637695 -11.600555419921875 -2.40201997756958
4.599467754364014 -11.049551963806152 -2.249630928039551
4.816441535949707 -10.956710815429688 -2.249630928039551
5.244685173034668 -10.758296966552734 -2.249630928039551
5.455790996551514 -10.65280532836914 -2.249630928039551
7.741896629333496 -10.167388916015625 -2.4020254611968994
4.089885234832764 -9.825358390808105 -2.249630928039551
4.506454944610596 -9.726325988769531 -2.2659056186676025
4.752774715423584 -9.74925708770752 -2.292638063430786
5.291194915771484 -9.84784984588623 -2.3630807399749756
5.574737548828125 -9.902175903320312 -2.4020309448242188
6.150423526763916 -9.555264472961426 -2.4020309448242188
6.33762788772583 -9.432137489318848 -2.4020309448242188
6.522371768951416 -9.305343627929688 -2.4020309448242188
6.884177207946777 -9.0409517288208 -2.4020302295684814
5.013926982879639 -8.906028747558594 -2.4020309448242188
5.361167907714844 -8.701415061950684 -2.4020309448242188
5.531696796417236 -8.594015121459961 -2.4020309448242188
5.866228103637695 -8.369236946105957 -2.4020309448242188
6.191639423370361 -8.131443977355957 -2.4020309448242188
3.5651695728302 -8.564809799194336 -2.4020309448242188
3.733351945877075 -8.49284839630127 -2.4020309448242188
4.06529426574707 -8.339045524597168 -2.4020309448242188
4.551206111907959 -8.084115028381348 -2.4020309448242188
4.709716796875 -7.992791175842285 -2.4020309448242188
5.174025535583496 -7.700387477874756 -2.4020309448242188
5.324851036071777 -7.596864223480225 -2.4020309448242188
5.620230674743652 -7.381015300750732 -2.4020309448242188
3.2607176303863525 -7.8334059715271 -2.4020309448242188
3.4145383834838867 -7.7675909996032715 -2.4020309448242188
3.7181358337402344 -7.626925945281982 -2.4020309448242188
3.8677966594696045 -7.552132606506348 -2.4020309448242188
4.015950679779053 -7.474392414093018 -2.4020309448242188
4.162548542022705 -7.393758773803711 -2.4020309448242188
4.307528018951416 -7.310248851776123 -2.4020309448242188
4.592402458190918 -7.134731292724609 -2.4020309448242188
4.870125770568848 -6.94811487197876 -2.4020309448242188
5.006180286407471 -6.850746154785156 -2.4020309448242188
5.140284538269043 -6.750704765319824 -2.4020309448242188
3.001138925552368 -7.209804534912109 -2.4020309448242188
3.5598888397216797 -6.950921535491943 -2.4020309448242188
3.696251153945923 -6.879377841949463 -2.4020309448242188
3.8311779499053955 -6.8051605224609375 -2.4020309448242188
3.964614152908325 -6.728292465209961 -2.4020309448242188
4.096506118774414 -6.648815155029297 -2.4020309448242188
4.355467319488525 -6.4821319580078125 -2.4020309448242188
4.482429027557373 -6.394996643066406 -2.4020309448242188
4.607650279998779 -6.305377006530762 -2.4020309448242188
2.7769885063171387 -6.671308517456055 -2.4020309448242188
3.0378575325012207 -6.556634902954102 -2.4020309448242188
3.7905430793762207 -6.152219772338867 -2.4020309448242188
3.9111132621765137 -6.0762858390808105 -2.4020309448242188
4.030158519744873 -5.997986316680908 -2.4020309448242188
4.377717018127441 -5.749229431152344 -2.4020309448242188
2.581285238265991 -6.2011613845825195 -2.4020309448242188
2.7030529975891113 -6.149061679840088 -2.4020309448242188
2.823770761489868 -6.094568729400635 -2.4020309448242188
3.061866283416748 -5.97849702835083 -2.4020309448242188
3.1791515350341797 -5.916961669921875 -2.4020309448242188
3.295201301574707 -5.853126525878906 -2.4020309448242188
3.5234105587005615 -5.718653202056885 -2.4020309448242188
3.635484457015991 -5.648069381713867 -2.4020309448242188
3.8553428649902344 -5.500343322753906 -2.4020309448242188
3.963045597076416 -5.423257350921631 -2.4020309448242188
4.069206237792969 -5.344063758850098 -2.4020309448242188
2.4087767601013184 -5.786734580993652 -2.4020309448242188
2.522404670715332 -5.7381157875061035 -2.4020309448242188
2.746680736541748 -5.634202003479004 -2.4020309448242188
2.9666857719421387 -5.52152681350708 -2.4020309448242188
3.0749804973602295 -5.461958885192871 -2.4020309448242188
3.1820788383483887 -5.400263786315918 -2.4020309448242188
3.2879393100738525 -5.336472511291504 -2.4020309448242188
3.4957847595214844 -5.2026896476745605 -2.4020309448242188
3.597686767578125 -5.132750511169434 -2.4020309448242188
3.797255754470825 -4.986915111541748 -2.4020309448242188
2.2554149627685547 -5.41831636428833 -2.4020309448242188
2.36181640625 -5.372790813446045 -2.4020309448242188
2.5718114376068115 -5.275495529174805 -2.4020309448242188
2.6753294467926025 -5.22376012802124 -2.4020309448242188
2.7778100967407227 -5.1699934005737305 -2.4020309448242188
2.979487180709839 -5.056451797485352 -2.4020309448242188
3.176532030105591 -4.935046672821045 -2.4020309448242188
3.273221254348755 -4.871455192565918 -2.4020309448242188
3.3686351776123047 -4.80596923828125 -2.4020309448242188
3.462742805480957 -4.738606929779053 -2.4020309448242188
2.118060350418091 -5.088332176208496 -2.4020309448242188
2.217974901199341 -5.0455803871154785 -2.4020309448242188
2.512399911880493 -4.905625343322754 -2.4020309448242188
2.608635187149048 -4.855133056640625 -2.4020309448242188
2.703859806060791 -4.802753925323486 -2.4020309448242188
2.98307728767395 -4.634495258331299 -2.4020309448242188
1.99420166015625 -4.7907819747924805 -2.4020309448242188
2.2739500999450684 -4.66450309753418 -2.4020309448242188
2.365483283996582 -4.6187615394592285 -2.4020309448242188
2.456089973449707 -4.571220397949219 -2.4020309448242188
2.5457470417022705 -4.5219035148620605 -2.4020309448242188
2.7220544815063477 -4.418015956878662 -2.4020309448242188
3.061699151992798 -4.189804553985596 -2.4020309448242188
3.143712043762207 -4.128620147705078 -2.4020309448242188
1.97061026096344 -4.48286247253418 -2.4020309448242188
2.1458239555358887 -4.401683330535889 -2.4020309448242188
2.232198476791382 -4.358516216278076 -2.4020309448242188
2.402305841445923 -4.267117977142334 -2.4020309448242188
2.485976457595825 -4.218922138214111 -2.4020309448242188
2.6503844261169434 -4.117624282836914 -2.4020309448242188
2.7310571670532227 -4.064565181732178 -2.4020309448242188
2.966580629348755 -3.89599347114563 -2.4020309448242188
1.7793420553207397 -4.2746124267578125 -2.4020309448242188
2.0289502143859863 -4.16193962097168 -2.4020309448242188
2.2714624404907227 -4.034703254699707 -2.4020309448242188
2.350576162338257 -3.9891319274902344 -2.4020309448242188
2.5823071002960205 -3.84318470954895 -2.4020309448242188
2.657582998275757 -3.7915215492248535 -2.4020309448242188
2.8050036430358887 -3.6837916374206543 -2.4020309448242188
1.685372233390808 -4.048873424530029 -2.4020309448242188
1.9218016862869263 -3.942147731781006 -2.4020309448242188
2.2264404296875 -3.7784664630889893 -2.4020309448242188
2.3005077838897705 -3.733832836151123 -2.4020309448242188
2.3736839294433594 -3.6877453327178955 -2.4020309448242188
2.4459338188171387 -3.6402270793914795 -2.4020309448242188
2.5172338485717773 -3.591292381286621 -2.4020309448242188
2.587554931640625 -3.5409610271453857 -2.4020309448242188
2.656870126724243 -3.489253044128418 -2.4020309448242188
1.674254059791565 -3.80869197845459 -2.4020309448242188
1.8231176137924194 -3.739719867706299 -2.4020309448242188
1.9691479206085205 -3.6649301052093506 -2.4020309448242188
2.2517943382263184 -3.498385190963745 -2.4020309448242188
2.4546751976013184 -3.359142780303955 -2.4020309448242188
