ply
format ascii 1.0
element vertex 348
property float x
property float y
property float z
end_header
-20.343505859375 13.19992733001709 4.276050090789795
-22.29586410522461 13.19992446899414 4.56868314743042
-23.376781463623047 13.199921607971191 4.73368501663208
-27.566679000854492 14.82845687866211 5.519357204437256
-28.679025650024414 14.6764497756958 5.680585861206055
-29.74220085144043 13.711604118347168 5.774827003479004
-30.395057678222656 13.263564109802246 5.847523212432861
-32.02573013305664 13.19991397857666 6.107853412628174
-38.6110725402832 13.199877738952637 7.195027828216553
-21.287382125854492 13.199925422668457 3.8371777534484863
-23.37676429748535 13.199921607971191 4.112666130065918
-27.34140396118164 13.291458129882812 4.65725040435791
-29.74220085144043 13.7116060256958 5.017219543457031
-30.395063400268555 13.263564109802246 5.080379962921143
-34.14714431762695 13.261625289916992 5.611807346343994
-38.61106872558594 13.199877738952637 6.25110387802124
-20.43988800048828 13.262466430664062 3.172907590866089
-22.295867919921875 13.19992446899414 3.37406063079834
-24.690893173217773 13.281533241271973 3.650920867919922
-26.829734802246094 13.730077743530273 3.924705743789673
-27.34140396118164 13.291458129882812 3.958827495574951
-28.63230323791504 13.199926376342773 4.1056694984436035
-30.249216079711914 13.199920654296875 4.297787189483643
-32.02573776245117 13.19991397857666 4.510766983032227
-33.98822784423828 13.199905395507812 4.748039245605469
-36.33858108520508 13.261507034301758 5.037306308746338
-38.795021057128906 13.262762069702148 5.338980674743652
-27.566679000854492 14.82845687866211 3.3612468242645264
-28.43373680114746 14.550923347473145 3.4298460483551025
-30.24921226501465 13.199920654296875 3.5440099239349365
-32.02574157714844 13.19991397857666 3.7196366786956787
-36.16968536376953 13.199882507324219 4.134523391723633
-38.61106872558594 13.199877738952637 4.381716728210449
-41.364219665527344 13.199871063232422 4.662439346313477
-21.28738784790039 13.199925422668457 2.120363235473633
-22.295867919921875 13.19992446899414 2.1933786869049072
-23.376766204833984 13.199921607971191 2.2725932598114014
-28.67902374267578 14.6764497756958 2.7271924018859863
-29.74220085144043 13.711606979370117 2.7724363803863525
-36.33855438232422 13.261507034301758 3.274604320526123
-38.61104202270508 13.199877738952637 3.454257011413574
-41.364158630371094 13.199871063232422 3.6755571365356445
-20.34351921081543 13.19992733001709 1.503793716430664
-23.376766204833984 13.199921607971191 1.6647324562072754
-26.829734802246094 13.73007869720459 1.8689228296279907
-28.632299423217773 13.199926376342773 1.9550929069519043
-33.98823547363281 13.199905395507812 2.260986804962158
-36.33857727050781 13.261507034301758 2.3987321853637695
-23.899648666381836 14.819738388061523 1.1088578701019287
-25.70530128479004 13.82719612121582 1.1509217023849487
-27.341405868530273 13.291457176208496 1.1987345218658447
-28.632307052612305 13.199926376342773 1.2432011365890503
-30.249216079711914 13.199920654296875 1.3013746738433838
-32.02573776245117 13.19991397857666 1.36586594581604
-36.169708251953125 13.199882507324219 1.5182154178619385
-41.364158630371094 13.199871063232422 1.7120634317398071
-23.512523651123047 15.256152153015137 0.47344863414764404
-24.640451431274414 15.279096603393555 0.48974594473838806
-29.799028396606445 15.24960994720459 0.5654417276382446
-32.04009246826172 14.770971298217773 0.5959587097167969
-36.92503356933594 16.11305809020996 0.6805281043052673
-37.7076416015625 15.54179859161377 0.6889302134513855
-26.2056827545166 14.79729175567627 -0.16943924129009247
-28.402448654174805 15.278026580810547 -0.18157821893692017
-31.306364059448242 15.218939781188965 -0.19598251581192017
-37.707637786865234 15.54179859161377 -0.22962737083435059
-38.20459747314453 14.837403297424316 -0.23075148463249207
-41.81851577758789 15.261374473571777 -0.2506312429904938
-24.640453338623047 15.279096603393555 -0.8163824081420898
-25.84931182861328 15.303686141967773 -0.8458536863327026
-26.2056827545166 14.79729175567627 -0.847402036190033
-32.040096282958984 14.770971298217773 -0.9934333562850952
-36.92502975463867 16.113059997558594 -1.1344062089920044
-37.7076416015625 15.54179573059082 -1.1484131813049316
-38.20460510253906 14.837400436401367 -1.1540354490280151
-41.81848907470703 15.261374473571777 -1.2534724473953247
-46.23146057128906 8.691041946411133 -1.324577808380127
-25.849315643310547 15.303686141967773 -1.5234472751617432
-31.306365966796875 15.218939781188965 -1.7653403282165527
-36.92502975463867 16.113059997558594 -2.0431549549102783
-37.66991424560547 15.526232719421387 -2.066309690475464
-38.2046012878418 14.83740234375 -2.078505754470825
-40.57898712158203 14.809025764465332 -2.1906931400299072
-41.1253662109375 14.059432983398438 -2.2041540145874023
-31.016864776611328 8.513189315795898 -1.631170630455017
-35.10067367553711 8.864030838012695 -1.835986852645874
-37.420188903808594 8.63732624053955 -1.947683334350586
-26.34315299987793 14.874896049499512 -2.2181873321533203
-26.63930892944336 14.329609870910645 -2.2179079055786133
-16.383695602416992 8.3843355178833 -1.349450945854187
-27.198226928710938 13.221855163574219 -2.2173869609832764
-28.408525466918945 10.367498397827148 -2.217348337173462
-29.750213623046875 7.5128703117370605 -2.2498295307159424
-32.507286071777344 4.061004638671875 -2.4020309448242188
-19.43974494934082 12.613531112670898 -2.2247607707977295
-13.677285194396973 8.481045722961426 -1.5450412034988403
-14.859894752502441 8.390792846679688 -1.6383472681045532
-19.330163955688477 8.435151100158691 -2.02478289604187
-22.029064178466797 8.039359092712402 -2.2513351440429688
-22.324615478515625 7.124082088470459 -2.24975848197937
-24.378952026367188 5.627121448516846 -2.4020309448242188
-24.758052825927734 3.610093355178833 -2.4020309448242188
-15.797054290771484 10.249945640563965 -2.2368624210357666
-16.084928512573242 9.974129676818848 -2.248211622238159
-16.3006591796875 9.650556564331055 -2.2501845359802246
-16.69361114501953 8.979698181152344 -2.25164794921875
-17.053768157958984 8.290335655212402 -2.2524280548095703
-17.213300704956055 7.935590744018555 -2.251521587371826
-17.510725021362305 7.21732234954834 -2.2497787475585938
-18.34803009033203 6.272598743438721 -2.303330898284912
-19.70345115661621 4.547946453094482 -2.4020309448242188
-19.945852279663086 3.3275749683380127 -2.4020309448242188
-20.00990867614746 2.917743444442749 -2.4020309448242188
-20.065410614013672 2.5066936016082764 -2.4020309448242188
-13.678324699401855 8.098040580749512 -2.252258062362671
-13.989827156066895 7.525300025939941 -2.2507896423339844
-14.279973983764648 6.9419074058532715 -2.249727487564087
-15.925535202026367 5.8118767738342285 -2.4020309448242188
-16.252716064453125 4.821471214294434 -2.4020309448242188
-16.518474578857422 3.8127923011779785 -2.4020309448242188
-16.593204498291016 3.473177909851074 -2.4020309448242188
-16.77539825439453 2.446103572845459 -2.4020309448242188
-11.608482360839844 7.198209285736084 -2.2501885890960693
-11.891274452209473 6.714528560638428 -2.249685049057007
-12.026257514953613 6.469069004058838 -2.249638080596924
-12.241856575012207 6.2647528648376465 -2.2654497623443604
-12.855971336364746 6.249685764312744 -2.354881525039673
-13.24141788482666 6.104494571685791 -2.4020309448242188
-13.363892555236816 5.831611156463623 -2.4020309448242188
-13.69719123840332 4.998697280883789 -2.4020309448242188
-13.79684066772461 4.71669340133667 -2.4020309448242188
-13.890684127807617 4.432709693908691 -2.4020309448242188
-13.978679656982422 4.14686393737793 -2.4020309448242188
-14.137001991271973 3.570040225982666 -2.4020309448242188
-14.46834659576416 1.8074723482131958 -2.4020309448242188
-10.171868324279785 6.307344436645508 -2.249630928039551
-10.561811447143555 6.252962589263916 -2.3070333003997803
-11.050398826599121 6.239664077758789 -2.3852713108062744
-11.493306159973145 5.5872392654418945 -2.4020309448242188
-11.605278968811035 5.350313663482666 -2.4020309448242188
-11.712807655334473 5.111145973205566 -2.4020309448242188
-11.815180778503418 4.869812965393066 -2.4020309448242188
-11.912581443786621 4.6264543533325195 -2.4020309448242188
-12.004975318908691 4.381134510040283 -2.4020309448242188
-12.092307090759277 4.133970737457275 -2.4020309448242188
-12.174552917480469 3.88506817817688 -2.4020309448242188
-12.323664665222168 3.3824706077575684 -2.4020309448242188
-12.452008247375488 2.8741722106933594 -2.4020309448242188
-12.559414863586426 2.3610429763793945 -2.4020309448242188
-12.605217933654785 2.102932929992676 -2.4020309448242188
-10.00759220123291 5.383205413818359 -2.4020309448242188
-10.115903854370117 5.176799774169922 -2.4020309448242188
-10.21995735168457 4.968221187591553 -2.4020309448242188
-10.319710731506348 4.757546901702881 -2.4020309448242188
-10.415125846862793 4.5448737144470215 -2.4020309448242188
-10.506159782409668 4.330281734466553 -2.4020309448242188
-10.674922943115234 3.8957414627075195 -2.4020309448242188
-10.894305229187012 3.2318639755249023 -2.4020309448242188
-11.122540473937988 2.328094005584717 -2.4020309448242188
-11.167952537536621 2.0994603633880615 -2.4020309448242188
-11.208662986755371 1.8699451684951782 -2.4020309448242188
-11.244660377502441 1.6396387815475464 -2.4020309448242188
-11.275924682617188 1.408656120300293 -2.4020309448242188
-8.57370662689209 5.563085079193115 -2.4020309448242188
-8.68603515625 5.386055946350098 -2.4020309448242188
-8.794681549072266 5.206757545471191 -2.4020309448242188
-9.000837326049805 4.84166145324707 -2.4020309448242188
-9.367379188537598 4.087662696838379 -2.4020309448242188
-9.449251174926758 3.8946588039398193 -2.4020309448242188
-9.527145385742188 3.7000298500061035 -2.4020309448242188
-9.670886039733887 3.306163787841797 -2.4020309448242188
-9.736668586730957 3.107100248336792 -2.4020309448242188
-9.798349380493164 2.9067413806915283 -2.4020309448242188
-9.855875968933105 2.7051451206207275 -2.4020309448242188
-9.909318923950195 2.502417802810669 -2.4020309448242188
-10.003623008728027 2.0938901901245117 -2.4020309448242188
-10.113459587097168 1.4746930599212646 -2.4020309448242188
-10.141581535339355 1.2669461965560913 -2.4020309448242188
-7.884426116943359 4.8889923095703125 -2.4020309448242188
-7.983047962188721 4.726241111755371 -2.4020309448242188
-8.170178413391113 4.394838809967041 -2.4020309448242188
-8.258609771728516 4.2263288497924805 -2.4020309448242188
-8.343548774719238 4.056044101715088 -2.4020309448242188
-8.425000190734863 3.8840513229370117 -2.4020309448242188
-8.714985847473145 3.180476665496826 -2.4020309448242188
-8.778388023376465 3.0010509490966797 -2.4020309448242188
-8.838092803955078 2.8203587532043457 -2.4020309448242188
-8.894062042236328 2.6384856700897217 -2.4020309448242188
-9.039519309997559 2.0864996910095215 -2.4020309448242188
-9.1174898147583 1.7139948606491089 -2.4020309448242188
-9.150728225708008 1.5266196727752686 -2.4020309448242188
-9.180116653442383 1.3385978937149048 -2.4020309448242188
-9.20563793182373 1.150023341178894 -2.4020309448242188
-7.117883682250977 4.61845588684082 -2.4020309448242188
-7.472477436065674 4.019536018371582 -2.4020309448242188
-7.553343772888184 3.865412473678589 -2.4020309448242188
-7.631040096282959 3.7096714973449707 -2.4020309448242188
-7.776773452758789 3.393569231033325 -2.4020309448242188
-7.844740867614746 3.2333343029022217 -2.4020309448242188
-7.970751762390137 2.908872604370117 -2.4020309448242188
-8.083256721496582 2.579498767852783 -2.4020309448242188
-8.134561538696289 2.4131693840026855 -2.4020309448242188
-8.226699829101562 2.0775022506713867 -2.4020309448242188
-8.33889102935791 1.567626714706421 -2.4020309448242188
-8.396171569824219 1.2242869138717651 -2.4020309448242188
-6.5512542724609375 4.250792026519775 -2.4020309448242188
-6.637063503265381 4.115522384643555 -2.4020309448242188
-6.720082759857178 3.9785215854644775 -2.4020309448242188
-6.87760591506958 3.6995482444763184 -2.4020309448242188
-7.023552894592285 3.414355993270874 -2.4020309448242188
-7.092110633850098 3.269570827484131 -2.4020309448242188
-7.3362250328063965 2.6773059368133545 -2.4020309448242188
-7.530975341796875 2.0670228004455566 -2.4020309448242188
-7.571786880493164 1.9121140241622925 -2.4020309448242188
-7.643832206726074 1.5999577045440674 -2.4020309448242188
-7.675048828125 1.44283127784729 -2.4020309448242188
-6.292369365692139 3.553048610687256 -2.4020309448242188
-6.363924026489258 3.423232316970825 -2.4020309448242188
-6.432802200317383 3.2919769287109375 -2.4020309448242188
-6.736043930053711 2.6160571575164795 -2.4020309448242188
-6.788303852081299 2.4773406982421875 -2.4020309448242188
-6.837648391723633 2.3375775814056396 -2.4020309448242188
-6.88418436050415 2.196837902069092 -2.4020309448242188
-6.927809238433838 2.0551743507385254 -2.4020309448242188
-7.006252765655518 1.7693015336990356 -2.4020309448242188
-7.04107141494751 1.6252198219299316 -2.4020309448242188
-7.101804733276367 1.3350669145584106 -2.4020309448242188
-7.127695083618164 1.1891169548034668 -2.4020309448242188
-7.15058708190918 1.042662501335144 -2.4020309448242188
-5.708545207977295 3.539768695831299 -2.4020309448242188
-5.848925590515137 3.3026537895202637 -2.4020309448242188
-5.979460716247559 3.05998158454895 -2.4020309448242188
-6.099936485290527 2.8121635913848877 -2.4020309448242188
-6.156336307525635 2.686455011367798 -2.4020309448242188
-6.210140228271484 2.559608221054077 -2.4020309448242188
-6.261330604553223 2.431696891784668 -2.4020309448242188
-6.309876441955566 2.302750587463379 -2.4020309448242188
-6.355802059173584 2.172844409942627 -2.4020309448242188
-6.399033069610596 2.0420167446136475 -2.4020309448242188
-6.439568519592285 1.910338282585144 -2.4020309448242188
-6.512506484985352 1.6446137428283691 -2.4020309448242188
-6.601326942443848 1.2409794330596924 -2.4020309448242188
-6.6253886222839355 1.1053162813186646 -2.4020309448242188
-6.646666049957275 0.9691831469535828 -2.4020309448242188
-5.32703971862793 3.3032031059265137 -2.4020309448242188
-5.52010440826416 2.969332218170166 -2.4020309448242188
-5.637245178222656 2.740429639816284 -2.4020309448242188
-5.692270755767822 2.6242241859436035 -2.4020309448242188
-5.744899272918701 2.5069150924682617 -2.4020309448242188
-5.888199329376221 2.1488592624664307 -2.4020309448242188
-5.931039810180664 2.027632236480713 -2.4020309448242188
-6.107466697692871 1.4097248315811157 -2.4020309448242188
-6.135097503662109 1.2841575145721436 -2.4020309448242188
-6.182605266571045 1.0314466953277588 -2.4020309448242188
-4.987889289855957 3.0929009914398193 -2.4020309448242188
-5.05027961730957 2.989940643310547 -2.4020309448242188
-5.110546588897705 2.885720729827881 -2.4020309448242188
-5.168663024902344 2.7802867889404297 -2.4020309448242188
-5.224604606628418 2.673682689666748 -2.4020309448242188
-5.278346061706543 2.565958261489868 -2.4020309448242188
-5.329866886138916 2.4571499824523926 -2.4020309448242188
-5.379145622253418 2.3473093509674072 -2.4020309448242188
-5.426148414611816 2.2364771366119385 -2.4020309448242188
-5.553430080413818 1.8985395431518555 -2.4020309448242188
-5.591207027435303 1.784231424331665 -2.4020309448242188
-5.65968132019043 1.5534104108810425 -2.4020309448242188
-5.718631267547607 1.3199735879898071 -2.4020309448242188
-5.767955780029297 1.0843168497085571 -2.4020309448242188
-5.7889838218688965 0.9657789468765259 -2.4020309448242188
-5.807575702667236 0.8468315005302429 -2.4020309448242188
-5.823724269866943 0.7275345921516418 -2.4020309448242188
-4.742709159851074 2.807849645614624 -2.4020309448242188
-5.005270481109619 2.3075053691864014 -2.4020309448242188
-5.137702941894531 1.995315670967102 -2.4020309448242188
-5.215219497680664 1.7829166650772095 -2.4020309448242188
-5.283957004547119 1.567518711090088 -2.4020309448242188
-5.343802452087402 1.349478840827942 -2.4020309448242188
-5.370359420776367 1.239585041999817 -2.4020309448242188
-5.394652366638184 1.1291728019714355 -2.4020309448242188
-5.453883171081543 0.7952583432197571 -2.4020309448242188
-4.465371608734131 2.6436541080474854 -2.4020309448242188
-4.518657684326172 2.5515053272247314 -2.4020309448242188
-4.712543964385986 2.1725680828094482 -2.4020309448242188
-4.756148338317871 2.0754518508911133 -2.4020309448242188
-4.7977166175842285 1.977455496788025 -2.4020309448242188
-4.874786376953125 1.7790189981460571 -2.4020309448242188
-4.910251140594482 1.6786566972732544 -2.4020309448242188
-4.974968910217285 1.4758554697036743 -2.4020309448242188
-5.004194736480713 1.3734992742538452 -2.4020309448242188
-5.0313334465026855 1.2705625295639038 -2.4020309448242188
-5.056315898895264 1.1670981645584106 -2.4020309448242188
-5.079176902770996 1.0631440877914429 -2.4020309448242188
-4.161714553833008 2.5806028842926025 -2.4020309448242188
-4.264052867889404 2.407740592956543 -2.4020309448242188
-4.312535285949707 2.319770097732544 -2.4020309448242188
-4.359238624572754 2.230825901031494 -2.4020309448242188
-4.447050094604492 2.050156593322754 -2.4020309448242188
-4.488160133361816 1.9585105180740356 -2.4020309448242188
-4.564713478088379 1.772783637046814 -2.4020309448242188
-4.600117206573486 1.6787803173065186 -2.4020309448242188
-4.633583068847656 1.5840727090835571 -2.4020309448242188
-4.665100574493408 1.4886960983276367 -2.4020309448242188
-4.771409034729004 1.10133957862854 -2.4020309448242188
-4.793003559112549 1.0032389163970947 -2.4020309448242188
-4.859102249145508 0.6070286631584167 -2.4020309448242188
-3.8841631412506104 2.5202479362487793 -2.4020309448242188
-3.935042142868042 2.4400482177734375 -2.4020309448242188
-4.031802654266357 2.276599645614624 -2.4020309448242188
-4.077658176422119 2.1934211254119873 -2.4020309448242188
-4.1217875480651855 2.1093199253082275 -2.4020309448242188
-4.204829692840576 1.9384921789169312 -2.4020309448242188
-4.2437052726745605 1.8518375158309937 -2.4020309448242188
-4.34956693649292 1.5873438119888306 -2.4020309448242188
-4.411010265350342 1.4076118469238281 -2.4020309448242188
-4.438952445983887 1.3168437480926514 -2.4020309448242188
-4.465031147003174 1.2255150079727173 -2.4020309448242188
-4.489228248596191 1.1336723566055298 -2.4020309448242188
-4.511537551879883 1.04135262966156 -2.4020309448242188
-4.550451755523682 0.8554383516311646 -2.4020309448242188
-4.56704044342041 0.7619215250015259 -2.4020309448242188
-4.581710338592529 0.668081521987915 -2.4020309448242188
-3.679041624069214 2.3871536254882812 -2.4020309448242188
-3.7272326946258545 2.3111884593963623 -2.4020309448242188
-3.7738561630249023 2.2342517375946045 -2.4020309448242188
-3.8188865184783936 2.1563727855682373 -2.4020309448242188
-3.862316846847534 2.0775868892669678 -2.4020309448242188
-3.904118537902832 1.9979267120361328 -2.4020309448242188
-4.019600868225098 1.7540415525436401 -2.4020309448242188
-4.054734230041504 1.6712223291397095 -2.4020309448242188
-4.119866371154785 1.5035160779953003 -2.4020309448242188
-4.178063869476318 1.3332761526107788 -2.4020309448242188
-4.229233264923096 1.1607962846755981 -2.4020309448242188
-4.252152442932129 1.0738029479980469 -2.4020309448242188
-4.2926154136657715 0.8985010981559753 -2.4020309448242188
-4.310141086578369 0.81026291847229 -2.4020309448242188
-4.325854778289795 0.7216840982437134 -2.4020309448242188
-4.339748859405518 0.6327998042106628 -2.4020309448242188
-3.5358147621154785 2.1925101280212402 -2.4020309448242188
-3.703641176223755 1.895334243774414 -2.4020309448242188
-3.7782647609710693 1.741836667060852 -2.4020309448242188
-3.9083123207092285 1.4263114929199219 -2.4020309448242188
-3.963519811630249 1.264814853668213 -2.4020309448242188
-3.9886322021484375 1.1832520961761475 -2.4020309448242188
-4.033806800842285 1.018663763999939 -2.4020309448242188
-4.053850173950195 0.9357093572616577 -2.4020309448242188
-4.0721845626831055 0.8523640036582947 -2.4020309448242188
-4.103724956512451 0.6846262812614441 -2.4020309448242188
-2.2259178161621094 0.27807509899139404 -1.295123815536499
