ply
format ascii 1.0
element vertex 311
property float x
property float y
property float z
end_header
32.73774337768555 26.014822006225586 7.37318754196167
32.884273529052734 27.227514266967773 7.5279669761657715
32.933837890625 28.40366554260254 7.6685099601745605
32.933837890625 29.578826904296875 7.805418491363525
32.933841705322266 30.797203063964844 7.950575828552246
32.93384552001953 32.062232971191406 8.10456657409668
32.72283935546875 35.94609832763672 8.571197509765625
31.306365966796875 22.886260986328125 5.940842151641846
31.306371688842773 24.877391815185547 6.1258111000061035
31.30637550354004 25.921043395996094 6.226536750793457
31.039091110229492 26.769550323486328 6.279165744781494
31.046161651611328 29.03199577331543 6.511610984802246
32.93384552001953 33.377891540527344 7.1833672523498535
32.72283935546875 35.94609069824219 7.446749687194824
6.095905780792236 9.352065086364746 1.7101703882217407
31.306365966796875 22.886260986328125 5.04993200302124
31.30637550354004 25.921043395996094 5.292783260345459
31.30637550354004 27.000064849853516 5.383481502532959
31.306381225585938 28.117156982421875 5.479595184326172
31.10128402709961 29.083539962768555 5.544929027557373
31.09535026550293 30.272396087646484 5.651252746582031
31.3063907623291 31.72848892211914 5.804384231567383
31.306396484375 34.3901252746582 6.0559983253479
31.306400299072266 35.810604095458984 6.194037437438965
31.275907516479492 37.261653900146484 6.334963321685791
31.040205001831055 38.52794647216797 6.442834854125977
30.48920249938965 22.288888931274414 4.055542945861816
31.104555130004883 23.712697982788086 4.199965953826904
31.306371688842773 24.877389907836914 4.293892860412598
31.30637550354004 25.92104721069336 4.364496231079102
31.30637550354004 27.000064849853516 4.4392876625061035
31.306381225585938 28.11715316772461 4.518544673919678
31.10128402709961 29.083539962768555 4.572423458099365
31.25338363647461 30.426246643066406 4.683777332305908
31.095355987548828 31.51461410522461 4.754103660583496
31.095359802246094 32.80839538574219 4.853963375091553
31.306406021118164 35.81060028076172 5.1076812744140625
31.306406021118164 37.29798889160156 5.228986740112305
6.095904350280762 9.352066040039062 1.1987473964691162
30.569520950317383 22.347591400146484 3.205547332763672
30.489208221435547 23.243581771850586 3.2454771995544434
30.569530487060547 26.364572525024414 3.417275905609131
30.54829978942871 27.436302185058594 3.475877523422241
30.56954002380371 29.760501861572266 3.61159348487854
30.56954574584961 30.981706619262695 3.684451103210449
31.095359802246094 32.80840301513672 3.8265464305877686
31.095359802246094 34.15830993652344 3.910290479660034
31.095365524291992 35.56919860839844 3.999420166015625
31.306406021118164 37.29800796508789 4.122193336486816
30.569520950317383 22.347591400146484 2.3481452465057373
30.513906478881836 23.262418746948242 2.3793210983276367
30.569530487060547 25.310951232910156 2.4610681533813477
30.569530487060547 26.36457633972168 2.503241777420044
30.56954002380371 28.58629035949707 2.5953166484832764
30.56954002380371 29.760509490966797 2.6455841064453125
31.97347640991211 38.092735290527344 3.083951234817505
6.095905780792236 9.352065086364746 0.6922471523284912
30.489208221435547 23.243581771850586 1.5117323398590088
30.489208221435547 24.228038787841797 1.5355781316757202
30.489213943481445 25.244449615478516 1.5608277320861816
30.48921775817871 26.29530143737793 1.5875746011734009
30.48922348022461 28.51117706298828 1.645969033241272
30.56954574584961 30.981706619262695 1.716206431388855
31.97347068786621 38.092735290527344 1.9610176086425781
30.48920249938965 22.28888702392578 0.6379603147506714
30.489213943481445 25.244455337524414 0.6686399579048157
30.48921775817871 26.295310974121094 0.6800981163978577
30.48921775817871 27.383249282836914 0.6922416687011719
30.489233016967773 30.900312423706055 0.7332704067230225
31.972312927246094 38.09135818481445 0.8400459289550781
30.6884708404541 38.09136199951172 0.8262708783149719
30.489286422729492 39.441585540771484 0.8420912027359009
31.157499313354492 22.77743148803711 -0.21729934215545654
31.157499313354492 23.75305938720703 -0.2205856293439865
31.157508850097656 26.87167739868164 -0.2316519170999527
30.50557518005371 29.69822883605957 -0.2397015392780304
30.6884708404541 38.09136199951172 -0.2754043638706207
31.15750503540039 24.75908851623535 -1.12059485912323
31.157508850097656 26.871665954589844 -1.1585394144058228
30.48921775817871 27.383243560791016 -1.153932809829712
31.972312927246094 38.09135818481445 -1.4003162384033203
6.095904350280762 9.352066040039062 -0.31433409452438354
31.15750503540039 24.75908851623535 -2.018277645111084
31.157508850097656 25.79778480529785 -2.0514636039733887
30.50557518005371 28.52647590637207 -2.118103265762329
30.50557518005371 29.69822883605957 -2.1591269969940186
30.50557518005371 30.9168643951416 -2.2026824951171875
27.829547882080078 34.542816162109375 -2.2496156692504883
27.129493713378906 35.095272064208984 -2.2496156692504883
25.696815490722656 36.15746307373047 -2.2496156692504883
6.095905780792236 9.352065086364746 -0.566141664981842
24.816564559936523 18.919025421142578 -2.2880637645721436
24.809677124023438 19.714839935302734 -2.3235085010528564
24.794715881347656 21.384113311767578 -2.4007351398468018
24.372802734375 21.88991355895996 -2.4020156860351562
23.47317886352539 22.851953506469727 -2.4020156860351562
23.009016036987305 23.319238662719727 -2.4020156860351562
22.535587310791016 23.777069091796875 -2.4020156860351562
21.061378479003906 25.09222412109375 -2.4020156860351562
20.03569984436035 25.918588638305664 -2.4020156860351562
19.510601043701172 26.31611442565918 -2.4020156860351562
18.436975479125977 27.07914161682129 -2.4020156860351562
6.095905780792236 9.352065086364746 -0.8185221552848816
19.897138595581055 15.168668746948242 -2.4020156860351562
19.58816909790039 15.565605163574219 -2.4020156860351562
19.27130126953125 15.956247329711914 -2.4020156860351562
18.614288330078125 16.718027114868164 -2.4020156860351562
18.27444839477539 17.0888614654541 -2.4020156860351562
17.211156845092773 18.159318923950195 -2.4020156860351562
16.842618942260742 18.50164222717285 -2.4020156860351562
16.467269897460938 18.836496353149414 -2.4020156860351562
14.900874137878418 20.098468780517578 -2.4020156860351562
14.493823051452637 20.393962860107422 -2.4020156860351562
14.080915451049805 20.68121337890625 -2.4020156860351562
16.32445526123047 11.933856010437012 -2.4020156860351562
16.08124542236328 12.259611129760742 -2.4020156860351562
15.831530570983887 12.580419540405273 -2.4020156860351562
14.202614784240723 14.39410400390625 -2.4020156860351562
13.910375595092773 14.67670726776123 -2.4020156860351562
13.612516403198242 14.953383445739746 -2.4020156860351562
13.309157371520996 15.224021911621094 -2.4020156860351562
13.000405311584473 15.488504409790039 -2.4020156860351562
12.686415672302246 15.746723175048828 -2.4020156860351562
12.367287635803223 15.99858283996582 -2.4020156860351562
12.04317855834961 16.243968963623047 -2.4020156860351562
11.714184761047363 16.4827938079834 -2.4020156860351562
11.380463600158691 16.71495246887207 -2.4020156860351562
6.095905780792236 9.352065086364746 -1.326051950454712
13.685678482055664 10.004800796508789 -2.4020156860351562
13.272439002990723 10.54685115814209 -2.4020156860351562
13.05773639678955 10.811538696289062 -2.4020156860351562
12.837746620178223 11.071864128112793 -2.4020156860351562
12.147026062011719 11.825550079345703 -2.4020156860351562
11.661835670471191 12.30428409576416 -2.4020156860351562
11.412121772766113 12.536238670349121 -2.4020156860351562
10.63571548461914 13.201338768005371 -2.4020156860351562
10.368173599243164 13.412482261657715 -2.4020156860351562
10.096447944641113 13.618206024169922 -2.4020156860351562
9.820639610290527 13.818422317504883 -2.4020156860351562
9.540861129760742 14.013056755065918 -2.4020156860351562
6.095905780792236 9.352065086364746 -1.581732153892517
11.770827293395996 8.60496711730957 -2.4020192623138428
11.595471382141113 8.839850425720215 -2.40201735496521
11.415400505065918 9.071167945861816 -2.4020166397094727
11.041521072387695 9.52271556854248 -2.4020156860351562
10.030141830444336 10.582700729370117 -2.4020156860351562
8.132824897766113 10.969644546508789 -2.2496156692504883
7.685295104980469 11.287699699401855 -2.2496156692504883
10.31661319732666 7.541872978210449 -2.4020211696624756
10.162917137145996 7.747742652893066 -2.4020211696624756
9.677404403686523 8.346240997314453 -2.4020185470581055
9.33406925201416 8.728504180908203 -2.4020166397094727
8.97564697265625 9.096663475036621 -2.4020159244537354
8.056936264038086 8.850534439086914 -2.249617338180542
7.694638729095459 9.167253494262695 -2.249616861343384
7.508779048919678 9.320099830627441 -2.2496166229248047
7.319890975952148 9.469161987304688 -2.2496163845062256
6.735814094543457 9.89316177368164 -2.2496161460876465
6.095905780792236 9.352065086364746 -2.0982797145843506
9.173629760742188 6.706305503845215 -2.402024269104004
8.60525131225586 7.421563625335693 -2.4020230770111084
8.454306602478027 7.593055248260498 -2.402021884918213
8.299948692321777 7.761474609375 -2.4020209312438965
8.142248153686523 7.926756381988525 -2.4020204544067383
7.321084022521973 7.724372386932373 -2.2496249675750732
7.004636287689209 8.012451171875 -2.2496249675750732
6.842165470123291 8.151623725891113 -2.2496252059936523
6.676905155181885 8.287528991699219 -2.2496254444122314
6.508937835693359 8.420096397399902 -2.2496254444122314
6.165207386016846 8.67493724822998 -2.2496259212493896
8.250773429870605 6.031660556793213 -2.402024745941162
8.127853393554688 6.1963067054748535 -2.402024745941162
7.872201919555664 6.518027305603027 -2.402024984359741
7.739577293395996 6.67496919631958 -2.4020254611968994
7.323163986206055 7.129355430603027 -2.4020273685455322
6.5845947265625 6.947337627410889 -2.2496299743652344
6.30000114440918 7.206413269042969 -2.2496302127838135
5.226887226104736 8.018858909606934 -2.249630928039551
7.263203144073486 5.7716546058654785 -2.4020285606384277
7.145708084106445 5.916502952575684 -2.402029037475586
7.025321006774902 6.058963298797607 -2.402029514312744
6.902101993560791 6.198975563049316 -2.4020299911499023
6.776082515716553 6.336474895477295 -2.4020302295684814
6.515891075134277 6.60374116897583 -2.4020304679870605
5.949398040771484 6.535425186157227 -2.2882707118988037
5.718591213226318 6.541352272033691 -2.249630928039551
5.585929870605469 6.654993057250977 -2.249630928039551
5.313893795013428 6.874169826507568 -2.249630928039551
5.174628734588623 6.979595184326172 -2.249630928039551
4.744509220123291 7.278824806213379 -2.249630928039551
6.849782466888428 5.007476806640625 -2.4020302295684814
6.425387859344482 5.541550636291504 -2.4020309448242188
6.312691688537598 5.669609069824219 -2.4020309448242188
6.197432518005371 5.795362949371338 -2.4020309448242188
6.079684734344482 5.9187822341918945 -2.4020309448242188
5.836838245391846 6.158387184143066 -2.4020309448242188
5.711853981018066 6.274481296539307 -2.4020309448242188
5.579809665679932 6.382605075836182 -2.399986982345581
5.062665939331055 6.2839179039001465 -2.2844412326812744
4.732735633850098 6.383569240570068 -2.249630928039551
4.603446960449219 6.477417469024658 -2.249630928039551
6.210569858551025 4.734654903411865 -2.4020309448242188
6.015225887298584 4.980483055114746 -2.4020309448242188
5.913881778717041 5.100403308868408 -2.4020309448242188
5.810151100158691 5.218263626098633 -2.4020309448242188
5.7040696144104 5.334010601043701 -2.4020309448242188
5.59568977355957 5.447600364685059 -2.4020309448242188
4.776240348815918 6.178645610809326 -2.4020309448242188
4.232104301452637 6.215865135192871 -2.3129351139068604
5.833616733551025 4.264617443084717 -2.4020309448242188
5.746706485748291 4.381027698516846 -2.4020309448242188
5.657471656799316 4.495669841766357 -2.4020309448242188
5.472178936004639 4.719459533691406 -2.4020309448242188
5.177754878997803 5.04072380065918 -2.4020309448242188
4.970937252044678 5.244786739349365 -2.4020309448242188
4.645756721496582 5.534887790679932 -2.4020309448242188
4.419506549835205 5.717167377471924 -2.4020309448242188
4.303682804107666 5.80485725402832 -2.4020309448242188
4.186116695404053 5.890199661254883 -2.4020309448242188
4.066860198974609 5.97316312789917 -2.4020309448242188
3.9459569454193115 6.053713321685791 -2.4020309448242188
5.422503471374512 3.964075803756714 -2.4020309448242188
5.34171724319458 4.072282791137695 -2.4020309448242188
5.173701286315918 4.283720016479492 -2.4020309448242188
5.086536884307861 4.38686466217041 -2.4020309448242188
4.997317790985107 4.488232135772705 -2.4020309448242188
4.717691421508789 4.781299114227295 -2.4020309448242188
4.521682262420654 4.967075824737549 -2.4020309448242188
4.420913219451904 5.056972980499268 -2.4020309448242188
4.318357944488525 5.144827365875244 -2.4020309448242188
4.108051776885986 5.314260959625244 -2.4020309448242188
4.000389099121094 5.395770072937012 -2.4020309448242188
3.780255079269409 5.552217483520508 -2.4020309448242188
3.667874574661255 5.6270904541015625 -2.4020309448242188
4.907325267791748 3.8995721340179443 -2.4020309448242188
4.827938079833984 3.9974358081817627 -2.4020309448242188
3.9324278831481934 4.881037712097168 -2.4020309448242188
3.7330405712127686 5.0351667404174805 -2.4020309448242188
3.5276145935058594 5.181156635284424 -2.4020309448242188
3.422746419906616 5.251027584075928 -2.4020309448242188
4.667369365692139 3.5581908226013184 -2.4020309448242188
4.520564079284668 3.7429399490356445 -2.4020309448242188
4.444403171539307 3.833059072494507 -2.4020309448242188
4.205276966094971 4.093983173370361 -2.4020309448242188
3.862809896469116 4.418571472167969 -2.4020309448242188
3.68206524848938 4.570278644561768 -2.4020309448242188
3.589444398880005 4.643377780914307 -2.4020309448242188
3.3030309677124023 4.851294040679932 -2.4020309448242188
3.2048351764678955 4.916715621948242 -2.4020309448242188
4.383120059967041 3.3414909839630127 -2.4020309448242188
4.315057277679443 3.42893123626709 -2.4020309448242188
4.173732757568359 3.5996203422546387 -2.4020309448242188
4.025659084320068 3.764488458633423 -2.4020309448242188
3.710245370864868 4.075709342956543 -2.4020309448242188
3.627558469772339 4.149473667144775 -2.4020309448242188
3.543405771255493 4.221561908721924 -2.4020309448242188
3.45782208442688 4.291942596435547 -2.4020309448242188
3.3708410263061523 4.360588073730469 -2.4020309448242188
3.282498598098755 4.42747163772583 -2.4020309448242188
3.192830801010132 4.492565631866455 -2.4020309448242188
3.1018712520599365 4.555842876434326 -2.4020309448242188
3.860738515853882 3.467440605163574 -2.4020309448242188
3.790250062942505 3.5443530082702637 -2.4020309448242188
3.7182347774505615 3.6198301315307617 -2.4020309448242188
3.644709348678589 3.693850517272949 -2.4020309448242188
3.5697154998779297 3.766371965408325 -2.4020309448242188
3.493281126022339 3.8373754024505615 -2.4020309448242188
3.415430784225464 3.906825542449951 -2.4020309448242188
3.3361973762512207 3.9746971130371094 -2.4020309448242188
3.2556211948394775 4.0409650802612305 -2.4020309448242188
3.0905492305755615 4.168566703796387 -2.4020309448242188
3.006121873855591 4.229854106903076 -2.4020309448242188
2.9204821586608887 4.289431095123291 -2.4020309448242188
2.833660840988159 4.347275733947754 -2.4020309448242188
3.9531798362731934 2.8899388313293457 -2.4020309448242188
3.576688051223755 3.3446459770202637 -2.4020309448242188
3.508730411529541 3.415870189666748 -2.4020309448242188
3.4393491744995117 3.485720157623291 -2.4020309448242188
3.2964513301849365 3.621157169342041 -2.4020309448242188
3.222986936569214 3.686694860458374 -2.4020309448242188
3.072181224822998 3.813275098800659 -2.4020309448242188
2.9948997497558594 3.874265670776367 -2.4020309448242188
2.916412353515625 3.9336888790130615 -2.4020309448242188
2.836743116378784 3.991523265838623 -2.4020309448242188
3.6821775436401367 2.807124614715576 -2.4020309448242188
3.5062756538391113 3.0239739418029785 -2.4020309448242188
3.3176231384277344 3.2298216819763184 -2.4020309448242188
3.2520201206207275 3.2958672046661377 -2.4020309448242188
3.1169066429138184 3.423926830291748 -2.4020309448242188
3.047445058822632 3.4858953952789307 -2.4020309448242188
2.831779718399048 3.663249969482422 -2.4020309448242188
2.7575671672821045 3.7194366455078125 -2.4020309448242188
2.6822350025177 3.7741198539733887 -2.4020309448242188
2.6058239936828613 3.827277660369873 -2.4020309448242188
2.528355598449707 3.878889799118042 -2.4020309448242188
3.5404675006866455 2.5882298946380615 -2.4020309448242188
3.378018617630005 2.796931743621826 -2.4020309448242188
3.262855052947998 2.9304637908935547 -2.4020309448242188
3.142420530319214 3.059255361557007 -2.4020309448242188
2.952303409576416 3.243109703063965 -2.4020309448242188
2.886507511138916 3.301804780960083 -2.4020309448242188
2.819546937942505 3.3591673374176025 -2.4020309448242188
2.6822350025177 3.4697935581207275 -2.4020309448242188
2.5405871868133545 3.5748095512390137 -2.4020309448242188
3.358665704727173 2.4553253650665283 -2.4020309448242188
3.308629035949707 2.522348642349243 -2.4020309448242188
3.1505699157714844 2.7171971797943115 -2.4020309448242188
2.8007030487060547 3.0765771865844727 -2.4020309448242188
2.4778172969818115 3.3421080112457275 -2.4020309448242188
2.341468572616577 3.439009428024292 -2.4020309448242188
2.2718591690063477 3.4853856563568115 -2.4020309448242188
