ply
format ascii 1.0
element vertex 272
property float x
property float y
property float z
end_header
-0.28410032391548157 20.41257095336914 3.5996360778808594
0.505084216594696 19.87078094482422 3.045076847076416
0.10734497010707855 18.675981521606445 2.861104726791382
-0.26177000999450684 18.808238983154297 2.8815972805023193
-0.6298485994338989 18.74825668334961 2.873748779296875
0.4905981421470642 19.30081558227539 2.51418137550354
0.49161863327026367 19.341005325317383 2.077542781829834
0.11518310010433197 20.039485931396484 2.151911735534668
-0.6819506883621216 20.29913330078125 1.7193485498428345
-1.0962096452713013 20.567584991455078 1.7435758113861084
0.48555663228034973 19.102489471435547 1.1849344968795776
0.109405517578125 19.03399658203125 1.1803239583969116
-0.26255369186401367 18.86440086364746 1.1699016094207764
-0.6282397508621216 18.700359344482422 1.160269856452942
-1.4488255977630615 19.835397720336914 1.2332768440246582
-0.27388182282447815 19.67827033996582 0.7760099768638611
-0.6735058426856995 20.047767639160156 0.7909504771232605
-1.485559105873108 20.33824348449707 0.804094672203064
-2.281451463699341 20.240549087524414 0.8031599521636963
-1.2256006002426147 22.99527931213379 0.3889826834201813
-1.0801794528961182 32.15292739868164 -0.9058642387390137
-2.344372510910034 32.09599304199219 -0.9061581492424011
-6.215674877166748 32.16267395019531 -0.9223856925964355
-6.815104007720947 31.885372161865234 -0.9180995225906372
-7.504339218139648 32.016319274902344 -0.9259406924247742
-11.284185409545898 40.84182357788086 -1.1931006908416748
0.8140600323677063 32.02642822265625 -1.6247222423553467
-1.6954418420791626 31.810546875 -1.615538239479065
-2.3401525020599365 32.038230895996094 -1.6291241645812988
-2.9538347721099854 31.815298080444336 -1.6204279661178589
-4.229519367218018 31.877914428710938 -1.6308331489562988
-4.903364658355713 32.10150146484375 -1.6468865871429443
-5.515391826629639 31.89337158203125 -1.6414568424224854
-7.508699893951416 32.034912109375 -1.66865873336792
-10.738216400146484 42.07191467285156 -2.2020480632781982
-11.563456535339355 41.852622985839844 -2.2020480632781982
-10.79568099975586 33.83060836791992 -1.8009333610534668
0.14265136420726776 24.818552017211914 -1.8197795152664185
-0.4179467558860779 30.02959442138672 -2.2020480632781982
-1.4074267148971558 19.268583297729492 -1.416555404663086
-2.776371955871582 29.903905868530273 -2.2020480632781982
-3.950042724609375 29.7716064453125 -2.2020480632781982
-4.534732341766357 29.688175201416016 -2.2020480632781982
-5.117620944976807 29.59326171875 -2.2020480632781982
-6.853581428527832 29.240034103393555 -2.2020480632781982
-7.427229881286621 29.0996150970459 -2.2020480632781982
-8.565716743469238 28.78507423400879 -2.2020480632781982
-9.781987190246582 28.693178176879883 -2.2227439880371094
0.1193859800696373 20.770986557006836 -1.9941520690917969
-1.221224308013916 16.719356536865234 -1.6094199419021606
-2.6142101287841797 23.192739486694336 -2.24072003364563
-4.425203323364258 22.898000717163086 -2.2389986515045166
-4.873692989349365 22.802213668823242 -2.238572597503662
-5.320123672485352 22.697662353515625 -2.2381482124328613
-5.76431941986084 22.584402084350586 -2.2377259731292725
-7.081944942474365 22.192834854125977 -2.236473560333252
0.4273608326911926 16.813030242919922 -1.997795820236206
0.09663695842027664 16.813030242919922 -1.9971836805343628
-0.5619469881057739 16.727022171020508 -1.9880553483963013
-1.7444921731948853 18.789655685424805 -2.2415449619293213
-2.1133079528808594 18.748781204223633 -2.241194486618042
-2.4811840057373047 18.70069122314453 -2.2408447265625
-2.84799861907959 18.64537811279297 -2.2404961585998535
-3.2135839462280273 18.582887649536133 -2.2401485443115234
-3.57781982421875 18.513242721557617 -2.239802598953247
-3.9405713081359863 18.436466217041016 -2.239457607269287
-4.301684856414795 18.352602005004883 -2.23911452293396
-5.018458366394043 18.163740158081055 -2.2384331226348877
-5.373843669891357 18.058820724487305 -2.238095283508301
-5.727053642272949 17.946964263916016 -2.237759590148926
-6.07794189453125 17.828224182128906 -2.2374260425567627
0.40235960483551025 15.82941722869873 -2.243584156036377
-0.5314525961875916 15.819342613220215 -2.242696523666382
-0.8423083424568176 15.803750991821289 -2.242401123046875
-1.1527587175369263 15.782054901123047 -2.2421061992645264
-1.4626818895339966 15.754265785217285 -2.241811752319336
-1.7719603776931763 15.72039794921875 -2.241518020629883
-2.694719076156616 15.582480430603027 -2.2406418323516846
-3.6074016094207764 15.390531539916992 -2.2397756576538086
-3.908811569213867 15.314669609069824 -2.239490032196045
-4.20872688293457 15.232912063598633 -2.239206075668335
-4.506864070892334 15.145297050476074 -2.2389235496520996
-4.803168296813965 15.051857948303223 -2.238642930984497
0.34605589509010315 13.614324569702148 -2.243537187576294
-0.18947875499725342 13.614314079284668 -2.243028402328491
-0.45710813999176025 13.606415748596191 -2.242774486541748
-1.2581359148025513 13.551192283630371 -2.242013692855835
-1.7895983457565308 13.488208770751953 -2.241509199142456
-2.054257869720459 13.448901176452637 -2.241257905960083
-2.84269642829895 13.29993724822998 -2.240509271621704
-3.3627123832702637 13.174975395202637 -2.240015745162964
-3.620742082595825 13.10486888885498 -2.2397706508636475
0.30329588055610657 11.932177543640137 -2.243506669998169
0.047999266535043716 8.349685668945312 -1.569439172744751
-0.16607666015625 11.93250560760498 -2.2430613040924072
-0.6350122094154358 11.914381980895996 -2.2426164150238037
-1.1027783155441284 11.877848625183105 -2.2421727180480957
-1.3359997272491455 11.85269832611084 -2.2419514656066895
-1.1205090284347534 8.445313453674316 -1.6012969017028809
-1.8006701469421387 11.78868293762207 -2.2415108680725098
-1.4437756538391113 8.348820686340332 -1.5925425291061401
-2.2623655796051025 11.706483840942383 -2.2410731315612793
-1.8075902462005615 8.457074165344238 -1.625502109527588
-2.947800874710083 11.549370765686035 -2.2404234409332275
-2.337412118911743 8.460025787353516 -1.6497297286987305
-3.6226091384887695 11.352237701416016 -2.2397842407226562
0.26996704936027527 10.618636131286621 -2.2452914714813232
-0.35637572407722473 10.612749099731445 -2.244586944580078
-0.5650573372840881 10.603999137878418 -2.2446532249450684
-0.7736620903015137 10.5918550491333 -2.244870185852051
-0.98182612657547 10.57631778717041 -2.2452354431152344
-1.1897594928741455 10.557281494140625 -2.245728015899658
-1.397729516029358 10.534904479980469 -2.2463815212249756
-1.6052502393722534 10.509342193603516 -2.2472290992736816
-1.4437731504440308 8.348820686340332 -1.7909655570983887
-2.0189647674560547 10.446992874145508 -2.2491445541381836
-2.2252562046051025 10.407435417175293 -2.2496182918548584
-2.4288220405578613 10.362205505371094 -2.2497260570526123
-2.834622621536255 10.25958251953125 -2.2499217987060547
-3.0359764099121094 10.202363967895508 -2.250032901763916
-3.236176013946533 10.141233444213867 -2.250152826309204
-2.853062152862549 8.368813514709473 -1.8689733743667603
-0.3216796815395355 9.575157165527344 -2.2516517639160156
-0.5099023580551147 9.56699275970459 -2.251654624938965
-0.6979321241378784 9.555164337158203 -2.2516658306121826
-0.8856933116912842 9.539673805236816 -2.2516849040985107
-1.073123812675476 9.520528793334961 -2.2517125606536865
-1.2601513862609863 9.497736930847168 -2.2517480850219727
-2.1867260932922363 9.329397201538086 -2.2520480155944824
-2.552070140838623 9.236923217773438 -2.2522244453430176
-2.733330011367798 9.18536376953125 -2.2523245811462402
-2.9135613441467285 9.130278587341309 -2.2524325847625732
0.22117187082767487 8.70128059387207 -2.2536439895629883
0.04799804463982582 8.349685668945312 -2.1619160175323486
-0.46324706077575684 8.691618919372559 -2.2536096572875977
-0.8046532869338989 8.666793823242188 -2.2536373138427734
-0.9749352931976318 8.649389266967773 -2.253662109375
-1.144842505455017 8.628671646118164 -2.253694772720337
-1.3143200874328613 8.60463809967041 -2.2537343502044678
-1.4437743425369263 8.348820686340332 -2.193743944168091
-1.6517101526260376 8.546695709228516 -2.253836154937744
-1.8195067644119263 8.512796401977539 -2.2538981437683105
-2.3184165954589844 8.391266822814941 -2.254049777984619
-2.482828378677368 8.343555450439453 -2.2539145946502686
-2.6462292671203613 8.292597770690918 -2.2537713050842285
0.045745849609375 7.959035396575928 -2.253182888031006
-0.11076416075229645 7.958338260650635 -2.253166675567627
-0.4235937297344208 7.947629451751709 -2.253110647201538
-0.5797839164733887 7.937618255615234 -2.253070831298828
-0.8914037942886353 7.908328533172607 -2.2529683113098145
-1.201601505279541 7.866690635681152 -2.2528350353240967
-1.3560082912445068 7.841269493103027 -2.2527568340301514
-1.509881615638733 7.812797546386719 -2.252671003341675
-1.8157591819763184 7.746709823608398 -2.252476453781128
-2.418365478515625 7.578471660614014 -2.251997709274292
0.18601073324680328 7.317993640899658 -2.251584768295288
0.04207397252321243 7.320210933685303 -2.2515769004821777
-0.10187499970197678 7.319573879241943 -2.2515618801116943
-0.389594703912735 7.309741020202637 -2.2515106201171875
-0.96270751953125 7.255916118621826 -2.251322031021118
-1.1051733493804932 7.2353739738464355 -2.2512571811676025
-1.2471898794174194 7.212014675140381 -2.251185178756714
-1.3887182474136353 7.1858439445495605 -2.2511062622070312
-1.5296947956085205 7.156872272491455 -2.2510204315185547
-1.8097643852233887 7.090581893920898 -2.2508277893066406
-1.9487535953521729 7.053289413452148 -2.2507212162017822
-2.360852003097534 6.925008773803711 -2.2503604888916016
0.17201294004917145 6.767251491546631 -2.250199317932129
0.038908690214157104 6.769304275512695 -2.250192165374756
-0.36027464270591736 6.759635925292969 -2.2501306533813477
-0.49312132596969604 6.7511444091796875 -2.2500970363616943
-0.6257653832435608 6.740023136138916 -2.250056743621826
-0.8902636766433716 6.70990514755249 -2.2499563694000244
-1.6736888885498047 6.557588577270508 -2.249659776687622
-1.8023192882537842 6.523387908935547 -2.2496533393859863
-1.9302526712417603 6.486666202545166 -2.2496461868286133
-2.0574121475219727 6.447433948516846 -2.249638557434082
-0.08754760771989822 6.2901763916015625 -2.249630928039551
-0.45827391743659973 6.27407169342041 -2.249630928039551
-0.8289819359779358 6.248032093048096 -2.253922462463379
-0.9536816477775574 6.243603229522705 -2.2586543560028076
-1.0780870914459229 6.2385101318359375 -2.2640504837036133
-1.2052416801452637 6.236757278442383 -2.2715768814086914
-1.332711100578308 6.235467910766602 -2.2802138328552246
-1.46112060546875 6.23401403427124 -2.2897489070892334
-1.5907238721847534 6.232394218444824 -2.3002002239227295
-1.7214537858963013 6.2306036949157715 -2.3115882873535156
-2.1219236850738525 6.224167823791504 -2.351600170135498
-0.08648315072059631 6.213690757751465 -2.381429433822632
-0.20875243842601776 6.213776588439941 -2.382575035095215
-0.45384764671325684 6.213468551635742 -2.3874571323394775
-0.5769787430763245 6.213076114654541 -2.3912012577056885
-0.8241735696792603 6.211799621582031 -2.4013350009918213
-0.9464684724807739 6.196187496185303 -2.4020309448242188
-1.0681285858154297 6.176377296447754 -2.4020309448242188
-1.4304089546203613 6.102657794952393 -2.4020309448242188
-1.5501317977905273 6.0733489990234375 -2.4020309448242188
-1.6692577600479126 6.041693687438965 -2.4020309448242188
0.14913207292556763 5.867094993591309 -2.4020309448242188
0.033732909709215164 5.868893146514893 -2.4020309448242188
-0.08167724311351776 5.868422508239746 -2.4020309448242188
-0.19705809652805328 5.865682125091553 -2.4020309448242188
-0.7719274759292603 5.818004608154297 -2.4020309448242188
-0.8861681818962097 5.801701545715332 -2.4020309448242188
-1.000054955482483 5.7831549644470215 -2.4020309448242188
-1.226711392402649 5.739358901977539 -2.4020309448242188
-1.3393077850341797 5.714127540588379 -2.4020309448242188
-1.4514623880386353 5.686685085296631 -2.4020309448242188
-1.8938097953796387 5.555047035217285 -2.4020309448242188
0.1400488317012787 5.509781837463379 -2.4020309448242188
-0.07670165598392487 5.511028289794922 -2.4020309448242188
-0.1850561499595642 5.508453845977783 -2.4020309448242188
-1.1520092487335205 5.389822959899902 -2.4020309448242188
-1.2577710151672363 5.366128444671631 -2.4020309448242188
-1.5719774961471558 5.282630443572998 -2.4020309448242188
-1.675447940826416 5.250699520111084 -2.4020309448242188
0.02982787974178791 5.1891770362854 -2.4020309448242188
-0.07221801578998566 5.188759803771973 -2.4020309448242188
-0.17423461377620697 5.186336994171143 -2.4020309448242188
-0.37802854180336 5.175474166870117 -2.4020309448242188
-0.5812389850616455 5.156607151031494 -2.4020309448242188
-0.884265124797821 5.113366603851318 -2.4020309448242188
-0.9846447706222534 5.09498929977417 -2.4020309448242188
-1.184212565422058 5.052333831787109 -2.4020309448242188
-1.283333659172058 5.028069972991943 -2.4020309448242188
-1.381964087486267 5.001862525939941 -2.4020309448242188
-1.4800524711608887 4.973720073699951 -2.4020309448242188
-1.5775682926177979 4.943655967712402 -2.4020309448242188
-1.6744725704193115 4.911678791046143 -2.4020309448242188
-0.16441161930561066 4.894113540649414 -2.4020309448242188
-0.2606188952922821 4.889932155609131 -2.4020309448242188
-0.356719970703125 4.8838629722595215 -2.4020309448242188
-0.6440661549568176 4.854333877563477 -2.4020309448242188
-0.7393993735313416 4.840729236602783 -2.4020309448242188
-1.3040918111801147 4.720032691955566 -2.4020309448242188
-1.3966516256332397 4.693477153778076 -2.4020309448242188
-1.488684058189392 4.665103435516357 -2.4020309448242188
-1.5801196098327637 4.63493013381958 -2.4020309448242188
-0.24642455577850342 4.623598098754883 -2.4020309448242188
-0.33729612827301025 4.617858409881592 -2.4020309448242188
-0.5186108350753784 4.601024150848389 -2.4020309448242188
-0.6089867949485779 4.589937210083008 -2.4020309448242188
-0.6991259455680847 4.57707405090332 -2.4020309448242188
-0.8785558938980103 4.546044826507568 -2.4020309448242188
-1.0566332340240479 4.507983207702637 -2.4020309448242188
-1.2330676317214966 4.46295166015625 -2.4020309448242188
-1.320589542388916 4.437840461730957 -2.4020309448242188
-1.407598853111267 4.411014080047607 -2.4020309448242188
-1.4940612316131592 4.38248348236084 -2.4020309448242188
0.11144042760133743 4.384224891662598 -2.4020309448242188
0.02520751953125 4.385568141937256 -2.4020309448242188
-0.14725463092327118 4.383167743682861 -2.4020309448242188
-0.5768274068832397 4.347541332244873 -2.4020309448242188
-0.6622058153152466 4.335358142852783 -2.4020309448242188
-0.747326672077179 4.321498394012451 -2.4020309448242188
-0.8321606516838074 4.305967330932617 -2.4020309448242188
-1.084597110748291 4.249411106109619 -2.4020309448242188
-1.1679491996765137 4.2272629737854 -2.4020309448242188
-1.250848412513733 4.2034783363342285 -2.4020309448242188
-1.4151611328125 4.1510443687438965 -2.4020309448242188
0.10571654886007309 4.159095287322998 -2.4020309448242188
-0.057899169623851776 4.160038471221924 -2.4020309448242188
-0.13969115912914276 4.15809440612793 -2.4020309448242188
-0.22142821550369263 4.154543399810791 -2.4020309448242188
-0.3030798137187958 4.149385929107666 -2.4020309448242188
-0.3846142590045929 4.14262580871582 -2.4020309448242188
-0.4659997522830963 4.1342620849609375 -2.4020309448242188
-0.5472058057785034 4.124297618865967 -2.4020309448242188
-0.7089514136314392 4.099592685699463 -2.4020309448242188
-0.8696020245552063 4.068545818328857 -2.4020309448242188
-0.9494372606277466 4.050657272338867 -2.4020309448242188
-1.107974886894226 4.010193824768066 -2.4020309448242188
