ply
format ascii 1.0
element vertex 350
property float x
property float y
property float z
end_header
33.29404067993164 -2.6268858909606934 5.888880252838135
33.33420944213867 0.6717180013656616 5.878912925720215
33.33420944213867 1.331587314605713 5.882407188415527
33.33420944213867 1.992502212524414 5.888210296630859
33.33420181274414 4.6570844650268555 5.934802055358887
33.331382751464844 5.330699920654297 5.951915264129639
33.33420181274414 6.0095086097717285 5.972469806671143
33.334197998046875 6.692707538604736 5.995014667510986
33.334197998046875 7.381359577178955 6.020094871520996
33.334197998046875 8.076064109802246 6.047760486602783
33.334197998046875 8.777466773986816 6.078070640563965
33.334197998046875 -3.961618661880493 5.142549991607666
33.334197998046875 -3.294539213180542 5.131492614746094
33.29404067993164 -2.626884698867798 5.116312026977539
33.33421325683594 -1.9676520824432373 5.115504264831543
33.33421325683594 0.01237716618925333 5.10661506652832
33.33420944213867 0.6717180013656616 5.107651233673096
33.33420944213867 1.3315849304199219 5.110687255859375
33.33420944213867 1.9925037622451782 5.115729331970215
33.33420944213867 2.654978036880493 5.122786045074463
33.33138656616211 5.330699920654297 5.171071529388428
33.294036865234375 8.066338539123535 5.248018741607666
33.294036865234375 8.766880989074707 5.27432107925415
33.33419418334961 10.202970504760742 5.340465545654297
31.052597045898438 10.865121841430664 5.03987455368042
33.29404067993164 -3.9568443298339844 4.366088390350342
33.29404067993164 -3.2905704975128174 4.356701374053955
33.29405212402344 0.012363128364086151 4.335580348968506
33.29405212402344 1.3299766778945923 4.33903694152832
33.29405212402344 1.9900965690612793 4.343317985534668
33.29404830932617 2.6517724990844727 4.349308967590332
33.29404067993164 5.324727535247803 4.390675067901611
33.29404067993164 7.372460842132568 4.440600395202637
27.77410316467285 7.90392541885376 3.76043701171875
33.294036865234375 10.190679550170898 4.534121990203857
33.33419418334961 10.928462982177734 4.568134784698486
31.327543258666992 10.961321830749512 4.322009086608887
36.4877815246582 -4.336389541625977 3.945695638656616
36.4877815246582 -3.6062023639678955 3.937211751937866
36.48776626586914 -0.7081373333930969 3.918858528137207
36.48777770996094 2.9061615467071533 3.9305291175842285
36.48777770996094 3.633596658706665 3.937498092651367
36.4877815246582 4.363913536071777 3.9460442066192627
36.4877815246582 6.578051567077637 3.981285333633423
34.355106353759766 10.51546573638916 3.858052968978882
34.355106353759766 11.263175964355469 3.8823113441467285
31.258338928222656 10.937108993530273 3.5561094284057617
41.8770637512207 9.273055076599121 3.630897045135498
34.355106353759766 10.515464782714844 3.0414373874664307
34.35511016845703 11.263178825378418 3.060560941696167
31.849002838134766 11.143776893615723 2.856379270553589
38.60628890991211 9.353381156921387 2.463247060775757
41.8770637512207 9.273056030273438 1.6912837028503418
27.77410125732422 7.903926849365234 1.1386451721191406
34.35511016845703 12.020651817321777 1.4351856708526611
27.77410125732422 7.903926849365234 0.487782746553421
34.35435104370117 11.262927055358887 0.61069655418396
41.033138275146484 9.941349983215332 -0.23770827054977417
27.77410125732422 7.903926849365234 -0.1625811755657196
34.35435104370117 11.262930870056152 -0.20355117321014404
42.858680725097656 9.490419387817383 -1.2360388040542603
41.033138275146484 9.941349983215332 -1.1888272762298584
36.34897994995117 9.571317672729492 -1.0583937168121338
27.77410316467285 7.90392541885376 -0.8131065368652344
34.35434341430664 10.515230178833008 -1.011640191078186
34.35435485839844 12.0203857421875 -1.0248463153839111
47.281707763671875 -2.790926694869995 -2.4020309448242188
47.354393005371094 0.9542573094367981 -2.4020309448242188
47.27962112426758 2.8260834217071533 -2.4020309448242188
47.21448516845703 3.7605137825012207 -2.4020309448242188
47.130828857421875 4.693476676940918 -2.4020309448242188
43.562957763671875 8.746411323547363 -2.2533528804779053
42.858680725097656 9.490419387817383 -2.226201057434082
36.34897994995117 9.571316719055176 -1.9062491655349731
34.35434341430664 10.515233039855957 -1.8220412731170654
34.35435104370117 11.262930870056152 -1.833498239517212
34.35435485839844 12.0203857421875 -1.8458263874053955
32.53103256225586 -3.8661534786224365 -2.4020309448242188
32.601131439208984 -3.222075939178467 -2.4020309448242188
32.658470153808594 -2.5767290592193604 -2.4020309448242188
32.70304489135742 -1.9303823709487915 -2.4020309448242188
32.75380325317383 -0.6356707811355591 -2.4020309448242188
32.75333786010742 0.6600224375724792 -2.4020309448242188
32.73386001586914 1.3076133728027344 -2.4020309448242188
32.70159912109375 1.954698920249939 -2.4020309448242188
32.65654754638672 2.601011276245117 -2.4020309448242188
32.59872055053711 3.246307373046875 -2.4020309448242188
32.52815246582031 3.8903422355651855 -2.4020309448242188
29.85645866394043 7.233506202697754 -2.252471923828125
29.721479415893555 7.826182842254639 -2.2535269260406494
27.77410125732422 7.90392541885376 -2.1173126697540283
24.84485626220703 -2.9526872634887695 -2.402017116546631
24.94218635559082 -1.9679198265075684 -2.402017116546631
25.014623641967773 0.5040794014930725 -2.402017116546631
24.999757766723633 0.9986603856086731 -2.40201735496521
24.94071388244629 1.9864643812179565 -2.40201735496521
24.622766494750977 4.4390130043029785 -2.40201735496521
24.53016471862793 4.925076961517334 -2.40201735496521
24.31621551513672 5.891237258911133 -2.4020166397094727
24.194957733154297 6.37095308303833 -2.4020166397094727
24.064233779907227 6.848175048828125 -2.4020166397094727
23.774606704711914 7.794404029846191 -2.4020159244537354
20.080102920532227 -2.3864216804504395 -2.4020190238952637
20.12337303161621 -1.9888583421707153 -2.4020190238952637
20.158769607543945 -1.590511441230774 -2.4020190238952637
20.186279296875 -1.1915479898452759 -2.4020190238952637
20.20589256286621 -0.7921186685562134 -2.4020190238952637
20.217309951782227 0.40740707516670227 -2.4020190238952637
20.185588836669922 1.2067545652389526 -2.4020190238952637
20.157577514648438 1.6054999828338623 -2.4020187854766846
20.02690887451172 2.7979447841644287 -2.4020187854766846
19.90060043334961 3.587697744369507 -2.4020187854766846
19.825763702392578 3.9805424213409424 -2.4020187854766846
19.652849197387695 4.761415481567383 -2.4020190238952637
19.335939407348633 5.918373107910156 -2.4020190238952637
19.086782455444336 6.678353309631348 -2.4020190238952637
16.83421516418457 -2.00070858001709 -2.4020204544067383
16.923263549804688 -0.998939037322998 -2.4020204544067383
16.95272445678711 0.00630264263600111 -2.4020204544067383
16.939212799072266 0.6766682267189026 -2.4020204544067383
16.92251968383789 1.0115236043930054 -2.4020204544067383
16.899206161499023 1.3459794521331787 -2.4020204544067383
16.832765579223633 2.01318621635437 -2.4020204544067383
16.789663314819336 2.3456709384918213 -2.4020204544067383
16.739990234375 2.6772398948669434 -2.4020204544067383
16.476064682006836 3.991758346557617 -2.4020204544067383
16.30533218383789 4.640154838562012 -2.4020206928253174
16.21038246154785 4.961698532104492 -2.4020206928253174
16.10909080505371 5.281296730041504 -2.4020206928253174
16.001501083374023 5.5988311767578125 -2.4020209312438965
14.478859901428223 -1.7207410335540771 -2.402021646499634
14.510053634643555 -1.4340786933898926 -2.402021646499634
14.569562911987305 -0.5711605548858643 -2.402021646499634
14.578007698059082 -0.2829226553440094 -2.402021646499634
14.55477237701416 0.8699937462806702 -2.402021646499634
14.534724235534668 1.1576539278030396 -2.402021646499634
14.508986473083496 1.4448587894439697 -2.402021646499634
14.477578163146973 1.7315058708190918 -2.402021646499634
14.440505027770996 2.0174734592437744 -2.402021646499634
14.397785186767578 2.302647590637207 -2.402021646499634
14.235907554626465 3.152331590652466 -2.402021646499634
14.170790672302246 3.4332427978515625 -2.402021646499634
14.10012149810791 3.7128069400787354 -2.402021646499634
13.942275047302246 4.267473220825195 -2.402021884918213
13.762619018554688 4.815460681915283 -2.402021884918213
12.739785194396973 -1.0051612854003906 -2.40202260017395
12.77696704864502 -0.2479693591594696 -2.40202260017395
12.779375076293945 0.004750976338982582 -2.40202260017395
12.776782035827637 0.25746992230415344 -2.40202260017395
12.76919174194336 0.5100880265235901 -2.40202260017395
12.739032745361328 1.0146293640136719 -2.40202260017395
12.71648120880127 1.2663575410842896 -2.40202260017395
12.576630592346191 2.2673258781433105 -2.40202260017395
12.47713565826416 2.7628772258758545 -2.40202260017395
12.420056343078613 3.009082078933716 -2.40202260017395
12.21977710723877 3.7402501106262207 -2.4020228385925293
11.328330039978027 -0.8937963843345642 -2.4020233154296875
11.354814529418945 -0.4451354742050171 -2.4020233154296875
11.361395835876465 -0.2204965204000473 -2.4020233154296875
11.36122989654541 0.2289445400238037 -2.4020233154296875
11.343290328979492 0.6780332922935486 -2.4020233154296875
11.307604789733887 1.1260560750961304 -2.4020233154296875
11.18325424194336 2.0161244869232178 -2.4020233154296875
11.14119815826416 2.2368886470794678 -2.4020233154296875
11.0947847366333 2.4567761421203613 -2.4020233154296875
10.988954544067383 2.893583297729492 -2.4020233154296875
10.929582595825195 3.1103296279907227 -2.4020233154296875
10.725919723510742 3.7529375553131104 -2.4020235538482666
10.148957252502441 -1.2061543464660645 -2.4020237922668457
10.170822143554688 -1.0052162408828735 -2.4020237922668457
10.188715934753418 -0.8038823008537292 -2.4020237922668457
10.202619552612305 -0.6022364497184753 -2.4020237922668457
10.220377922058105 0.0037991332355886698 -2.4020237922668457
10.212231636047363 0.40794631838798523 -2.4020237922668457
10.188115119934082 0.8114570379257202 -2.4020237922668457
10.170072555541992 1.0127756595611572 -2.4020237922668457
10.148056030273438 1.2136991024017334 -2.4020237922668457
10.09212589263916 1.6140403747558594 -2.4020237922668457
10.058232307434082 1.813307285308838 -2.4020237922668457
9.883479118347168 2.6024913787841797 -2.402024030685425
9.711770057678223 3.183964252471924 -2.402024030685425
9.646903991699219 3.3753960132598877 -2.402024030685425
9.212336540222168 -1.094840407371521 -2.402024269104004
9.248425483703613 -0.7296881079673767 -2.402024269104004
9.261052131652832 -0.5466543436050415 -2.402024269104004
9.27004623413086 -0.3634049892425537 -2.402024269104004
9.275420188903809 -0.18000639975070953 -2.402024269104004
9.260642051696777 0.553543210029602 -2.402024269104004
9.247882843017578 0.7365699410438538 -2.402024269104004
9.23150634765625 0.9193094968795776 -2.402024269104004
9.211523056030273 1.1016907691955566 -2.402024269104004
9.160754203796387 1.4650858640670776 -2.402024269104004
9.129987716674805 1.6459611654281616 -2.402024269104004
9.095648765563965 1.8261909484863281 -2.402024269104004
8.971364974975586 2.3623154163360596 -2.402024507522583
8.922887802124023 2.5392673015594482 -2.402024507522583
8.870929718017578 2.715228796005249 -2.402024507522583
8.756621360778809 3.0638909339904785 -2.402024507522583
8.443788528442383 -0.8345258831977844 -2.402024745941162
8.484929084777832 0.003156585618853569 -2.402024745941162
8.47817611694336 0.33868056535720825 -2.402024745941162
8.424895286560059 1.007612705230713 -2.402024745941162
8.403315544128418 1.174024224281311 -2.402024745941162
8.350317001342773 1.5054044723510742 -2.402024745941162
8.318915367126465 1.6702420711517334 -2.402024745941162
8.246367454528809 1.99790358543396 -2.402024745941162
8.113390922546387 2.4833579063415527 -2.402024745941162
7.754897117614746 -0.9216317534446716 -2.4020254611968994
7.795900821685791 -0.4601156413555145 -2.402024984359741
7.803476333618164 -0.3059724271297455 -2.402024984359741
7.808000087738037 -0.1515350341796875 -2.402024984359741
7.809470176696777 0.0029026793781667948 -2.402024984359741
7.807883262634277 0.15733841061592102 -2.402024984359741
7.803246974945068 0.31119611859321594 -2.402024984359741
7.795556545257568 0.46592971682548523 -2.402024984359741
7.771035194396973 0.7738694548606873 -2.4020252227783203
7.711474418640137 1.233302116394043 -2.4020256996154785
7.68557596206665 1.3853541612625122 -2.4020259380340576
7.624777793884277 1.6883909702301025 -2.402026414871216
7.589894771575928 1.8388493061065674 -2.402026653289795
7.552050590515137 1.9885859489440918 -2.402026891708374
7.420848369598389 2.432893991470337 -2.4020276069641113
7.224730014801025 0.14545059204101562 -2.402028799057007
7.190630912780762 0.7160618305206299 -2.402028799057007
7.175063133239746 0.8581327795982361 -2.402029037475586
7.135520935058594 1.1411890983581543 -2.402029275894165
7.084810733795166 1.4224629402160645 -2.402029275894165
7.055296421051025 1.5622904300689697 -2.402029514312744
7.023022174835205 1.7015104293823242 -2.402029514312744
6.988001346588135 1.8400046825408936 -2.4020297527313232
6.90977144241333 2.1149535179138184 -2.4020299911499023
6.866597652435303 2.251185417175293 -2.4020299911499023
6.820735931396484 2.3865339756011963 -2.4020302295684814
6.696141242980957 -0.5282977223396301 -2.4020304679870605
6.705283164978027 -0.39571699500083923 -2.4020304679870605
6.715685844421387 -0.1303330957889557 -2.4020304679870605
6.716949462890625 0.0024638366885483265 -2.4020304679870605
6.704980373382568 0.4008009135723114 -2.4020304679870605
6.55809211730957 1.4521925449371338 -2.4020307064056396
6.460443019866943 1.8385059833526611 -2.4020309448242188
6.422823429107666 1.9659082889556885 -2.4020309448242188
6.382688045501709 2.0925378799438477 -2.4020309448242188
6.340059757232666 2.2183053493499756 -2.4020309448242188
6.237662315368652 -0.6165257096290588 -2.4020309448242188
6.248633861541748 -0.4930271804332733 -2.4020309448242188
6.257161617279053 -0.3693908751010895 -2.4020309448242188
6.266873836517334 -0.12162460386753082 -2.4020309448242188
6.26677942276001 0.1262846291065216 -2.4020309448242188
6.248266696929932 0.4976591467857361 -2.4020309448242188
6.207762241363525 0.8672404289245605 -2.4020309448242188
6.16860818862915 1.112082600593567 -2.4020309448242188
6.145411014556885 1.2338535785675049 -2.4020309448242188
6.119810581207275 1.3551417589187622 -2.4020309448242188
6.091814041137695 1.475900650024414 -2.4020309448242188
6.061436653137207 1.5960816144943237 -2.4020309448242188
6.028685092926025 1.7156379222869873 -2.4020309448242188
5.95612907409668 1.9526886940002441 -2.4020309448242188
5.840530872344971 -0.5772390365600586 -2.4020309448242188
5.850809097290039 -0.46162474155426025 -2.4020309448242188
5.85879373550415 -0.34583067893981934 -2.4020309448242188
5.867885589599609 -0.1138816773891449 -2.4020309448242188
5.867798805236816 0.1182444766163826 -2.4020309448242188
5.864312648773193 0.2342607080936432 -2.4020309448242188
5.85853385925293 0.35018661618232727 -2.4020309448242188
5.850462436676025 0.46597427129745483 -2.4020309448242188
5.840103626251221 0.5815803408622742 -2.4020309448242188
5.812537670135498 0.8120652437210083 -2.4020309448242188
5.79534387588501 0.9268534779548645 -2.4020309448242188
5.775879859924316 1.0412827730178833 -2.4020309448242188
5.754158973693848 1.1552976369857788 -2.4020309448242188
5.675530910491943 1.494465708732605 -2.4020309448242188
5.644864559173584 1.6064096689224243 -2.4020309448242188
5.473044395446777 -0.6504446268081665 -2.4020309448242188
5.484837532043457 -0.5420845150947571 -2.4020309448242188
5.494484901428223 -0.43348661065101624 -2.4020309448242188
5.507330417633057 -0.21588240563869476 -2.4020309448242188
5.510522365570068 -0.1069476306438446 -2.4020309448242188
5.510440349578857 0.11103835701942444 -2.4020309448242188
5.507166862487793 0.21997451782226562 -2.4020309448242188
5.501739501953125 0.32883498072624207 -2.4020309448242188
5.494161128997803 0.43761610984802246 -2.4020309448242188
5.458544731140137 0.76260906457901 -2.4020309448242188
5.44239616394043 0.8704063296318054 -2.4020309448242188
5.42411994934082 0.9778650999069214 -2.4020309448242188
5.403721809387207 1.0849391222000122 -2.4020309448242188
5.329880237579346 1.4034507274627686 -2.4020309448242188
5.301084041595459 1.5085939168930054 -2.4020309448242188
5.270213603973389 1.6131561994552612 -2.4020309448242188
5.185281753540039 -0.2032751441001892 -2.4020309448242188
5.188288688659668 -0.10069198161363602 -2.4020309448242188
5.188209056854248 0.10454971343278885 -2.4020309448242188
5.185125827789307 0.20712906122207642 -2.4020309448242188
5.180015563964844 0.30962935090065 -2.4020309448242188
5.172879695892334 0.412006676197052 -2.4020309448242188
5.043355464935303 1.221389889717102 -2.4020309448242188
5.018205642700195 1.3213810920715332 -2.4020309448242188
4.991092205047607 1.420364499092102 -2.4020309448242188
4.898089408874512 1.7138530015945435 -2.4020309448242188
4.888364315032959 -0.2885858118534088 -2.4020309448242188
4.895952224731445 -0.09501601755619049 -2.4020309448242188
4.892970085144043 0.1954505890607834 -2.4020309448242188
4.888146877288818 0.29214033484458923 -2.4020309448242188
4.819184303283691 0.868816077709198 -2.4020309448242188
4.801060676574707 0.963947594165802 -2.4020309448242188
4.73545503616333 1.2469334602355957 -2.4020309448242188
4.709869384765625 1.3403428792953491 -2.4020309448242188
4.622105598449707 1.6172525882720947 -2.4020309448242188
4.607709884643555 -0.45539459586143494 -2.4020309448242188
4.615814208984375 -0.3641839623451233 -2.4020309448242188
4.626605033874512 -0.1813737452030182 -2.4020309448242188
4.626468181610107 0.18481308221817017 -2.4020309448242188
4.615540504455566 0.3676164150238037 -2.4020309448242188
4.585622310638428 0.6406632661819458 -2.4020309448242188
4.572058200836182 0.7312180995941162 -2.4020309448242188
4.520651817321777 1.0010414123535156 -2.4020309448242188
4.499974250793457 1.0902396440505981 -2.4020309448242188
4.477532863616943 1.1790146827697754 -2.4020309448242188
4.453343391418457 1.2673331499099731 -2.4020309448242188
4.427409648895264 1.3551533222198486 -2.4020309448242188
4.370357513427734 1.529161810874939 -2.4020309448242188
4.354995250701904 -0.5175665020942688 -2.4020309448242188
4.364376068115234 -0.43134307861328125 -2.4020309448242188
4.372054576873779 -0.34494781494140625 -2.4020309448242188
4.378021240234375 -0.25841888785362244 -2.4020309448242188
4.382275104522705 -0.17178954184055328 -2.4020309448242188
4.384749889373779 0.08836165815591812 -2.4020309448242188
4.382145881652832 0.17506149411201477 -2.4020309448242188
4.377825736999512 0.261686235666275 -2.4020309448242188
4.371795654296875 0.3482099771499634 -2.4020309448242188
4.364055156707764 0.43459945917129517 -2.4020309448242188
4.343455791473389 0.6068254113197327 -2.4020309448242188
4.316062927246094 0.7781040668487549 -2.4020309448242188
4.2623291015625 1.0326606035232544 -2.4020309448242188
4.218160152435303 1.200400471687317 -2.4020309448242188
4.167392253875732 1.3662629127502441 -2.4020309448242188
4.140265941619873 -0.40919461846351624 -2.4020309448242188
4.147550106048584 -0.32723739743232727 -2.4020309448242188
4.157248497009277 -0.1629774421453476 -2.4020309448242188
4.159657955169678 -0.08073089271783829 -2.4020309448242188
4.160439491271973 0.0015489195939153433 -2.4020309448242188
4.15959358215332 0.08382277935743332 -2.4020309448242188
4.157122611999512 0.16606184840202332 -2.4020309448242188
4.153026103973389 0.2482459992170334 -2.4020309448242188
4.079038143157959 0.8189704418182373 -2.4020309448242188
4.043459415435791 0.9796320796012878 -2.4020309448242188
4.02329683303833 1.0594037771224976 -2.4020309448242188
4.001559734344482 1.1387617588043213 -2.4020309448242188
3.9782567024230957 1.2176700830459595 -2.4020309448242188
3.953399658203125 1.296107292175293 -2.4020309448242188
3.9269957542419434 1.3740290403366089 -2.4020309448242188
