ply
format ascii 1.0
element vertex 317
property float x
property float y
property float z
end_header
32.9338264465332 25.286334991455078 7.321359634399414
32.933837890625 28.60974884033203 7.692291259765625
32.933837890625 29.795310974121094 7.83097505569458
32.933841705322266 31.024879455566406 7.978049278259277
32.93385314941406 33.630802154541016 8.29986572265625
32.72283935546875 34.79096603393555 8.421701431274414
32.933876037597656 36.46051788330078 8.663395881652832
6.053848743438721 9.374703407287598 1.9677350521087646
31.306365966796875 24.03678321838379 6.046534061431885
31.30637550354004 26.107772827148438 6.244819164276123
31.03909683227539 28.081127166748047 6.412196636199951
32.933876037597656 35.01533508300781 7.364037990570068
31.306365966796875 24.036779403686523 5.139773368835449
31.30637550354004 26.10777473449707 5.308323860168457
31.20723533630371 27.10983657836914 5.383076190948486
31.306381225585938 28.322933197021484 5.497536659240723
31.291873931884766 29.47808074951172 5.598190784454346
31.095355987548828 30.498815536499023 5.671851634979248
31.1550235748291 31.81432342529297 5.798532962799072
31.306400299072266 36.09527587890625 6.221994400024414
6.053848743438721 9.374704360961914 1.4532045125961304
31.30637550354004 26.107770919799805 4.377311706542969
31.20724105834961 27.10983657836914 4.438952922821045
31.11643409729004 37.37198257446289 5.2219977378845215
6.053848743438721 9.374704360961914 1.198251485824585
30.56952476501465 24.465839385986328 3.31453537940979
30.569530487060547 25.493282318115234 3.36956787109375
30.569530487060547 27.656307220458984 3.4896745681762695
30.549795150756836 28.779008865356445 3.552921772003174
30.56954002380371 29.98308753967285 3.624762535095215
30.56954574584961 31.216449737548828 3.698622941970825
31.116430282592773 37.37198257446289 4.116683483123779
6.053848743438721 9.374703407287598 0.9446772336959839
30.48920249938965 23.40936279296875 2.3836405277252197
30.489208221435547 24.401554107666016 2.421602487564087
30.569530487060547 25.4932804107666 2.4682936668395996
31.716543197631836 38.092735290527344 3.073732852935791
30.489208221435547 24.40156364440918 1.5398445129394531
30.48921775817871 27.583648681640625 1.6212092638015747
30.48922348022461 28.721952438354492 1.6516575813293457
30.489227294921875 29.904315948486328 1.6839677095413208
6.053848743438721 9.374704360961914 0.4400264024734497
30.489208221435547 23.409366607666016 0.6493101119995117
30.489208221435547 24.401567459106445 0.6596510410308838
30.48921775817871 27.583656311035156 0.6945084929466248
30.48922348022461 28.721960067749023 0.7075504660606384
31.715389251708984 38.09135818481445 0.8372626900672913
31.157508850097656 27.0666446685791 -0.23236998915672302
30.48921775817871 27.58365821838379 -0.23148635029792786
31.15750503540039 24.93642234802246 -1.1237082481384277
31.157508850097656 25.983625411987305 -1.1423653364181519
30.48921775817871 27.583646774291992 -1.157706618309021
31.4769287109375 29.65241050720215 -1.2176600694656372
31.4769287109375 30.873064041137695 -1.2414802312850952
31.71539878845215 38.09135818481445 -1.3956762552261353
30.489286422729492 38.15705108642578 -1.3752857446670532
6.053848743438721 9.374703407287598 -0.3141705393791199
31.157499313354492 23.9224796295166 -1.9921573400497437
31.15750503540039 24.936426162719727 -2.0238842964172363
31.157508850097656 27.0666446685791 -2.0930886268615723
30.48922348022461 27.58365249633789 -2.085127830505371
30.50557518005371 28.737356185913086 -2.1254220008850098
30.50557518005371 29.92034339904785 -2.1669998168945312
30.50557518005371 31.1511173248291 -2.211155891418457
29.7415714263916 32.92637634277344 -2.2501983642578125
28.384809494018555 34.091224670410156 -2.249741554260254
26.271549224853516 35.742061614990234 -2.2496156692504883
6.053848743438721 9.374703407287598 -0.5659438967704773
24.81541633605957 19.053085327148438 -2.2939696311950684
24.80845069885254 19.85505485534668 -2.329848051071167
24.801088333129883 20.682729721069336 -2.3678271770477295
23.845415115356445 22.463233947753906 -2.4020156860351562
23.38790512084961 22.93922233581543 -2.4020156860351562
22.92085075378418 23.405902862548828 -2.4020156860351562
22.44452667236328 23.86304473876953 -2.4020156860351562
21.95907974243164 24.310510635375977 -2.4020156860351562
19.93008041381836 25.999881744384766 -2.4020156860351562
18.866193771362305 26.781871795654297 -2.4020156860351562
18.322649002075195 27.15662384033203 -2.4020156860351562
6.053848743438721 9.374704360961914 -0.8182363510131836
19.533910751342773 15.633655548095703 -2.4020156860351562
17.50539779663086 17.87584114074707 -2.4020156860351562
16.770858764648438 18.566730499267578 -2.4020156860351562
14.408722877502441 20.45417594909668 -2.4020156860351562
6.053848743438721 9.374704360961914 -1.0713660717010498
13.146464347839355 21.28743553161621 -2.4020156860351562
12.71480941772461 21.548059463500977 -2.4020156860351562
16.039104461669922 12.314697265625 -2.4020156860351562
15.787675857543945 12.635420799255371 -2.4020156860351562
15.529829025268555 12.95101547241211 -2.4020156860351562
15.2656831741333 13.2613525390625 -2.4020156860351562
14.995328903198242 13.566302299499512 -2.4020156860351562
14.436484336853027 14.159533500671387 -2.4020156860351562
13.85416030883789 14.729775428771973 -2.4020156860351562
13.554518699645996 15.005977630615234 -2.4020156860351562
13.24935245513916 15.276090621948242 -2.4020156860351562
12.93881607055664 15.539996147155762 -2.4020156860351562
12.623017311096191 15.797591209411621 -2.4020156860351562
12.302099227905273 16.048768997192383 -2.4020156860351562
11.645407676696777 16.531461715698242 -2.4020156860351562
11.309892654418945 16.762779235839844 -2.4020156860351562
6.053848743438721 9.374703407287598 -1.3255890607833862
10.625226974487305 17.204914093017578 -2.4020156860351562
10.276347160339355 17.415546417236328 -2.4020156860351562
9.923297882080078 17.619102478027344 -2.4020156860351562
13.446450233459473 10.32408332824707 -2.4020156860351562
13.019514083862305 10.857542037963867 -2.4020156860351562
12.798056602478027 11.117715835571289 -2.4020156860351562
12.571403503417969 11.373372077941895 -2.4020156860351562
12.339655876159668 11.62440299987793 -2.4020156860351562
11.107666015625 12.806780815124512 -2.4020156860351562
10.582565307617188 13.243983268737793 -2.4020156860351562
9.76297378540039 13.859224319458008 -2.4020156860351562
9.481698989868164 14.053156852722168 -2.4020156860351562
8.342538833618164 13.508675575256348 -2.2496156692504883
8.068613052368164 13.674053192138672 -2.2496156692504883
7.79141092300415 13.833877563476562 -2.2496156692504883
11.565068244934082 8.879570007324219 -2.40201735496521
11.383756637573242 9.110822677612305 -2.4020164012908936
11.197854042053223 9.338385581970215 -2.4020159244537354
11.00738525390625 9.562154769897461 -2.4020156860351562
10.409489631652832 10.209792137145996 -2.4020156860351562
9.989614486694336 10.620966911315918 -2.4020156860351562
9.773550033569336 10.820122718811035 -2.4020156860351562
9.553507804870605 11.014885902404785 -2.4020156860351562
7.864208698272705 11.163787841796875 -2.2496156692504883
7.637636661529541 11.320002555847168 -2.2496156692504883
6.701148509979248 11.898083686828613 -2.2495787143707275
9.97738265991211 7.985240459442139 -2.4020209312438965
9.64748764038086 8.380805015563965 -2.4020183086395264
9.123449325561523 8.948421478271484 -2.4020161628723145
8.199943542480469 8.718192100524902 -2.249617338180542
8.022600173950195 8.881661415100098 -2.249617099761963
7.841972351074219 9.041536331176758 -2.249616861343384
7.658164024353027 9.197737693786621 -2.249616861343384
7.281300067901611 9.49886703491211 -2.2496163845062256
6.694047927856445 9.921475410461426 -2.2496161460876465
6.084784030914307 10.312012672424316 -2.2505300045013428
9.01327896118164 6.920322895050049 -2.402024269104004
8.871987342834473 7.100556373596191 -2.402024269104004
8.727089881896973 7.277907371520996 -2.402024030685425
8.578644752502441 7.452298641204834 -2.4020228385925293
8.426715850830078 7.623662948608398 -2.402021646499634
8.271367073059082 7.791928768157959 -2.4020206928253174
8.112666130065918 7.95703125 -2.4020204544067383
7.446230411529541 7.603806018829346 -2.2496249675750732
7.29150390625 7.75230073928833 -2.2496249675750732
7.1337890625 7.897675514221191 -2.2496249675750732
6.80973482131958 8.17873764038086 -2.2496252059936523
6.643527507781982 8.314312934875488 -2.2496254444122314
6.474627494812012 8.446508407592773 -2.2496254444122314
6.303098201751709 8.575270652770996 -2.2496256828308105
6.12900972366333 8.700551986694336 -2.2496259212493896
5.952431678771973 8.82229995727539 -2.2496261596679688
5.773431301116943 8.940464973449707 -2.249626874923706
5.59208869934082 9.055002212524414 -2.2496275901794434
5.225230693817139 9.277548789978027 -2.2507338523864746
8.106550216674805 6.224147796630859 -2.402024745941162
7.979475021362305 6.386250019073486 -2.402024745941162
7.715651512145996 6.70261287689209 -2.4020254611968994
7.579010963439941 6.856746673583984 -2.402026653289795
7.439296722412109 7.008087158203125 -2.402027130126953
6.956357479095459 7.103568077087402 -2.33669376373291
6.557985782623291 6.97245979309082 -2.2496299743652344
5.975209712982178 7.4779205322265625 -2.2496306896209717
5.512448787689209 7.82529878616333 -2.249630928039551
5.353635311126709 7.93479585647583 -2.249630928039551
5.192638874053955 8.041077613830566 -2.249630928039551
4.864395618438721 8.243789672851562 -2.249630928039551
4.697275161743164 8.3401460647583 -2.249630928039551
7.124792098999023 5.941680908203125 -2.402029275894165
7.003603458404541 6.084054946899414 -2.4020297527313232
6.879571437835693 6.223960876464844 -2.4020299911499023
6.752753734588623 6.361340045928955 -2.4020304679870605
6.623191833496094 6.49613094329834 -2.4020304679870605
5.692899227142334 6.563729286193848 -2.249630928039551
5.559463977813721 6.677120685577393 -2.249630928039551
5.285883903503418 6.895735263824463 -2.249630928039551
5.145844459533691 7.000846862792969 -2.249630928039551
4.71342658996582 7.298990726470947 -2.249630928039551
4.565373420715332 7.3924880027771 -2.249630928039551
6.516366958618164 5.4342875480651855 -2.4020307064056396
6.405529499053955 5.564505577087402 -2.4020309448242188
6.2920823097229 5.692458152770996 -2.4020309448242188
6.057590007781982 5.941380023956299 -2.4020309448242188
5.813251972198486 6.180655479431152 -2.4020309448242188
5.2571702003479 6.3140549659729 -2.325935125350952
5.016188621520996 6.277711868286133 -2.274839162826538
4.709954738616943 6.40782356262207 -2.251326560974121
4.576423168182373 6.496548175811768 -2.249630928039551
4.444567680358887 6.587444305419922 -2.249630928039551
4.040435791015625 6.847412586212158 -2.2507598400115967
5.997613430023193 5.001676082611084 -2.4020309448242188
5.895599365234375 5.121527671813965 -2.4020309448242188
5.791188716888428 5.2392988204956055 -2.4020309448242188
5.350474834442139 5.688632011413574 -2.4020309448242188
5.116896629333496 5.899618625640869 -2.4020309448242188
4.751064300537109 6.198026180267334 -2.4020309448242188
4.565585613250732 6.211413383483887 -2.3710737228393555
4.376122951507568 6.212208271026611 -2.337231397628784
3.851259708404541 6.2361602783203125 -2.2544031143188477
3.5892210006713867 6.372766494750977 -2.249630928039551
5.549655437469482 4.628104209899902 -2.4020309448242188
5.358651161193848 4.847979545593262 -2.4020309448242188
5.259864330291748 4.954967021942139 -2.4020309448242188
4.843770503997803 5.362453460693359 -2.4020309448242188
4.734717845916748 5.458980083465576 -2.4020309448242188
4.510894775390625 5.6453423500061035 -2.4020309448242188
4.396212100982666 5.735100746154785 -2.4020309448242188
4.041640758514404 5.990255832672119 -2.4020309448242188
3.796971321105957 6.148253440856934 -2.4020309448242188
3.659761905670166 6.202277183532715 -2.3938307762145996
5.327720642089844 4.090580463409424 -2.4020309448242188
5.244202613830566 4.197115898132324 -2.4020309448242188
5.158554553985596 4.30194616317749 -2.4020309448242188
4.980994701385498 4.505890369415283 -2.4020309448242188
4.889185905456543 4.605790138244629 -2.4020309448242188
4.699616432189941 4.799066543579102 -2.4020309448242188
4.601950645446777 4.892800331115723 -2.4020309448242188
4.502417087554932 4.984546184539795 -2.4020309448242188
4.401049613952637 5.0742692947387695 -2.4020309448242188
4.297895431518555 5.16193151473999 -2.4020309448242188
4.086396217346191 5.330930233001709 -2.4020309448242188
3.8682615756988525 5.491265773773193 -2.4020309448242188
3.7568137645721436 5.5681047439575195 -2.4020309448242188
3.6438426971435547 5.642683029174805 -2.4020309448242188
3.529388427734375 5.714968681335449 -2.4020309448242188
3.4135007858276367 5.784931659698486 -2.4020309448242188
3.2962279319763184 5.852547645568848 -2.4020309448242188
4.648123741149902 4.205165863037109 -2.4020309448242188
4.562436580657959 4.297981262207031 -2.4020309448242188
4.294399261474609 4.565809726715088 -2.4020309448242188
4.106925010681152 4.735152244567871 -2.4020309448242188
4.010663986206055 4.816956043243408 -2.4020309448242188
3.8133018016815186 4.974660396575928 -2.4020309448242188
3.7122740745544434 5.05049467086792 -2.4020309448242188
3.505739688873291 5.19598388671875 -2.4020309448242188
3.4003210067749023 5.265577793121338 -2.4020309448242188
3.185373544692993 5.398321628570557 -2.4020309448242188
4.65513801574707 3.5741777420043945 -2.4020309448242188
4.58216667175293 3.6672656536102295 -2.4020309448242188
4.507330417633057 3.758866548538208 -2.4020309448242188
4.352197170257568 3.9374401569366455 -2.4020309448242188
4.271965026855469 4.024346828460693 -2.4020309448242188
4.190000057220459 4.109619140625 -2.4020309448242188
4.106328010559082 4.1932244300842285 -2.4020309448242188
3.9340221881866455 4.355288028717041 -2.4020309448242188
3.8454527854919434 4.433684825897217 -2.4020309448242188
3.5705223083496094 4.657943248748779 -2.4020309448242188
3.475928783416748 4.728950500488281 -2.4020309448242188
3.282546281814575 4.865175724029541 -2.4020309448242188
3.083831787109375 4.993500232696533 -2.4020309448242188
4.371633052825928 3.3565056324005127 -2.4020309448242188
3.9348227977752686 3.8593363761901855 -2.4020309448242188
3.611259698867798 4.163665771484375 -2.4020309448242188
3.4405431747436523 4.305805683135986 -2.4020309448242188
3.1740832328796387 4.505830764770508 -2.4020309448242188
2.7047033309936523 4.802279949188232 -2.4020309448242188
4.115993499755859 3.1602275371551514 -2.4020309448242188
3.9853038787841797 3.323521614074707 -2.4020309448242188
3.8481383323669434 3.481417655944824 -2.4020309448242188
3.6307456493377686 3.70757794380188 -2.4020309448242188
3.5552916526794434 3.7799906730651855 -2.4020309448242188
3.478395938873291 3.8508715629577637 -2.4020309448242188
3.239351749420166 4.05401611328125 -2.4020309448242188
3.156994581222534 4.118472576141357 -2.4020309448242188
2.988471508026123 4.242342472076416 -2.4020309448242188
2.726670980453491 4.415168285369873 -2.4020309448242188
3.6967833042144775 3.2114098072052 -2.4020309448242188
3.631314516067505 3.285256862640381 -2.4020309448242188
3.564373731613159 3.357769727706909 -2.4020309448242188
3.426170587539673 3.4986748695373535 -2.4020309448242188
3.0568296909332275 3.825592517852783 -2.4020309448242188
2.9791150093078613 3.886418342590332 -2.4020309448242188
2.820086717605591 4.0033087730407715 -2.4020309448242188
2.738837718963623 4.059326648712158 -2.4020309448242188
2.5730371475219727 4.166395664215088 -2.4020309448242188
3.614957094192505 2.893174409866333 -2.4020309448242188
3.4954333305358887 3.0364952087402344 -2.4020309448242188
3.3702330589294434 3.1748833656311035 -2.4020309448242188
3.3055713176727295 3.242156982421875 -2.4020309448242188
3.1722373962402344 3.372727632522583 -2.4020309448242188
3.1036267280578613 3.435969114303589 -2.4020309448242188
3.03375244140625 3.4978184700012207 -2.4020309448242188
2.9626452922821045 3.558246374130249 -2.4020309448242188
2.890336751937866 3.617227792739868 -2.4020309448242188
2.742227792739868 3.730760335922241 -2.4020309448242188
2.6664879322052 3.785264253616333 -2.4020309448242188
2.5896642208099365 3.838231086730957 -2.4020309448242188
2.5117883682250977 3.889638662338257 -2.4020309448242188
2.4328930377960205 3.9394683837890625 -2.4020309448242188
2.3530113697052 3.987696409225464 -2.4020309448242188
2.2721714973449707 4.034306049346924 -2.4020309448242188
3.424051523208618 2.7403857707977295 -2.4020309448242188
3.3108410835266113 2.8761401176452637 -2.4020309448242188
3.1922521591186523 3.007219076156616 -2.4020309448242188
3.06847882270813 3.1334142684936523 -2.4020309448242188
3.004711866378784 3.194612979888916 -2.4020309448242188
2.939722776412964 3.2545158863067627 -2.4020309448242188
2.806187629699707 3.370335102081299 -2.4020309448242188
2.737696409225464 3.4262030124664307 -2.4020309448242188
2.668095588684082 3.4806768894195557 -2.4020309448242188
2.5974109172821045 3.533738851547241 -2.4020309448242188
2.452903985977173 3.635533332824707 -2.4020309448242188
2.3791418075561523 3.684227228164673 -2.4020309448242188
3.299957275390625 2.533681631088257 -2.4020309448242188
3.140828847885132 2.728449583053589 -2.4020309448242188
3.085207462310791 2.7911925315856934 -2.4020309448242188
2.9702281951904297 2.9132463932037354 -2.4020309448242188
2.910911798477173 2.9725139141082764 -2.4020309448242188
2.725985050201416 3.142972230911255 -2.4020309448242188
2.5971179008483887 3.2502684593200684 -2.4020309448242188
2.395977735519409 3.401257276535034 -2.4020309448242188
2.32694935798645 3.44884991645813 -2.4020309448242188
2.256974935531616 3.495044469833374 -2.4020309448242188
2.11430287361145 3.583153009414673 -2.4020309448242188
2.041663885116577 3.625034809112549 -2.4020309448242188
