ply
format ascii 1.0
element vertex 291
property float x
property float y
property float z
end_header
1.5976183414459229 19.47943878173828 3.446284055709839
0.8018688559532166 19.583768844604492 3.4560399055480957
0.4054040312767029 19.804018020629883 3.4927148818969727
3.300055980682373 19.984813690185547 3.103022336959839
2.800562620162964 19.42361831665039 3.0063602924346924
0.0002514648367650807 18.713884353637695 2.8668627738952637
-0.3849877715110779 18.831262588500977 2.885446786880493
2.392369270324707 19.39306640625 2.544525623321533
1.1583434343338013 18.84862518310547 2.4591150283813477
1.1733934879302979 19.09358787536621 2.0541722774505615
0.7854943871498108 19.183889389038086 2.0617270469665527
0.3995751738548279 19.519289016723633 2.0964558124542236
-0.8773314952850342 21.440776824951172 2.3042759895324707
2.5739049911499023 17.851600646972656 1.52681565284729
1.8555139303207397 18.07691192626953 1.5383024215698242
1.6326745748519897 19.90682029724121 1.6908271312713623
1.110994815826416 18.078170776367188 1.533254861831665
0.7373901009559631 18.009050369262695 1.525794506072998
0.36540892720222473 17.85000228881836 1.511370062828064
-0.3830932676792145 18.73851203918457 1.5865992307662964
1.5617773532867432 19.042387008666992 1.1847901344299316
0.3915747106075287 19.128244400024414 1.1863975524902344
-0.7627539038658142 18.640703201293945 1.156883716583252
-1.6298364400863647 19.878814697265625 1.2368290424346924
3.3702099323272705 18.09843635559082 0.7259080410003662
2.6820068359375 18.601356506347656 0.7410557270050049
1.2622252702713013 20.53907585144043 0.8114048838615417
0.00030273437732830644 22.47713851928711 0.886296808719635
-0.8234228491783142 20.123376846313477 0.79414963722229
-1.2455151081085205 20.276092529296875 0.801014244556427
-1.6714855432510376 20.386756896972656 0.8065681457519531
-2.082812547683716 20.296630859375 0.8045200705528259
-0.9142040610313416 22.341814041137695 0.37770918011665344
1.2615832090377808 20.52861213684082 -0.11579757183790207
3.929349184036255 31.85216522216797 -0.9036848545074463
1.2612743377685547 20.523447036743164 -0.5789840817451477
1.297369360923767 31.68513298034668 -0.8929297924041748
0.6561022996902466 32.05063247680664 -0.9026628136634827
-0.651074230670929 31.846527099609375 -0.8969134092330933
-1.3074926137924194 31.953269958496094 -0.9004847407341003
-3.2509586811065674 31.679977416992188 -0.8967213034629822
-3.9455766677856445 31.990779876708984 -0.9076136350631714
9.62136173248291 46.37614059448242 -2.4020156860351562
8.120658874511719 43.60894012451172 -2.2496156692504883
6.329233169555664 43.897029876708984 -2.24922776222229
3.9424939155578613 31.958744049072266 -1.6330498456954956
1.2980859279632568 31.702743530273438 -1.6091288328170776
0.6577441096305847 32.13069534301758 -1.6298247575759888
0.0004321289015933871 31.986783981323242 -1.6221858263015747
-1.9474706649780273 31.703330993652344 -1.6108412742614746
-2.623732805252075 32.00120162963867 -1.628363013267517
-3.2626190185546875 31.793617248535156 -1.620857834815979
-4.583217620849609 31.793441772460938 -1.629048466682434
-5.280937194824219 31.986167907714844 -1.6441155672073364
3.124994993209839 16.781614303588867 -1.2516155242919922
3.1206066608428955 18.89805793762207 -1.4044311046600342
3.7516820430755615 30.411943435668945 -2.2467727661132812
2.454897403717041 29.932008743286133 -2.2020480632781982
1.2286717891693115 30.007368087768555 -2.2020480632781982
0.6146606206893921 30.026220321655273 -2.2020480632781982
0.0004040527273900807 30.03250503540039 -2.2020480632781982
-0.6138549447059631 30.026235580444336 -2.2020480632781982
-1.4113012552261353 22.974918365478516 -1.687746286392212
-1.414223551750183 17.248987197875977 -1.2689757347106934
-3.065796375274658 29.8756160736084 -2.2020480632781982
3.1206066608428955 16.75804901123047 -1.636464238166809
2.0672497749328613 16.757593154907227 -1.621008276939392
1.3737231492996216 16.749528884887695 -1.6134387254714966
1.0290942192077637 16.745521545410156 -1.610687494277954
0.00022338866256177425 16.733558654785156 -1.6065059900283813
-0.6843896508216858 16.72559928894043 -1.6070858240127563
-2.382791757583618 23.219961166381836 -2.2409398555755615
-2.8566508293151855 23.161710739135742 -2.2404897212982178
-3.8000073432922363 23.016315460205078 -2.239593029022217
4.221066951751709 18.441274642944336 -2.2472145557403564
3.842386484146118 18.520780563354492 -2.246854543685913
2.768498420715332 16.765745162963867 -2.0185039043426514
2.067247152328491 16.757593154907227 -2.005655527114868
1.3737231492996216 16.749528884887695 -1.996288537979126
0.6854894757270813 16.741527557373047 -1.9903130531311035
0.3426281809806824 16.737539291381836 -1.9886010885238647
0.00022338866256177425 16.733558654785156 -1.9877113103866577
-0.6843896508216858 16.72559928894043 -1.9884302616119385
-1.0271753072738647 16.72161293029785 -1.990037441253662
-1.9261974096298218 18.77043342590332 -2.2413723468780518
3.220430850982666 15.522889137268066 -2.246262311935425
2.901867628097534 15.583413124084473 -2.245959520339966
2.2614903450012207 15.68480396270752 -2.2453510761260986
1.617681860923767 15.759876251220703 -2.244739294052124
1.2948229312896729 15.787508010864258 -2.244432210922241
0.97151118516922 15.808526039123535 -2.2441251277923584
0.6478771567344666 15.822917938232422 -2.2438175678253174
-0.3235534727573395 15.82635498046875 -2.242894172668457
-0.9702855944633484 15.795551300048828 -2.242279529571533
-1.6149975061416626 15.738344192504883 -2.2416670322418213
-1.9362890720367432 15.699882507324219 -2.2413618564605713
-2.5760960578918457 15.603324890136719 -2.2407546043395996
3.0421056747436523 13.29055404663086 -2.246098041534424
1.5539355278015137 8.344808578491211 -1.3983478546142578
1.6683251857757568 13.523829460144043 -2.244792938232422
1.1135729551315308 13.577556610107422 -2.2442662715911865
0.8355346322059631 13.595894813537598 -2.244002103805542
0.00011840819934150204 8.369096755981445 -1.3787178993225098
-0.5565820336341858 13.602134704589844 -2.242680072784424
-0.8345776200294495 13.586301803588867 -2.2424161434173584
-1.3892138004302979 13.53762435913086 -2.241889238357544
-1.6656126976013184 13.504796028137207 -2.241626739501953
1.934627652168274 8.452106475830078 -1.6297494173049927
1.945992350578308 11.784741401672363 -2.2450666427612305
1.219246745109558 11.878247261047363 -2.2443764209747314
0.9759460091590881 11.899473190307617 -2.244145393371582
0.7322766184806824 11.915716171264648 -2.2439138889312744
0.34541013836860657 8.435664176940918 -1.5869026184082031
0.00011840819934150204 8.369096755981445 -1.5730613470077515
-0.48783689737319946 11.922059059143066 -2.242755889892578
-0.7315039038658142 11.908360481262207 -2.2425248622894287
-0.9748217463493347 11.889688491821289 -2.2422940731048584
-1.043115258216858 8.457626342773438 -1.6017462015151978
-1.7016063928604126 11.803899765014648 -2.241604804992676
-1.379433512687683 8.355145454406738 -1.5916985273361206
2.3750853538513184 10.376394271850586 -2.25008487701416
1.5539379119873047 8.344806671142578 -1.7942461967468262
1.7340221405029297 10.500980377197266 -2.2497551441192627
1.518792748451233 10.533823013305664 -2.249664306640625
1.3032042980194092 10.561027526855469 -2.2493088245391846
1.0860131978988647 10.580427169799805 -2.2482407093048096
0.869063675403595 10.595518112182617 -2.247199296951294
0.6521984934806824 10.60718822479248 -2.246375322341919
0.43465086817741394 10.615113258361816 -2.245701551437378
0.17154540121555328 8.37963581085205 -1.7716573476791382
-0.21705566346645355 10.616703033447266 -2.244626522064209
-0.4341369569301605 10.60988712310791 -2.244594097137451
-0.650958240032196 10.599405288696289 -2.2447245121002197
-1.3003381490707397 10.545751571655273 -2.246049404144287
1.9467028379440308 9.383355140686035 -2.2522637844085693
1.5611767768859863 9.454327583312988 -2.2520742416381836
1.3674267530441284 9.483936309814453 -2.2519924640655518
0.9783520102500916 9.531346321105957 -2.2518551349639893
0.7831786870956421 9.549125671386719 -2.2517995834350586
-0.19582396745681763 9.578569412231445 -2.2516543865203857
-0.3916967809200287 9.57254695892334 -2.2516517639160156
-0.5874059796333313 9.562561988830566 -2.2516582012176514
-0.7828783988952637 9.54861068725586 -2.251673460006714
-1.1727709770202637 9.508845329284668 -2.25173020362854
-1.367040991783142 9.483044624328613 -2.251772165298462
-1.3794360160827637 8.355143547058105 -1.9902337789535522
1.942604899406433 8.486990928649902 -2.2542614936828613
1.4183056354522705 8.589116096496582 -2.25399112701416
1.2422924041748047 8.616043090820312 -2.2539169788360596
1.065771460533142 8.639395713806152 -2.2538504600524902
0.888824462890625 8.659163475036621 -2.2537920475006104
0.5339148044586182 8.687911033630371 -2.2536990642547607
0.35609984397888184 8.696881294250488 -2.25366473197937
0.17154540121555328 8.37963581085205 -2.1700901985168457
0.00011840819934150204 8.369096755981445 -2.1669063568115234
-0.17790770530700684 8.702139854431152 -2.2536094188690186
-0.7112463116645813 8.674917221069336 -2.253626823425293
-1.0654613971710205 8.638769149780273 -2.253678560256958
-1.379433512687683 8.355145454406738 -2.1925790309906006
1.6166112422943115 7.792266845703125 -2.2529096603393555
1.456936001777649 7.82392692565918 -2.252974271774292
1.1357799768447876 7.87733268737793 -2.2530786991119385
0.6505895853042603 7.932496070861816 -2.2531723976135254
0.48820799589157104 7.944185733795166 -2.2531867027282715
0.32562255859375 7.952531337738037 -2.253192663192749
0.00010620117245707661 7.959152698516846 -2.2531790733337402
-0.16268065571784973 7.957420349121094 -2.253159523010254
-0.48797607421875 7.943881511688232 -2.2530953884124756
-0.650341808795929 7.932083606719971 -2.2530505657196045
-0.8124254941940308 7.916927337646484 -2.252997398376465
-0.9741552472114563 7.898446083068848 -2.2529358863830566
-1.2962853908538818 7.851481914520264 -2.2527880668640137
1.4868700504302979 7.166903972625732 -2.251325845718384
1.3400061130523682 7.196008205413818 -2.25138521194458
1.1925694942474365 7.222076416015625 -2.251437187194824
0.7474609017372131 7.281970500946045 -2.2515463829040527
0.5983691215515137 7.295803546905518 -2.2515673637390137
0.44902342557907104 7.306560039520264 -2.2515804767608643
0.14982177317142487 7.318821430206299 -2.2515835762023926
9.765624417923391e-05 7.320321083068848 -2.251573324203491
-0.1496252417564392 7.318733215332031 -2.2515554428100586
-0.2992822229862213 7.314058780670166 -2.2515296936035156
-0.5981457233428955 7.295456409454346 -2.251455307006836
1.239166259765625 6.654490947723389 -2.2500150203704834
1.1028234958648682 6.678586959838867 -2.2500627040863037
0.6912096738815308 6.733948707580566 -2.2501637935638428
0.5533410310745239 6.746736526489258 -2.25018310546875
0.4152319133281708 6.756680011749268 -2.250195264816284
9.1552734375e-05 6.769405841827393 -2.2501885890960693
-0.1383654773235321 6.767940521240234 -2.2501721382141113
-0.9657531380653381 6.699355125427246 -2.24992299079895
-1.1025439500808716 6.678003311157227 -2.249856472015381
1.4255212545394897 6.227916240692139 -2.284745454788208
1.2924718856811523 6.229983329772949 -2.275327682495117
1.160500407218933 6.231870651245117 -2.266871690750122
1.0298839807510376 6.236874103546143 -2.2605555057525635
0.7707006931304932 6.247112274169922 -2.250947952270508
0.6423449516296387 6.257904529571533 -2.249630928039551
0.5142163038253784 6.2697343826293945 -2.249630928039551
0.3858703672885895 6.278940677642822 -2.249630928039551
0.25736328959465027 6.285519123077393 -2.249630928039551
0.1287499964237213 6.289468288421631 -2.249630928039551
-0.2571972608566284 6.285526752471924 -2.249630928039551
-0.5140490531921387 6.269750118255615 -2.249630928039551
-0.9003381133079529 6.245577812194824 -2.2565503120422363
-1.0303210020065308 6.240562438964844 -2.2618820667266846
1.2732775211334229 6.137362957000732 -2.4020309448242188
1.1474840641021729 6.162123680114746 -2.4020309448242188
1.0212279558181763 6.184303283691406 -2.4020309448242188
0.7659399509429932 6.208674907684326 -2.3973124027252197
0.6374194025993347 6.20992374420166 -2.392258644104004
0.38175168633461 6.21189022064209 -2.3849995136260986
0.25437742471694946 6.212610721588135 -2.382779836654663
0.12718871235847473 6.21315860748291 -2.381493091583252
8.178710413631052e-05 6.213534355163574 -2.381138801574707
-0.12703612446784973 6.2137370109558105 -2.381714105606079
-0.7661645412445068 6.212156772613525 -2.398648500442505
-0.8943444490432739 6.203924655914307 -2.4020309448242188
1.309484839439392 5.7210373878479 -2.4020309448242188
0.9562097191810608 5.790574073791504 -2.4020309448242188
0.8375512361526489 5.808920860290527 -2.4020309448242188
0.4797375500202179 5.849350452423096 -2.4020309448242188
0.35999876260757446 5.857939720153809 -2.4020309448242188
0.24010741710662842 5.864077568054199 -2.4020309448242188
-0.8373937606811523 5.8089447021484375 -2.4020309448242188
1.2297496795654297 5.372617244720459 -2.4020309448242188
1.119606852531433 5.396646499633789 -2.4020309448242188
1.0089917182922363 5.4184160232543945 -2.4020309448242188
0.8979541063308716 5.437920570373535 -2.4020309448242188
0.6748022437095642 5.470095634460449 -2.4020309448242188
0.45052245259284973 5.493116855621338 -2.4020309448242188
0.3380749523639679 5.501183986663818 -2.4020309448242188
0.11280272901058197 5.510406970977783 -2.4020309448242188
7.324218313442543e-05 5.511561393737793 -2.4020309448242188
-0.11265625059604645 5.510409832000732 -2.4020309448242188
-0.4503747522830963 5.493129253387451 -2.4020309448242188
-0.5626367330551147 5.4827680587768555 -2.4020309448242188
-0.6746557354927063 5.470114231109619 -2.4020309448242188
-0.7863964438438416 5.455171585083008 -2.4020309448242188
-0.8978075981140137 5.43794584274292 -2.4020309448242188
1.0541393756866455 5.081066608428955 -2.4020309448242188
0.8454455137252808 5.119927406311035 -2.4020309448242188
0.7405505180358887 5.1361494064331055 -2.4020309448242188
0.6353417634963989 5.150221347808838 -2.4020309448242188
0.5298718214035034 5.162139892578125 -2.4020309448242188
0.42418333888053894 5.171896934509277 -2.4020309448242188
0.3183080852031708 5.17949104309082 -2.4020309448242188
0.21229979395866394 5.184917449951172 -2.4020309448242188
0.10620849579572678 5.188177585601807 -2.4020309448242188
-0.2121618539094925 5.18492317199707 -2.4020309448242188
-0.31816405057907104 5.179498672485352 -2.4020309448242188
-0.5297314524650574 5.162153720855713 -2.4020309448242188
-0.6352038383483887 5.150239944458008 -2.4020309448242188
-0.7404077053070068 5.136171340942383 -2.4020309448242188
1.0926024913787842 4.773426532745361 -2.4020309448242188
0.9947436451911926 4.794774055480957 -2.4020309448242188
0.896468460559845 4.814117431640625 -2.4020309448242188
0.7978100180625916 4.831445693969727 -2.4020309448242188
0.5000171065330505 4.871278762817383 -2.4020309448242188
0.20034056901931763 4.8927741050720215 -2.4020309448242188
0.1002221629023552 4.895846843719482 -2.4020309448242188
-0.3002404570579529 4.887660026550293 -2.4020309448242188
-0.40013793110847473 4.880497932434082 -2.4020309448242188
-0.499885231256485 4.8712921142578125 -2.4020309448242188
-0.5994176864624023 4.860048770904541 -2.4020309448242188
-0.6986852884292603 4.846773624420166 -2.4020309448242188
1.0330908298492432 4.513435363769531 -2.4020309448242188
0.9405614733695984 4.533620357513428 -2.4020309448242188
0.8476355075836182 4.551909923553467 -2.4020309448242188
0.7543554306030273 4.568295955657959 -2.4020309448242188
0.3784765601158142 4.614665508270264 -2.4020309448242188
0.28400999307632446 4.62144136428833 -2.4020309448242188
6.225585821084678e-05 4.630160331726074 -2.4020309448242188
-0.566760241985321 4.595340251922607 -2.4020309448242188
-0.7542309165000916 4.56831693649292 -2.4020309448242188
0.3584887683391571 4.370965003967285 -2.4020309448242188
0.17942138016223907 4.381968975067139 -2.4020309448242188
0.08975829929113388 4.3847222328186035 -2.4020309448242188
-0.08964233100414276 4.38472318649292 -2.4020309448242188
-0.2688940465450287 4.377389430999756 -2.4020309448242188
-0.3583703637123108 4.370974063873291 -2.4020309448242188
-0.4476977586746216 4.362730026245117 -2.4020309448242188
-0.7143993973731995 4.327064037322998 -2.4020309448242188
0.9282873272895813 4.055556774139404 -2.4020309448242188
0.6778283715248108 4.104852199554443 -2.4020309448242188
0.17021118104457855 4.156957149505615 -2.4020309448242188
0.08515136688947678 4.15956974029541 -2.4020309448242188
-0.08503784239292145 4.159570693969727 -2.4020309448242188
-0.25508543848991394 4.152614116668701 -2.4020309448242188
-0.593615710735321 4.117875099182129 -2.4020309448242188
-0.6777185201644897 4.1048712730407715 -2.4020309448242188
