ply
format ascii 1.0
element vertex 241
property float x
property float y
property float z
end_header
6.092613220214844 9.35291576385498 1.9682177305221558
6.092613220214844 9.35291576385498 0.44014403223991394
6.092614650726318 9.35291576385498 0.18855315446853638
6.092613220214844 9.35291576385498 -0.06284408271312714
6.092613220214844 9.35291576385498 -0.3143038749694824
25.72174835205078 36.159481048583984 -2.250432014465332
6.092612266540527 9.352917671203613 -0.5660867094993591
23.376317977905273 41.21159744262695 -2.40283203125
21.670413970947266 42.13364791870117 -2.40283203125
18.15267562866211 43.76443099975586 -2.40283203125
15.433276176452637 44.79573440551758 -2.40283203125
12.655732154846191 45.658172607421875 -2.40283203125
11.71874713897705 45.90771484375 -2.40283203125
10.77688217163086 46.13787078857422 -2.40283203125
16.16854476928711 28.50456428527832 -2.40283203125
13.783639907836914 29.731168746948242 -2.40283203125
13.172355651855469 30.007001876831055 -2.40283203125
11.933488845825195 30.520864486694336 -2.40283203125
11.306432723999023 30.7586727142334 -2.40283203125
10.674635887145996 30.983600616455078 -2.40283203125
8.80185317993164 29.40323829650879 -2.250432014465332
7.591347694396973 29.73876953125 -2.250432014465332
14.50755786895752 20.394630432128906 -2.40283203125
12.791369438171387 21.512624740600586 -2.40283203125
11.447314262390137 22.25689125061035 -2.40283203125
10.989459991455078 22.48648452758789 -2.40283203125
10.52701187133789 22.7066593170166 -2.40283203125
8.535932540893555 21.831342697143555 -2.250432014465332
7.63549280166626 22.16232681274414 -2.250432014465332
6.260030269622803 22.58442497253418 -2.249969959259033
5.328585147857666 22.81267738342285 -2.249084949493408
11.7252779006958 16.483333587646484 -2.40283203125
6.092613220214844 9.35291576385498 -1.3259233236312866
10.338212966918945 17.38688850402832 -2.40283203125
9.618104934692383 17.79534339904785 -2.40283203125
8.665131568908691 16.84752082824707 -2.250432014465332
8.318552017211914 17.021316528320312 -2.250432014465332
7.61510705947876 17.34743881225586 -2.250432014465332
6.53581428527832 17.780393600463867 -2.250230312347412
6.169644832611084 17.90764808654785 -2.249882221221924
5.056901931762695 18.243873596191406 -2.2488248348236084
9.829943656921387 13.818896293640137 -2.40283203125
9.54510498046875 14.017135620117188 -2.40283203125
6.092613220214844 9.35291576385498 -1.5815786123275757
8.117375373840332 13.651865005493164 -2.250432014465332
7.836308479309082 13.815119743347168 -2.250432014465332
7.551960468292236 13.972582817077637 -2.250432014465332
7.264454364776611 14.124198913574219 -2.250432014465332
6.973899841308594 14.2698974609375 -2.250432014465332
6.680235385894775 14.40920639038086 -2.2503676414489746
6.383176326751709 14.541065216064453 -2.2500851154327393
5.781365871429443 14.786314010620117 -2.2495131492614746
5.476902961730957 14.899608612060547 -2.2492237091064453
4.861365795135498 15.107295989990234 -2.2486379146575928
4.238006591796875 15.289531707763672 -2.2480456829071045
3.923722982406616 15.371012687683105 -2.2477469444274902
7.688889026641846 11.291247367858887 -2.250432014465332
7.220428466796875 11.596403121948242 -2.250432014465332
6.981611251831055 11.74173355102539 -2.250432014465332
6.739872932434082 11.882143020629883 -2.250432014465332
5.996237754821777 12.269429206848145 -2.2497239112854004
5.743295669555664 12.388239860534668 -2.249483108520508
5.487998962402344 12.501818656921387 -2.2492401599884033
4.970778465270996 12.713123321533203 -2.2487471103668213
3.0648913383483887 8.337895393371582 -1.463436245918274
4.179975509643555 12.989812850952148 -2.247995615005493
3.644129514694214 13.146992683410645 -2.2474863529205322
3.373948812484741 13.217302322387695 -2.247229814529419
3.1024205684661865 13.282049179077148 -2.246971607208252
6.328391075134277 10.163736343383789 -2.2504360675811768
6.121665954589844 10.295464515686035 -2.2513861656188965
5.908938884735107 10.417241096496582 -2.2510974407196045
5.032254695892334 10.854519844055176 -2.248817205429077
4.808624267578125 10.954183578491211 -2.2486045360565186
4.583016395568848 11.049234390258789 -2.248389959335327
4.355534553527832 11.139633178710938 -2.248173236846924
3.8953161239624023 11.30632209777832 -2.2477357387542725
3.6627745628356934 11.38254451751709 -2.247514486312866
2.5298094749450684 8.451003074645996 -1.658101201057434
1.9742296934127808 8.452033042907715 -1.6314127445220947
6.171191215515137 8.675421714782715 -2.2504420280456543
5.992372989654541 8.79988956451416 -2.2504425048828125
5.627280235290527 9.037721633911133 -2.250443935394287
5.441159725189209 9.150983810424805 -2.2504425048828125
5.252749919891357 9.260403633117676 -2.250441789627075
5.068684101104736 9.378042221069336 -2.253345489501953
4.082225322723389 9.841864585876465 -2.2522313594818115
3.879633665084839 9.922473907470703 -2.25203537940979
3.0648913383483887 8.337896347045898 -1.8777620792388916
3.2627501487731934 10.13941478729248 -2.2515015602111816
3.054363965988159 10.20333480834961 -2.2513420581817627
2.8447399139404297 10.263017654418945 -2.2511918544769287
5.061187744140625 8.128548622131348 -2.2504472732543945
4.893790245056152 8.230414390563965 -2.2504472732543945
4.724343299865723 8.328836441040039 -2.2504472732543945
4.38817024230957 8.53187370300293 -2.2548608779907227
3.8559253215789795 8.78391170501709 -2.2545714378356934
3.6750707626342773 8.860252380371094 -2.2543866634368896
3.492711067199707 8.932901382446289 -2.2542097568511963
3.0648913383483887 8.337895393371582 -2.087794065475464
3.123816967010498 9.067012786865234 -2.253880739212036
2.3713793754577637 9.289778709411621 -2.2533230781555176
2.180668830871582 9.335866928100586 -2.253204822540283
5.038158893585205 7.08260440826416 -2.2504472732543945
4.744130611419678 7.282832622528076 -2.2504472732543945
4.293990612030029 7.57012939453125 -2.2534101009368896
4.138564586639404 7.657142162322998 -2.253620147705078
3.9813549518585205 7.740904331207275 -2.2538161277770996
3.822427988052368 7.821404933929443 -2.2540037631988525
3.661870002746582 7.898616790771484 -2.254183053970337
3.499735116958618 7.972497463226318 -2.2543535232543945
3.336099863052368 8.043023109436035 -2.2545156478881836
2.6679441928863525 8.290938377380371 -2.2550766468048096
4.47439432144165 6.570709705352783 -2.2504472732543945
4.203471660614014 6.751003742218018 -2.2513484954833984
3.782308340072632 6.997997760772705 -2.2519304752349854
3.638603448867798 7.074498176574707 -2.2521095275878906
3.3465771675109863 7.218534469604492 -2.2524445056915283
3.198378801345825 7.286002159118652 -2.2526001930236816
3.048815965652466 7.3504157066345215 -2.2527482509613037
2.897944211959839 7.411726951599121 -2.2528882026672363
2.592536449432373 7.524947166442871 -2.2531445026397705
2.282686710357666 7.625485897064209 -2.253368377685547
2.126258611679077 7.6709465980529785 -2.2534680366516113
1.9689208269119263 7.713162899017334 -2.2535595893859863
4.052979469299316 6.221826076507568 -2.2839179039001465
3.4789819717407227 6.436792373657227 -2.2504918575286865
3.346781015396118 6.507111549377441 -2.2506563663482666
3.2131457328796387 6.574697017669678 -2.2508139610290527
3.078139543533325 6.639515399932861 -2.2509641647338867
2.9418139457702637 6.701540470123291 -2.2511074542999268
2.8042309284210205 6.760745048522949 -2.2512433528900146
2.525527238845825 6.870591163635254 -2.2514936923980713
2.384523868560791 6.921182632446289 -2.251607656478882
1.810915470123291 7.094186782836914 -2.2519891262054443
4.068669319152832 5.974902153015137 -2.4028472900390625
3.945551633834839 6.056909561157227 -2.4028472900390625
3.8207786083221436 6.136382102966309 -2.4028472900390625
3.6874194145202637 6.201532363891602 -2.3983027935028076
3.520672559738159 6.206812381744385 -2.3719801902770996
3.1973326206207275 6.21653938293457 -2.323709726333618
2.735612630844116 6.23180627822876 -2.2622880935668945
2.5938682556152344 6.253578186035156 -2.2504472732543945
2.465355157852173 6.3053483963012695 -2.2504472732543945
2.205312490463257 6.400947093963623 -2.250447988510132
1.8084875345230103 6.524511337280273 -2.2505571842193604
1.674652099609375 6.560380935668945 -2.2506349086761475
3.7819371223449707 5.553833484649658 -2.4028472900390625
3.4340503215789795 5.77541446685791 -2.4028472900390625
3.0732226371765137 5.97523307800293 -2.4028472900390625
2.700815439224243 6.152536392211914 -2.4028472900390625
2.283022403717041 6.210867881774902 -2.36635160446167
1.1253308057785034 3.759253978729248 -1.4032772779464722
0.9690307378768921 3.495990514755249 -1.297329068183899
0.8459765315055847 3.314077138900757 -1.2231413125991821
3.529184579849243 5.1826653480529785 -2.4028472900390625
3.3141660690307617 5.322732925415039 -2.4028472900390625
1.826351284980774 3.5509557723999023 -1.5302281379699707
1.7246923446655273 3.5290446281433105 -1.505258321762085
1.6270177364349365 3.509460926055908 -1.4823907613754272
1.5453014373779297 3.520242214202881 -1.473276138305664
1.464392066001892 3.53051495552063 -1.4647245407104492
1.167537808418274 3.3888256549835205 -1.3735729455947876
1.0496057271957397 3.2617814540863037 -1.3130959272384644
0.940826416015625 3.1429009437561035 -1.2572228908538818
0.8402441143989563 3.0313615798950195 -1.2054734230041504
0.7578381299972534 2.968798875808716 -1.1741793155670166
0.6822643876075745 2.9209039211273193 -1.1494731903076172
3.304499387741089 4.852705955505371 -2.4028472900390625
2.0525779724121094 3.296553373336792 -1.589354395866394
1.9216490983963013 3.231844902038574 -1.53887140750885
1.824560523033142 3.2166318893432617 -1.5135282278060913
1.56857168674469 3.2095916271209717 -1.462085247039795
1.335852026939392 3.2206127643585205 -1.427005410194397
0.704052746295929 2.7580974102020264 -1.1650174856185913
0.6346215605735779 2.7169322967529297 -1.1419037580490112
2.0202488899230957 2.966766357421875 -1.564279317855835
1.9176769256591797 2.9438700675964355 -1.531191110610962
1.5935266017913818 2.9483306407928467 -1.4606029987335205
1.450039029121399 2.9670512676239014 -1.4392526149749756
1.36810302734375 2.950984477996826 -1.4175783395767212
1.2794690132141113 2.9146697521209717 -1.3872631788253784
1.029671549797058 2.801177978515625 -1.3006645441055298
0.94581538438797 2.7452690601348877 -1.2654507160186768
0.790618896484375 2.6411187648773193 -1.2015104293823242
0.7226928472518921 2.6072709560394287 -1.1791359186172485
0.5947265625 2.546138048171997 -1.1395189762115479
1.9342284202575684 2.719125270843506 -1.544598937034607
1.7738524675369263 2.7230846881866455 -1.5043221712112427
1.558754801750183 2.748027801513672 -1.4624066352844238
1.429223656654358 2.778822660446167 -1.4464342594146729
1.3625744581222534 2.7880828380584717 -1.4364365339279175
0.879852294921875 2.553809404373169 -1.2503105401992798
0.8099865317344666 2.517137289047241 -1.2239834070205688
0.7431921362876892 2.4826889038085938 -1.199584722518921
1.7951427698135376 2.523601531982422 -1.5191270112991333
1.7229235172271729 2.5301382541656494 -1.501520037651062
1.4083678722381592 2.6057512760162354 -1.452930212020874
1.1915258169174194 2.570111036300659 -1.3895936012268066
1.113254427909851 2.5360264778137207 -1.3585609197616577
1.0378856658935547 2.5022451877593994 -1.328805685043335
0.89569091796875 2.4366886615753174 -1.273445725440979
0.8285790681838989 2.404985189437866 -1.2477527856826782
0.7637707591056824 2.373516082763672 -1.2230594158172607
0.7011620998382568 2.342282295227051 -1.1993184089660645
0.642913818359375 2.3194522857666016 -1.180643916130066
0.5866711139678955 2.298257350921631 -1.163499116897583
1.4988293647766113 2.4072015285491943 -1.4710947275161743
1.442299723625183 2.4256699085235596 -1.464033603668213
1.3287889957427979 2.458515167236328 -1.4497981071472168
1.2678405046463013 2.4650473594665527 -1.4380463361740112
0.9754980206489563 2.351834535598755 -1.3208738565444946
0.9088598489761353 2.32448410987854 -1.2947938442230225
0.8444067239761353 2.297170400619507 -1.2696868181228638
0.7820397615432739 2.2699034214019775 -1.245508074760437
0.6257409453392029 2.257495880126953 -1.2152994871139526
1.5829870700836182 2.225353240966797 -1.4957467317581177
1.4685485363006592 2.254404067993164 -1.473615288734436
1.362429141998291 2.2913451194763184 -1.4600671529769897
1.3091955184936523 2.308062791824341 -1.4533402919769287
1.1876269578933716 2.309088945388794 -1.422168493270874
1.1170446872711182 2.285682201385498 -1.393378734588623
0.9832665920257568 2.2399094104766846 -1.339805006980896
0.8720959424972534 2.2304563522338867 -1.3116885423660278
0.7655834555625916 2.2221391201019287 -1.287280559539795
0.6181042194366455 2.2299442291259766 -1.2673989534378052
1.5223584175109863 2.1401219367980957 -1.5163222551345825
1.4696704149246216 2.1582319736480713 -1.5075253248214722
1.4171313047409058 2.175471544265747 -1.4989925622940063
1.3614306449890137 2.1865317821502686 -1.487101435661316
1.3045971393585205 2.1940805912017822 -1.473766803741455
1.2484338283538818 2.200941801071167 -1.4609054327011108
1.1940722465515137 2.2092630863189697 -1.4499027729034424
1.0197570323944092 2.199603319168091 -1.3997802734375
0.909106433391571 2.1917691230773926 -1.369953989982605
0.8552832007408142 2.1874563694000244 -1.3560328483581543
0.805267333984375 2.19069504737854 -1.3475403785705566
0.7558398246765137 2.1938552856445312 -1.3396885395050049
0.6583886742591858 2.1993963718414307 -1.3254961967468262
0.5627087354660034 2.204385995864868 -1.3135138750076294
0.5154064893722534 2.2065505981445312 -1.3082444667816162
