ply
format ascii 1.0
element vertex 265
property float x
property float y
property float z
end_header
2.3759288787841797 20.14484405517578 3.5766992568969727
1.9037927389144897 19.50072479248047 3.4548540115356445
1.107733130455017 19.35982894897461 3.419243812561035
0.7279101610183716 19.624675750732422 3.4627392292022705
0.3372155725955963 19.842138290405273 3.499209403991699
-0.06174072250723839 19.99275016784668 3.525280714035034
2.3605029582977295 20.014047622680664 3.087291717529297
1.511743187904358 19.533876419067383 3.0014288425445557
0.3161596655845642 18.60320472717285 2.8503198623657227
-0.05785522237420082 18.73460578918457 2.870051145553589
6.47271203994751 22.675907135009766 3.070817708969116
1.8185583353042603 18.627655029296875 2.437242269515991
1.4391796588897705 18.596237182617188 2.4288599491119385
0.3291113078594208 19.365243911743164 2.5221235752105713
-0.06028808280825615 19.52253532409668 2.5422537326812744
1.8611986637115479 19.06439208984375 2.056900978088379
1.091467261314392 19.075565338134766 2.0517191886901855
0.7111596465110779 19.173065185546875 2.0602540969848633
0.333892822265625 19.64659881591797 2.1099917888641357
6.471848011016846 22.67287254333496 1.9959827661514282
2.8070995807647705 17.668113708496094 1.5144153833389282
1.7660558223724365 18.08984375 1.5386369228363037
1.5357568264007568 19.84412384033203 1.6848844289779663
0.30244871973991394 17.79645538330078 1.5067380666732788
-0.061365965753793716 19.87268829345703 1.6822874546051025
4.363593578338623 19.716461181640625 1.2522095441818237
3.9839537143707275 19.885683059692383 1.2576218843460083
3.562575578689575 19.843219757080078 1.2501587867736816
2.723581552505493 19.68560218811035 1.2323390245437622
1.4785314798355103 19.1047306060791 1.188233733177185
0.7272009253501892 19.605525970458984 1.2165812253952026
0.3249169886112213 19.11855697631836 1.1857191324234009
-0.05854247882962227 18.95708465576172 1.1755409240722656
2.930518627166748 18.444923400878906 0.7364246845245361
2.5822911262512207 18.66437530517578 0.7429661154747009
1.8455346822738647 18.90398406982422 0.7489475607872009
0.8440844416618347 49.66743469238281 1.9587196111679077
-0.06249755620956421 20.23881721496582 0.7980412244796753
6.468131065368652 22.65985107421875 -0.6635355949401855
2.4673571586608887 31.881744384765625 -0.9004026651382446
1.1806151866912842 31.8298282623291 -0.8968722224235535
16.612951278686523 44.35455322265625 -2.4020156860351562
15.718972206115723 44.679237365722656 -2.4020156860351562
14.818649291992188 44.98585510253906 -2.4020156860351562
6.467257022857666 22.65679168701172 -1.1949164867401123
12.083244323730469 45.79696273803711 -2.4020156860351562
10.234747886657715 46.244686126708984 -2.4020156860351562
8.72182559967041 43.533935546875 -2.251692533493042
7.838647365570068 43.660545349121094 -2.2496156692504883
2.4710729122161865 31.92975425720215 -1.6241365671157837
1.8344433307647705 32.06052780151367 -1.6285858154296875
0.9205566048622131 24.81855010986328 -1.2595202922821045
0.4217883348464966 24.81855010986328 -1.2588365077972412
-0.07664306461811066 24.81855010986328 -1.2586605548858643
10.872238159179688 30.903017044067383 -2.4020156860351562
10.249524116516113 31.11509132385254 -2.4020156860351562
9.622671127319336 31.31462860107422 -2.4020156860351562
6.445059776306152 22.57902717590332 -1.721667766571045
7.230055809020996 29.817201614379883 -2.2496156692504883
6.629548072814941 29.95493507385254 -2.2495079040527344
6.025177001953125 30.0743408203125 -2.2489335536956787
3.1389269828796387 17.483503341674805 -1.3024245500564575
3.1206066608428955 19.641338348388672 -1.4582440853118896
2.4229540824890137 24.81855010986328 -1.8284003734588623
0.9205566048622131 24.81855010986328 -1.8210004568099976
0.4217846691608429 24.81855010986328 -1.8200109004974365
-0.07664306461811066 24.81855010986328 -1.8197579383850098
8.218935012817383 21.94356918334961 -2.2496156692504883
6.430861473083496 22.5292911529541 -2.2493162155151367
5.518962383270264 22.760560989379883 -2.2484495639801025
3.010563850402832 16.7685604095459 -1.6356024742126465
2.8466808795928955 20.575336456298828 -1.9941520690917969
1.635496735572815 16.75257110595703 -1.6159800291061401
1.186556339263916 20.737411499023438 -1.9941520690917969
0.7699108719825745 20.757081985473633 -1.9941520690917969
0.35295531153678894 20.768329620361328 -1.9941520690917969
-0.06414062529802322 20.771230697631836 -1.9941520690917969
6.642399787902832 17.73442268371582 -2.2495155334472656
6.284003734588623 17.861520767211914 -2.2491748332977295
5.56007194519043 18.09389305114746 -2.2484869956970215
5.194826602935791 18.199081420898438 -2.2481398582458496
4.458529949188232 18.38726043701172 -2.2474400997161865
3.3602733612060547 16.772626876831055 -2.0319344997406006
3.0105602741241455 16.7685604095459 -2.0237181186676025
1.9829686880111694 16.813030242919922 -2.010993242263794
1.635500431060791 16.75257110595703 -1.9994311332702637
1.3011754751205444 16.813030242919922 -2.003122568130493
0.6236193776130676 16.813030242919922 -1.9985244274139404
0.285736083984375 16.813030242919922 -1.9974392652511597
4.045894622802734 15.334198951721191 -2.247046709060669
3.1140966415405273 15.543846130371094 -2.2461612224578857
2.800974130630493 15.601175308227539 -2.245863676071167
2.4868102073669434 15.652192115783691 -2.245565176010132
2.1717236042022705 15.69687557220459 -2.2452657222747803
1.5392980575561523 15.767195701599121 -2.2446646690368652
0.9047338962554932 15.812037467956543 -2.2440617084503174
-0.04889160022139549 15.831429481506348 -2.2431552410125732
2.9672350883483887 8.433982849121094 -1.4728868007659912
3.7434606552124023 13.114498138427734 -2.246764659881592
2.9460864067077637 13.311599731445312 -2.246006965637207
1.50198233127594 8.365870475769043 -1.4002214670181274
2.1385533809661865 13.46022891998291 -2.245239734649658
1.3238097429275513 13.559893608093262 -2.2444658279418945
1.0511364936828613 13.582171440124512 -2.2442069053649902
0.778106689453125 13.598966598510742 -2.2439475059509277
0.5048254132270813 13.610279083251953 -2.2436881065368652
-0.02599487267434597 8.419925689697266 -1.387097716331482
3.739849805831909 11.353293418884277 -2.2467715740203857
2.596874952316284 8.450879096984863 -1.6617382764816284
2.412358283996582 8.451220512390137 -1.6519449949264526
2.0494139194488525 8.451892852783203 -1.6346590518951416
1.8706274032592773 8.452224731445312 -1.627129316329956
1.1601842641830444 11.883859634399414 -2.2443203926086426
0.31361815333366394 8.455110549926758 -1.5903213024139404
0.1420947164297104 8.360689163208008 -1.5717077255249023
-0.02599487267434597 8.419925689697266 -1.5826232433319092
2.9222424030303955 10.237516403198242 -2.250438928604126
2.7159056663513184 10.293484687805176 -2.2502975463867188
2.300152540206909 10.393049240112305 -2.2500417232513428
1.458276391029358 10.54210090637207 -2.249617338180542
1.2464196681976318 10.566933631896973 -2.2491183280944824
1.033290982246399 10.584426879882812 -2.247972249984741
0.607025146484375 10.609134674072266 -2.246225595474243
0.1420947164297104 8.360689163208008 -1.7675362825393677
-0.025996092706918716 8.419928550720215 -1.7798112630844116
2.967233896255493 8.433987617492676 -2.1012752056121826
2.445152521133423 9.267288208007812 -2.252562999725342
2.2584569454193115 9.31402587890625 -2.252443552017212
1.5035619735717773 9.463550567626953 -2.252048969268799
0.5473095774650574 9.565311431884766 -2.251744270324707
0.35511961579322815 9.574219703674316 -2.251708745956421
2.889261484146118 8.21236801147461 -2.2540836334228516
2.389960765838623 8.372742652893066 -2.2544403076171875
1.8813390731811523 8.500638008117676 -2.254225969314575
1.7101964950561523 8.536348342895508 -2.2541325092315674
1.365966796875 8.597503662109375 -2.2539682388305664
1.1930162906646729 8.622933387756348 -2.2538974285125732
1.0195995569229126 8.644909858703613 -2.2538344860076904
0.3226306140422821 8.698169708251953 -2.2536590099334717
-0.025996092706918716 8.419928550720215 -2.180079221725464
2.6404173374176025 7.505060195922852 -2.2522828578948975
2.489309072494507 7.556949138641357 -2.252399206161499
2.3371801376342773 7.605778694152832 -2.2525076866149902
2.184086799621582 7.651525020599365 -2.25260853767395
2.030085325241089 7.694155216217041 -2.2527012825012207
1.8752514123916626 7.733658313751221 -2.25278639793396
1.563317894935608 7.803215026855469 -2.25293231010437
0.932235062122345 7.904178142547607 -2.253127336502075
0.7733422517776489 7.921404838562012 -2.2531559467315674
0.6141296029090881 7.935414791107178 -2.25317645072937
0.45466551184654236 7.946189880371094 -2.2531886100769043
-0.02457885630428791 7.95910120010376 -2.25317645072937
2.5665526390075684 6.85239315032959 -2.2506353855133057
2.4285643100738525 6.902895927429199 -2.2507495880126953
2.2895727157592773 6.950597763061523 -2.250856637954712
1.8671740293502808 7.076713562011719 -2.2511343955993652
1.4378539323806763 7.176969051361084 -2.2513465881347656
0.41817259788513184 7.3083977699279785 -2.251582145690918
0.2713354527950287 7.3153300285339355 -2.2515859603881836
2.3737988471984863 6.337762832641602 -2.249630928039551
2.117434024810791 6.427978992462158 -2.2496368885040283
1.987947940826416 6.469223499298096 -2.2496447563171387
1.5949779748916626 6.577791213989258 -2.2498550415039062
1.329653263092041 6.636893272399902 -2.249979019165039
1.196142554283142 6.662406921386719 -2.250030755996704
0.9277050495147705 6.70530891418457 -2.2501137256622314
0.522326648235321 6.749218463897705 -2.2501864433288574
0.38670164346694946 6.758376121520996 -2.250196695327759
-0.020905761048197746 6.769367694854736 -2.2501866817474365
2.325833797454834 6.20969820022583 -2.3712847232818604
2.047621965408325 6.216091632843018 -2.3404178619384766
1.9110326766967773 6.218985557556152 -2.326587200164795
1.6422375440597534 6.22419548034668 -2.3019895553588867
1.3785107135772705 6.228666305541992 -2.2813148498535156
1.2482945919036865 6.23063325881958 -2.272395372390747
0.9911816120147705 6.238579750061035 -2.258944034576416
0.6112426519393921 6.261019706726074 -2.249630928039551
0.48539671301841736 6.272030353546143 -2.249630928039551
0.35935789346694946 6.280513763427734 -2.249630928039551
0.23317381739616394 6.286462783813477 -2.249630928039551
0.10689453035593033 6.2898783683776855 -2.249630928039551
1.9610815048217773 5.953371524810791 -2.4020309448242188
1.720461368560791 6.027311325073242 -2.4020309448242188
1.5990856885910034 6.060643672943115 -2.4020309448242188
1.107669711112976 6.169411659240723 -2.4020309448242188
0.8589099049568176 6.2076640129089355 -2.401549816131592
0.606280505657196 6.21019983291626 -2.3911752700805664
0.4806908965110779 6.211211204528809 -2.38736629486084
0.3554418981075287 6.212053298950195 -2.384464979171753
-0.01918945275247097 6.213575839996338 -2.3811662197113037
1.8362268209457397 5.574345588684082 -2.4020309448242188
1.7239245176315308 5.610093116760254 -2.4020309448242188
1.610927700996399 5.64357852935791 -2.4020309448242188
1.3830310106277466 5.703709125518799 -2.4020309448242188
1.268227458000183 5.730330467224121 -2.4020309448242188
1.1528759002685547 5.754639625549316 -2.4020309448242188
0.6874365210533142 5.828591823577881 -2.4020309448242188
0.4528527855873108 5.8514933586120605 -2.4020309448242188
0.3352636694908142 5.859407424926758 -2.4020309448242188
0.21754027903079987 5.864956378936768 -2.4020309448242188
-0.018122557550668716 5.868962287902832 -2.4020309448242188
1.933197021484375 5.161401271820068 -2.4020309448242188
1.829168677330017 5.199179649353027 -2.4020309448242188
1.512819766998291 5.299875259399414 -2.4020309448242188
1.4060925245285034 5.329184532165527 -2.4020309448242188
1.2988011837005615 5.356344699859619 -2.4020309448242188
1.0826867818832397 5.4041748046875 -2.4020309448242188
0.7553515434265137 5.459555625915527 -2.4020309448242188
0.6455712914466858 5.473622798919678 -2.4020309448242188
0.5355297923088074 5.485482215881348 -2.4020309448242188
0.20429076254367828 5.507772922515869 -2.4020309448242188
-0.017019042745232582 5.511534690856934 -2.4020309448242188
1.722200870513916 4.89514684677124 -2.4020309448242188
1.6235607862472534 4.928743362426758 -2.4020309448242188
1.2228552103042603 5.043123245239258 -2.4020309448242188
1.019374966621399 5.08815336227417 -2.4020309448242188
0.9169958233833313 5.107597351074219 -2.4020309448242188
0.8142565488815308 5.12498140335083 -2.4020309448242188
0.7111828327178955 5.140297889709473 -2.4020309448242188
0.5042199492454529 5.164708614349365 -2.4020309448242188
0.40040770173072815 5.173791885375977 -2.4020309448242188
0.29643064737319946 5.180788516998291 -2.4020309448242188
0.08817993104457855 5.188514232635498 -2.4020309448242188
-0.016022948548197746 5.189237117767334 -2.4020309448242188
1.6251647472381592 4.619330883026123 -2.4020309448242188
1.3441003561019897 4.708796977996826 -2.4020309448242188
1.1539514064788818 4.758967876434326 -2.4020309448242188
1.0581579208374023 4.781177997589111 -2.4020309448242188
0.9619433283805847 4.801462173461914 -2.4020309448242188
0.8653357028961182 4.8198113441467285 -2.4020309448242188
0.7683813571929932 4.836214542388916 -2.4020309448242188
0.6711034774780273 4.850668430328369 -2.4020309448242188
0.5735754370689392 4.863166809082031 -2.4020309448242188
0.2797338664531708 4.888876438140869 -2.4020309448242188
0.18150512874126434 4.89350700378418 -2.4020309448242188
0.08321288973093033 4.8961663246154785 -2.4020309448242188
-0.015122069977223873 4.8968505859375 -2.4020309448242188
1.448635220527649 4.397707939147949 -2.4020309448242188
1.1812329292297363 4.4769487380981445 -2.4020309448242188
1.0005236864089966 4.520765781402588 -2.4020309448242188
0.4498889148235321 4.608250617980957 -2.4020309448242188
0.264495849609375 4.622598171234131 -2.4020309448242188
0.17161986231803894 4.626977920532227 -2.4020309448242188
1.5382763147354126 4.10701322555542 -2.4020309448242188
1.455499291419983 4.137073040008545 -2.4020309448242188
1.288214087486267 4.192177772521973 -2.4020309448242188
1.1188513040542603 4.24052095413208 -2.4020309448242188
0.8615124225616455 4.300190448760986 -2.4020309448242188
0.7749914526939392 4.316623210906982 -2.4020309448242188
0.6010448932647705 4.344258785247803 -2.4020309448242188
0.513690173625946 4.355452060699463 -2.4020309448242188
0.2505285441875458 4.378479957580566 -2.4020309448242188
0.16255736351013184 4.382627010345459 -2.4020309448242188
1.3807592391967773 3.924638032913208 -2.4020309448242188
1.2220641374588013 3.9769108295440674 -2.4020309448242188
1.141964077949524 4.000648021697998 -2.4020309448242188
1.0614001750946045 4.022772789001465 -2.4020309448242188
0.8172741532325745 4.079377174377441 -2.4020309448242188
0.7351952791213989 4.094966411590576 -2.4020309448242188
0.652819812297821 4.108902931213379 -2.4020309448242188
0.5701818466186523 4.121182918548584 -2.4020309448242188
0.40424925088882446 4.140753746032715 -2.4020309448242188
0.3210205137729645 4.148036479949951 -2.4020309448242188
0.1542101949453354 4.157581806182861 -2.4020309448242188
-0.012847900390625 4.160419940948486 -2.4020309448242188
