ply
format ascii 1.0
element vertex 231
property float x
property float y
property float z
end_header
30.738826751708984 -17.733619689941406 6.257387638092041
33.334224700927734 -15.683064460754395 6.495748043060303
33.3342170715332 -13.202760696411133 6.32196044921875
33.33421325683594 -12.404084205627441 6.2714667320251465
33.33421325683594 -10.842705726623535 6.180840492248535
29.93278694152832 -18.97671127319336 5.429410934448242
30.627397537231445 -17.669336318969727 5.416765213012695
33.334224700927734 -15.683063507080078 5.643563270568848
33.294063568115234 -14.823281288146973 5.583141326904297
33.3342170715332 -14.014766693115234 5.539589881896973
30.96076011657715 -19.628429412841797 4.773697376251221
31.131786346435547 -17.104143142700195 4.625570774078369
30.573564529418945 -15.975709915161133 4.492081642150879
33.334224700927734 -15.683061599731445 4.797235012054443
33.3342170715332 -14.014762878417969 4.708853721618652
33.3342170715332 -13.2027587890625 4.668889045715332
33.33421325683594 -12.40407657623291 4.631598949432373
33.33421325683594 -11.617716789245605 4.596889019012451
33.33421325683594 -10.842703819274902 4.564670085906982
30.48041343688965 -19.32390022277832 3.8753788471221924
30.38228988647461 -18.383859634399414 3.8132617473602295
31.150712966918945 -17.114545822143555 3.816624164581299
25.915061950683594 -13.541491508483887 3.1398186683654785
27.153486251831055 -13.474550247192383 3.2550628185272217
32.38992691040039 -15.238774299621582 3.8437981605529785
32.38992691040039 -14.420723915100098 3.8072314262390137
33.2940559387207 -13.186848640441895 3.8453874588012695
33.2940559387207 -12.389134407043457 3.8146750926971436
30.555320739746094 -18.488555908203125 3.023247003555298
30.618173599243164 -17.664011001586914 2.992316722869873
30.876365661621094 -16.963815689086914 2.982276439666748
31.18503761291504 -16.295228958129883 2.97857666015625
27.153486251831055 -13.474550247192383 2.5660791397094727
32.38992691040039 -14.420724868774414 3.001373291015625
32.38992691040039 -13.617729187011719 2.9743738174438477
34.010868072509766 -13.470742225646973 3.0967180728912354
30.480409622192383 -19.32390022277832 2.2379353046417236
30.43693733215332 -17.559452056884766 2.1789722442626953
31.26668930053711 -17.178264617919922 2.212212324142456
32.305511474609375 -16.880714416503906 2.260277509689331
32.38992691040039 -14.420722007751465 2.198582172393799
34.0108642578125 -13.470742225646973 2.2684431076049805
36.205970764160156 -13.472679138183594 2.395545721054077
41.41376876831055 -13.470742225646973 2.70052433013916
30.48041343688965 -19.323898315429688 1.4230543375015259
31.935863494873047 -19.32390022277832 1.4718449115753174
32.38992691040039 -15.238775253295898 1.4114576578140259
32.38992691040039 -13.61773681640625 1.3854541778564453
36.20077133178711 -13.47074031829834 1.5230592489242554
30.480409622192383 -19.323898315429688 0.6096195578575134
31.014423370361328 -17.89261245727539 0.6048216223716736
31.378665924072266 -17.239782333374023 0.6047700643539429
32.38992691040039 -15.238775253295898 0.604651927947998
32.38992691040039 -14.420721054077148 0.5988996624946594
32.38992691040039 -13.617734909057617 0.5935118198394775
30.480409622192383 -19.323898315429688 -0.20319212973117828
32.38992691040039 -18.686159133911133 -0.21053358912467957
27.15348243713379 -13.474552154541016 -0.17066603899002075
32.38992691040039 -15.238779067993164 -0.20153671503067017
32.38992691040039 -13.617734909057617 -0.19782668352127075
38.987831115722656 -13.588105201721191 -0.23245863616466522
30.480424880981445 -19.323898315429688 -1.0162060260772705
31.93585777282715 -19.32390022277832 -1.0510473251342773
32.38992691040039 -18.6861572265625 -1.0529197454452515
32.38992691040039 -17.795385360717773 -1.0406125783920288
32.38992691040039 -16.924823760986328 -1.0290333032608032
32.38992691040039 -15.238775253295898 -1.007925271987915
32.38992691040039 -13.617737770080566 -0.9893583655357361
35.69816207885742 -14.139033317565918 -1.0811522006988525
37.996707916259766 -14.139033317565918 -1.141574501991272
38.987831115722656 -13.588105201721191 -1.1625733375549316
41.41377258300781 -13.470743179321289 -1.2262542247772217
31.93585777282715 -19.32390022277832 -1.8930163383483887
30.616771697998047 -17.663204193115234 -1.7925734519958496
32.38992691040039 -16.92482566833496 -1.8533676862716675
32.38992691040039 -15.238779067993164 -1.8153496980667114
32.38992691040039 -14.42072582244873 -1.7980800867080688
35.69816207885742 -14.139033317565918 -1.9472384452819824
38.987831115722656 -13.58810806274414 -2.093883752822876
41.41376876831055 -13.470742225646973 -2.2085397243499756
26.261661529541016 -15.890536308288574 -2.250624895095825
26.59039306640625 -15.340341567993164 -2.250852584838867
26.890092849731445 -14.773715019226074 -2.2496156692504883
27.192678451538086 -14.209089279174805 -2.2496156692504883
27.153486251831055 -13.474549293518066 -2.2226109504699707
27.762184143066406 -13.061519622802734 -2.2496182918548584
28.283363342285156 -11.89120101928711 -2.2496278285980225
28.52547264099121 -11.298067092895508 -2.2496299743652344
28.75516128540039 -10.700153350830078 -2.2496306896209717
29.99637222290039 -10.454388618469238 -2.329149007797241
31.153348922729492 -10.133316040039062 -2.4020309448242188
21.13098907470703 -13.396550178527832 -2.4020156860351562
21.40608787536621 -12.95246696472168 -2.4020159244537354
21.928102493286133 -12.047541618347168 -2.4020164012908936
22.174585342407227 -11.587102890014648 -2.402017116546631
22.411945343017578 -11.121621131896973 -2.402017831802368
22.639251708984375 -10.651288986206055 -2.402017831802368
22.856693267822266 -10.176313400268555 -2.402017831802368
23.06418800354004 -9.696905136108398 -2.402017593383789
23.44886589050293 -8.725601196289062 -2.402017593383789
23.625925064086914 -8.234146118164062 -2.40201735496521
17.07846450805664 -10.82736587524414 -2.40201997756958
17.922161102294922 -9.36492919921875 -2.402019500732422
18.113773345947266 -8.988715171813965 -2.402019500732422
18.297487258911133 -8.608579635620117 -2.402019500732422
18.47322654724121 -8.22469425201416 -2.402019500732422
18.640914916992188 -7.837221622467041 -2.402019500732422
14.317816734313965 -9.077173233032227 -2.4020209312438965
14.857941627502441 -8.163115501403809 -2.4020209312438965
15.4871187210083 -6.895212650299072 -2.4020206928253174
15.627699851989746 -6.57037353515625 -2.4020206928253174
16.121328353881836 -5.24381685256958 -2.4020204544067383
12.629692077636719 -7.28623104095459 -2.402021646499634
12.779059410095215 -7.02095890045166 -2.402021646499634
12.922858238220215 -6.752628803253174 -2.402021646499634
13.193490982055664 -6.207259178161621 -2.402021646499634
13.320209503173828 -5.93045711517334 -2.402021646499634
13.441123008728027 -5.651068210601807 -2.402022123336792
13.556196212768555 -5.369199752807617 -2.402022123336792
13.86568832397461 -4.510117530822754 -2.402022123336792
10.933622360229492 -6.615767478942871 -2.4020237922668457
11.06936264038086 -6.386056900024414 -2.4020235538482666
11.200278282165527 -6.153554439544678 -2.4020235538482666
11.326311111450195 -5.918375492095947 -2.4020233154296875
11.56351089477539 -5.440382480621338 -2.4020233154296875
11.78054141998291 -4.952907562255859 -2.4020233154296875
11.88138198852539 -4.705878734588623 -2.4020230770111084
11.977038383483887 -4.456798076629639 -2.4020230770111084
12.067475318908691 -4.205773830413818 -2.4020228385925293
12.152650833129883 -3.952913761138916 -2.4020228385925293
9.722274780273438 -5.882801532745361 -2.402024269104004
9.959389686584473 -5.471796035766602 -2.402024269104004
10.47536563873291 -4.404168605804443 -2.4020237922668457
10.650092124938965 -3.963024139404297 -2.4020237922668457
10.730507850646973 -3.7398126125335693 -2.4020237922668457
10.80624771118164 -3.5149660110473633 -2.4020237922668457
8.74422550201416 -5.290999412536621 -2.402024745941162
8.852787971496582 -5.107285022735596 -2.402024745941162
8.957488059997559 -4.921341896057129 -2.402024745941162
9.247981071472168 -4.350980281829834 -2.402024507522583
9.502203941345215 -3.763554096221924 -2.402024269104004
9.719152450561523 -3.161370277404785 -2.402024269104004
7.835246562957764 -4.967372417449951 -2.4020252227783203
7.93725061416626 -4.802708148956299 -2.402024984359741
8.035785675048828 -4.635951042175293 -2.402024984359741
8.310221672058105 -4.123841285705566 -2.402024984359741
8.552069664001465 -3.595559597015381 -2.402024745941162
8.694711685180664 -3.235407590866089 -2.402024745941162
8.8222017288208 -2.8696205615997314 -2.402024745941162
7.166154861450195 -4.54315185546875 -2.402029037475586
7.259440898895264 -4.392879009246826 -2.4020285606384277
7.436493873596191 -4.085658550262451 -2.4020276069641113
7.821750164031982 -3.2885115146636963 -2.402024984359741
7.888708114624023 -3.1244988441467285 -2.402024984359741
8.01226806640625 -2.792452335357666 -2.402024984359741
8.068818092346191 -2.6245663166046143 -2.402024984359741
6.7644944190979 -3.9025230407714844 -2.4020302295684814
6.84449577331543 -3.7604336738586426 -2.4020302295684814
7.06646203994751 -3.3245859146118164 -2.402029514312744
7.199092864990234 -3.0268473625183105 -2.402028799057007
7.260711669921875 -2.875826120376587 -2.4020285606384277
7.319169521331787 -2.7234861850738525 -2.4020283222198486
7.426486492156982 -2.415628671646118 -2.4020276069641113
6.10305643081665 -3.8691484928131104 -2.4020309448242188
6.259261131286621 -3.611018657684326 -2.4020309448242188
6.473027229309082 -3.2121341228485107 -2.4020309448242188
6.538679122924805 -3.0762832164764404 -2.4020307064056396
6.718422889709473 -2.6610140800476074 -2.4020304679870605
5.886962890625 -3.234391450881958 -2.4020309448242188
5.953206539154053 -3.1107208728790283 -2.4020309448242188
6.016854286193848 -2.9857707023620605 -2.4020309448242188
6.077878475189209 -2.8595170974731445 -2.4020309448242188
6.34276819229126 -2.2105979919433594 -2.4020309448242188
5.293826580047607 -3.356123208999634 -2.4020309448242188
5.555347919464111 -2.9028799533843994 -2.4020309448242188
5.726163387298584 -2.5494325160980225 -2.4020309448242188
5.874518871307373 -2.185978889465332 -2.4020309448242188
5.918875694274902 -2.062856912612915 -2.4020309448242188
4.956790447235107 -3.142470598220825 -2.4020309448242188
5.143782615661621 -2.826054573059082 -2.4020309448242188
5.20166015625 -2.7180089950561523 -2.4020309448242188
5.310595512390137 -2.4985508918762207 -2.4020309448242188
5.36160135269165 -2.387105941772461 -2.4020309448242188
5.542047023773193 -1.931565761566162 -2.4020309448242188
4.654914379119873 -2.9511122703552246 -2.4020309448242188
4.83051872253418 -2.653942584991455 -2.4020309448242188
4.884875297546387 -2.5526859760284424 -2.4020309448242188
4.937099456787109 -2.4499711990356445 -2.4020309448242188
4.987174034118652 -2.3463635444641113 -2.4020309448242188
5.080777645111084 -2.135972261428833 -2.4020309448242188
5.124268531799316 -2.0295777320861816 -2.4020309448242188
5.241261959075928 -1.7048330307006836 -2.4020309448242188
4.382712364196777 -2.7785637378692627 -2.4020309448242188
4.548043251037598 -2.498744249343872 -2.4020309448242188
4.599221229553223 -2.403247356414795 -2.4020309448242188
4.740639686584473 -2.11063814163208 -2.4020309448242188
4.783669471740723 -2.011204242706299 -2.4020309448242188
4.863459587097168 -1.809752106666565 -2.4020309448242188
4.135767936706543 -2.6219935417175293 -2.4020309448242188
4.189606666564941 -2.5350561141967773 -2.4020309448242188
4.241618633270264 -2.4470410346984863 -2.4020309448242188
4.291784763336182 -2.3579540252685547 -2.4020309448242188
4.340077877044678 -2.2678372859954834 -2.4020309448242188
4.386479377746582 -2.1767313480377197 -2.4020309448242188
4.430967807769775 -2.0846781730651855 -2.4020309448242188
4.514134407043457 -1.8978832960128784 -2.4020309448242188
4.552773475646973 -1.803224802017212 -2.4020309448242188
4.65671968460083 -1.5147008895874023 -2.4020309448242188
3.9105064868927 -2.4791738986968994 -2.4020309448242188
3.9614133834838867 -2.3969922065734863 -2.4020309448242188
4.103690147399902 -2.1443169116973877 -2.4020309448242188
4.147565841674805 -2.058173418045044 -2.4020309448242188
4.304801940917969 -1.7050102949142456 -2.4020309448242188
4.372226238250732 -1.5238157510757446 -2.4020309448242188
3.703994035720825 -2.3482491970062256 -2.4020309448242188
3.752211809158325 -2.27040696144104 -2.4020309448242188
3.7987964153289795 -2.1915738582611084 -2.4020309448242188
3.8437230587005615 -2.1117844581604004 -2.4020309448242188
3.9285314083099365 -1.94948148727417 -2.4020309448242188
3.968376398086548 -1.8670376539230347 -2.4020309448242188
4.006491661071777 -1.7837803363800049 -2.4020309448242188
4.042858600616455 -1.699744701385498 -2.4020309448242188
4.141327857971191 -1.4433435201644897 -2.4020309448242188
4.170560359954834 -1.3565641641616821 -2.4020309448242188
3.5137939453125 -2.2276675701141357 -2.4020309448242188
3.6463499069213867 -2.003345251083374 -2.4020309448242188
3.8007590770721436 -1.692183494567871 -2.4020309448242188
3.835261106491089 -1.6124629974365234 -2.4020309448242188
3.89923095703125 -1.450951099395752 -2.4020309448242188
3.9286718368530273 -1.3692281246185303 -2.4020309448242188
3.9564049243927 -1.28690767288208 -2.4020309448242188
