ply
format ascii 1.0
element vertex 310
property float x
property float y
property float z
end_header
32.93384552001953 32.62843704223633 8.174522399902344
6.22943115234375 9.359354019165039 1.9824333190917969
6.005943298339844 9.43285846710205 1.9717942476272583
32.93384552001953 32.628440856933594 7.10209846496582
32.93385314941406 33.97932052612305 7.249239921569824
32.7411994934082 36.6435546875 7.52796745300293
6.005944728851318 9.432856559753418 1.7131123542785645
31.3063907623291 32.30020523071289 5.857613563537598
31.306396484375 33.63909912109375 5.984039783477783
31.306400299072266 35.03773498535156 6.118624210357666
6.229432106018066 9.359354972839355 1.464065670967102
6.005943298339844 9.43285846710205 1.4562077522277832
31.3063907623291 32.300193786621094 4.830261707305908
31.306400299072266 35.03773498535156 5.045495510101318
31.306406021118164 36.50137710571289 5.163757801055908
6.229435920715332 9.359354972839355 1.2072886228561401
30.489227294921875 30.206491470336914 3.6331889629364014
31.095359802246094 33.4123420715332 3.86382794380188
31.09537124633789 36.25532150268555 4.043329238891602
31.30640983581543 38.035892486572266 4.170229434967041
6.005944728851318 9.432856559753418 0.9466389417648315
30.489227294921875 30.20648765563965 2.661417245864868
30.540311813354492 31.509794235229492 2.7211015224456787
6.229433536529541 9.359354972839355 0.6971796751022339
6.005943298339844 9.43285846710205 0.693437933921814
31.353193283081055 38.09273910522461 1.9453834295272827
31.352054595947266 38.09135818481445 0.8333491086959839
30.489286422729492 38.61310577392578 0.8310545086860657
30.489233016967773 31.457103729248047 -0.24666579067707062
31.352054595947266 38.09136199951172 -0.27776214480400085
30.489286422729492 38.613121032714844 -0.27700164914131165
6.229432106018066 9.359354019165039 -0.06329818814992905
31.446311950683594 31.154691696166992 -1.246433973312378
6.229432106018066 9.359354972839355 -0.3165737986564636
30.50557518005371 30.222675323486328 -2.1777637004852295
28.882347106933594 33.67508316040039 -2.249908924102783
26.777841567993164 35.364322662353516 -2.2496156692504883
26.05519676208496 35.90007019042969 -2.2496156692504883
24.622676849365234 40.46023178100586 -2.4020156860351562
23.797109603881836 40.95068359375 -2.4020156860351562
21.26313018798828 42.32221603393555 -2.4020156860351562
20.400428771972656 42.74514389038086 -2.4020156860351562
18.650341033935547 43.53715896606445 -2.4020156860351562
17.76360511779785 43.9064826965332 -2.4020156860351562
22.799936294555664 23.523706436157227 -2.4020156860351562
21.827316284179688 24.42887306213379 -2.4020156860351562
21.32742691040039 24.86649513244629 -2.4020156860351562
19.775978088378906 26.117277145385742 -2.4020156860351562
18.700681686401367 26.8976993560791 -2.4020156860351562
6.229432106018066 9.359354019165039 -0.8243539333343506
16.459596633911133 28.324613571166992 -2.4020156860351562
15.297494888305664 28.968751907348633 -2.4020156860351562
14.706887245178223 29.273014068603516 -2.4020156860351562
17.7738037109375 17.608983993530273 -2.4020156860351562
17.41304588317871 17.965810775756836 -2.4020156860351562
17.045150756835938 18.315221786499023 -2.4020156860351562
16.670228958129883 18.657115936279297 -2.4020156860351562
14.282319068908691 20.542638778686523 -2.4020156860351562
6.005943298339844 9.43285846710205 -1.0735822916030884
13.00682544708252 21.373043060302734 -2.4020156860351562
12.5707368850708 21.632431030273438 -2.4020156860351562
12.129457473754883 21.88290023803711 -2.4020156860351562
11.232126235961914 22.356740951538086 -2.4020156860351562
10.776445388793945 22.579919815063477 -2.4020156860351562
9.851982116699219 22.998363494873047 -2.4020156860351562
8.345898628234863 21.89558982849121 -2.2496156692504883
14.365131378173828 14.231917381286621 -2.4020156860351562
13.776212692260742 14.802715301513672 -2.4020156860351562
13.473200798034668 15.079041481018066 -2.4020156860351562
13.164630889892578 15.349169731140137 -2.4020156860351562
12.850651741027832 15.6129789352417 -2.4020156860351562
12.531391143798828 15.870369911193848 -2.4020156860351562
11.877558708190918 16.365459442138672 -2.4020156860351562
11.543244361877441 16.602956771850586 -2.4020156860351562
6.229432106018066 9.359354019165039 -1.335499882698059
6.005943298339844 9.43285846710205 -1.328332543373108
10.51235580444336 17.274099349975586 -2.4020156860351562
8.843476295471191 16.746826171875 -2.2496156692504883
8.157121658325195 17.091651916503906 -2.2496156692504883
7.457350730895996 17.408361434936523 -2.2496156692504883
7.102791786193848 17.556011199951172 -2.2496156692504883
6.745305061340332 17.69641876220703 -2.249613046646118
11.798629760742188 12.173171997070312 -2.4020156860351562
11.549352645874023 12.40992546081543 -2.4020156860351562
11.295319557189941 12.641583442687988 -2.4020156860351562
11.036625862121582 12.868046760559082 -2.4020156860351562
10.773405075073242 13.089214324951172 -2.4020156860351562
9.67733097076416 13.919163703918457 -2.4020156860351562
6.229434490203857 9.359354972839355 -1.5930023193359375
6.005943298339844 9.43285846710205 -1.584452509880066
8.253925323486328 13.562999725341797 -2.2496156692504883
7.977182388305664 13.727592468261719 -2.2496156692504883
7.413968563079834 14.039778709411621 -2.2496156692504883
7.127734184265137 14.187238693237305 -2.2496156692504883
6.838560581207275 14.328863143920898 -2.2496156692504883
6.546016693115234 14.463366508483887 -2.2494237422943115
6.25059175491333 14.591313362121582 -2.24914288520813
5.952656269073486 14.713217735290527 -2.2488598823547363
5.652347087860107 14.829023361206055 -2.2485742568969727
9.933401107788086 10.673559188842773 -2.4020156860351562
9.714909553527832 10.872803688049316 -2.4020156860351562
8.67813491821289 10.543532371520996 -2.2496156692504883
6.229433536529541 9.359354972839355 -1.8521502017974854
6.861038684844971 11.806864738464355 -2.2496156692504883
6.619856834411621 11.94296646118164 -2.2495014667510986
5.879586219787598 12.319520950317383 -2.2487967014312744
5.627945423126221 12.434897422790527 -2.2485573291778564
5.374045372009277 12.545122146606445 -2.2483155727386475
5.117984294891357 12.650150299072266 -2.2480716705322266
4.859868049621582 12.74993896484375 -2.2478256225585938
8.153803825378418 8.761359214782715 -2.249617338180542
7.974465370178223 8.92490291595459 -2.249617099761963
7.7918381690979 9.084782600402832 -2.249616861343384
7.225000858306885 9.541757583618164 -2.2496163845062256
6.229433536529541 9.359354972839355 -2.1132287979125977
6.015582084655762 10.351960182189941 -2.2504353523254395
5.80369234085083 10.470510482788086 -2.2501540184020996
5.151633262634277 10.794234275817871 -2.248114824295044
4.484500408172607 11.084364891052246 -2.2474799156188965
8.0725679397583 7.997705936431885 -2.4020204544067383
7.406948089599609 7.642076015472412 -2.2496249675750732
7.250466346740723 7.790698051452637 -2.2496249675750732
6.76333475112915 8.217147827148438 -2.2496252059936523
6.595308780670166 8.352615356445312 -2.2496254444122314
6.424567699432373 8.484646797180176 -2.2496254444122314
6.251191139221191 8.613184928894043 -2.2496259212493896
6.075240135192871 8.738182067871094 -2.2496259212493896
5.896795749664307 8.85958480834961 -2.249626398086548
5.347185134887695 9.201738357543945 -2.2496259212493896
4.975833415985107 9.42269515991211 -2.252422332763672
4.783229827880859 9.520670890808105 -2.252188205718994
4.194273471832275 9.791067123413086 -2.251537561416626
3.9945030212402344 9.873234748840332 -2.251338243484497
3.793142080307007 9.95136547088623 -2.251147747039795
7.260495662689209 7.1931657791137695 -2.4020273685455322
6.540436744689941 7.027780532836914 -2.2563071250915527
6.377648830413818 7.137784481048584 -2.2496299743652344
6.082964897155762 7.390528202056885 -2.2496304512023926
5.622338771820068 7.746730804443359 -2.249630928039551
5.303591251373291 7.968334674835205 -2.249630928039551
4.976115703582764 8.17684268951416 -2.249630928039551
4.306010723114014 8.570805549621582 -2.2542667388916016
4.130943298339844 8.655584335327148 -2.254063606262207
3.9542236328125 8.736818313598633 -2.2538681030273438
3.414860725402832 8.958941459655762 -2.253329038619995
6.590451717376709 6.529334545135498 -2.4020304679870605
5.802501201629639 6.494091033935547 -2.2548491954803467
5.668657302856445 6.609314441680908 -2.2544703483581543
5.384408950805664 6.8190741539001465 -2.249630928039551
5.103468894958496 7.031809329986572 -2.249630928039551
4.959822654724121 7.133844375610352 -2.249630928039551
4.814137935638428 7.2329559326171875 -2.249630928039551
4.365439414978027 7.512290954589844 -2.249630928039551
4.217926979064941 7.609612941741943 -2.252690553665161
3.7483787536621094 7.853993892669678 -2.253262758255005
3.5886106491088867 7.928999900817871 -2.253436326980591
3.2646069526672363 8.0691499710083 -2.253758430480957
6.027656078338623 5.971757888793945 -2.4020309448242188
5.905304908752441 6.092764377593994 -2.4020309448242188
5.448098182678223 6.3521552085876465 -2.3690617084503174
5.186335563659668 6.301167011260986 -2.3103349208831787
4.952151775360107 6.271646976470947 -2.2622177600860596
4.667653560638428 6.431312561035156 -2.249630928039551
4.536274433135986 6.5246405601501465 -2.249630928039551
4.403029918670654 6.615283489227295 -2.249630928039551
4.269464015960693 6.705568313598633 -2.2504184246063232
4.132989406585693 6.791402339935303 -2.2506277561187744
3.9947643280029297 6.874415874481201 -2.250823497772217
3.8548583984375 6.954594135284424 -2.251012086868286
3.713330030441284 7.031907081604004 -2.2511932849884033
3.425651788711548 7.177778720855713 -2.251533269882202
3.1322057247161865 7.311788558959961 -2.251842737197876
2.8334875106811523 7.433699607849121 -2.2521214485168457
5.320363521575928 5.716799736022949 -2.4020309448242188
5.084172248840332 5.927839756011963 -2.4020309448242188
4.962916374206543 6.029722690582275 -2.4020309448242188
4.707145690917969 6.216521263122559 -2.398369073867798
4.139199256896973 6.218902587890625 -2.2977519035339355
3.283891439437866 6.536350727081299 -2.2499077320098877
3.01654052734375 6.6650214195251465 -2.250206470489502
2.8809399604797363 6.72523832321167 -2.25034499168396
5.133445739746094 5.085840225219727 -2.4020309448242188
5.029247760772705 5.188899993896484 -2.4020309448242188
4.478151798248291 5.671350479125977 -2.4020309448242188
4.362219333648682 5.760993480682373 -2.4020309448242188
4.003864765167236 6.015571594238281 -2.4020309448242188
3.8810508251190186 6.095529079437256 -2.4020309448242188
3.7566418647766113 6.172980308532715 -2.4020309448242188
3.605189085006714 6.204014778137207 -2.385162353515625
3.441642999649048 6.209110736846924 -2.359797954559326
3.124201536178589 6.2184977531433105 -2.313274621963501
2.818265199661255 6.2268900871276855 -2.2719786167144775
2.6721043586730957 6.237735271453857 -2.255697250366211
2.538217782974243 6.27372407913208 -2.249630928039551
2.4104700088500977 6.3239054679870605 -2.249630928039551
4.576056957244873 4.917029857635498 -2.4020309448242188
4.372903823852539 5.098544120788574 -2.4020309448242188
4.162562370300293 5.271672248840332 -2.4020309448242188
4.054801940917969 5.3550004959106445 -2.4020309448242188
3.9453771114349365 5.436127185821533 -2.4020309448242188
3.7216978073120117 5.591636657714844 -2.4020309448242188
3.491899251937866 5.73795223236084 -2.4020309448242188
3.374819278717041 5.807582378387451 -2.4020309448242188
3.2563536167144775 5.874826431274414 -2.4020309448242188
3.015451669692993 6.002040863037109 -2.4020309448242188
2.3665599822998047 6.208707332611084 -2.3761019706726074
4.452779293060303 4.411487102508545 -2.4020309448242188
4.362398624420166 4.500881671905518 -2.4020309448242188
3.9833385944366455 4.839578151702881 -2.4020309448242188
3.884376049041748 4.9193620681762695 -2.4020309448242188
3.783818244934082 4.9971232414245605 -2.4020309448242188
3.6817052364349365 5.072824001312256 -2.4020309448242188
3.472973585128784 5.217941761016846 -2.4020309448242188
3.3664464950561523 5.287299156188965 -2.4020309448242188
3.2585301399230957 5.354479789733887 -2.4020309448242188
3.149279832839966 5.419459819793701 -2.4020309448242188
2.926927328109741 5.542705059051514 -2.4020309448242188
2.6997668743133545 5.656830787658691 -2.4020309448242188
2.3508141040802 5.810521125793457 -2.4020309448242188
4.169290542602539 4.130626201629639 -2.4020309448242188
3.9983654022216797 4.296293258666992 -2.4020309448242188
3.9104185104370117 4.376493453979492 -2.4020309448242188
3.8208606243133545 4.454894542694092 -2.4020309448242188
3.6370725631713867 4.606164932250977 -2.4020309448242188
3.542917490005493 4.678974628448486 -2.4020309448242188
3.447305917739868 4.749856948852539 -2.4020309448242188
3.3502745628356934 4.818787574768066 -2.4020309448242188
3.251866340637207 4.885737419128418 -2.4020309448242188
3.1521191596984863 4.950677871704102 -2.4020309448242188
3.051076650619507 5.013581275939941 -2.4020309448242188
2.9487853050231934 5.0744242668151855 -2.4020309448242188
2.8452720642089844 5.133179187774658 -2.4020309448242188
2.7405896186828613 5.189822196960449 -2.4020309448242188
2.3110241889953613 5.394834041595459 -2.4020309448242188
2.2011473178863525 5.440589427947998 -2.4020309448242188
3.835901975631714 3.9576709270477295 -2.4020309448242188
3.502588987350464 4.255488872528076 -2.4020309448242188
3.415570020675659 4.3256425857543945 -2.4020309448242188
2.960151195526123 4.649173259735107 -2.4020309448242188
2.865259885787964 4.708247661590576 -2.4020309448242188
2.474313974380493 4.9249444007873535 -2.4020309448242188
2.373934268951416 4.9741082191467285 -2.4020309448242188
2.272575616836548 5.0212273597717285 -2.4020309448242188
2.170278310775757 5.066280364990234 -2.4020309448242188
3.5352842807769775 3.798708438873291 -2.4020309448242188
3.4575254917144775 3.869619607925415 -2.4020309448242188
3.3783397674560547 3.93894100189209 -2.4020309448242188
3.297767162322998 4.006640911102295 -2.4020309448242188
3.2158384323120117 4.072693347930908 -2.4020309448242188
3.0480480194091797 4.199742317199707 -2.4020309448242188
2.962254524230957 4.260690689086914 -2.4020309448242188
2.7870495319366455 4.37730598449707 -2.4020309448242188
2.6072583198547363 4.486718654632568 -2.4020309448242188
2.5157361030578613 4.538669109344482 -2.4020309448242188
2.423177480697632 4.588752746582031 -2.4020309448242188
2.329622745513916 4.636948108673096 -2.4020309448242188
2.235112190246582 4.683239459991455 -2.4020309448242188
2.139678955078125 4.727601051330566 -2.4020309448242188
2.0433690547943115 4.77001953125 -2.4020309448242188
3.2627110481262207 3.6515867710113525 -2.4020309448242188
3.1879870891571045 3.7170019149780273 -2.4020309448242188
2.956080198287964 3.9039666652679443 -2.4020309448242188
2.7953479290008545 4.020622253417969 -2.4020309448242188
2.713238477706909 4.076481819152832 -2.4020309448242188
2.630014657974243 4.1306657791137695 -2.4020309448242188
2.460352659225464 4.233914852142334 -2.4020309448242188
2.286641836166382 4.3302001953125 -2.4020309448242188
2.198361873626709 4.375680923461914 -2.4020309448242188
2.0191197395324707 4.461225986480713 -2.4020309448242188
1.7441271543502808 4.575740814208984 -2.4020309448242188
3.289232015609741 3.258730411529541 -2.4020309448242188
3.2224693298339844 3.3247642517089844 -2.4020309448242188
3.1543872356414795 3.3894286155700684 -2.4020309448242188
3.0143492221832275 3.5145514011383057 -2.4020309448242188
2.869356632232666 3.633892774581909 -2.4020309448242188
2.795074462890625 3.6913323402404785 -2.4020309448242188
2.719644784927368 3.747253894805908 -2.4020309448242188
2.643094539642334 3.801633834838867 -2.4020309448242188
2.565460205078125 3.854451894760132 -2.4020309448242188
2.4867663383483887 3.905684232711792 -2.4020309448242188
2.4070520401000977 3.9553112983703613 -2.4020309448242188
2.2446837425231934 4.049663543701172 -2.4020309448242188
2.1620984077453613 4.094351291656494 -2.4020309448242188
2.078625440597534 4.137353420257568 -2.4020309448242188
1.994295597076416 4.178656578063965 -2.4020309448242188
1.909145474433899 4.218239784240723 -2.4020309448242188
1.6491296291351318 4.326518535614014 -2.4020309448242188
3.1155285835266113 3.086636781692505 -2.4020309448242188
2.9878039360046387 3.2104320526123047 -2.4020309448242188
2.8551623821258545 3.3289477825164795 -2.4020309448242188
2.6474668979644775 3.4963934421539307 -2.4020309448242188
2.576021671295166 3.54936146736145 -2.4020309448242188
2.5035130977630615 3.600870370864868 -2.4020309448242188
2.42997670173645 3.6508984565734863 -2.4020309448242188
2.355440616607666 3.699424982070923 -2.4020309448242188
2.2799339294433594 3.746429920196533 -2.4020309448242188
2.2034924030303955 3.7918944358825684 -2.4020309448242188
2.0479185581207275 3.8781280517578125 -2.4020309448242188
1.9688525199890137 3.9188597202301025 -2.4020309448242188
1.5620397329330444 4.098033905029297 -2.4020309448242188
2.8955578804016113 2.987475633621216 -2.4020309448242188
2.5115208625793457 3.3168559074401855 -2.4020309448242188
2.443743944168091 3.3671045303344727 -2.4020309448242188
2.374959707260132 3.415966749191284 -2.4020309448242188
2.2344908714294434 3.5094616413116455 -2.4020309448242188
2.090344190597534 3.5971832275390625 -2.4020309448242188
1.942757487297058 3.678987979888916 -2.4020309448242188
1.8677526712417603 3.717628002166748 -2.4020309448242188
1.638250708580017 3.8243181705474854 -2.4020309448242188
1.4818297624588013 3.887601852416992 -2.4020309448242188
