ply
format ascii 1.0
element vertex 242
property float x
property float y
property float z
end_header
5.473093032836914 -12.355487823486328 1.7597309350967407
5.473092079162598 -12.355490684509277 1.4510968923568726
5.473093032836914 -12.355487823486328 1.143950343132019
5.473093032836914 -12.355488777160645 0.8379725217819214
5.473092079162598 -12.355490684509277 0.22826583683490753
5.473092079162598 -12.355488777160645 -0.0760832205414772
11.227861404418945 -46.01364517211914 -2.4020156860351562
12.13390827178955 -45.78306198120117 -2.4020156860351562
13.035219192504883 -45.53479766845703 -2.4020156860351562
13.931468963623047 -45.26847457885742 -2.4020156860351562
14.822282791137695 -44.98466110229492 -2.4020156860351562
15.707304000854492 -44.68329620361328 -2.4020156860351562
16.58622932434082 -44.364593505859375 -2.4020156860351562
18.324317932128906 -43.67538070678711 -2.4020156860351562
20.03386688232422 -42.918113708496094 -2.4020156860351562
22.538835525512695 -41.657188415527344 -2.4020156860351562
23.356698989868164 -41.20418930053711 -2.4020156860351562
24.16547393798828 -40.73548126220703 -2.4020156860351562
25.07798957824707 -37.080650329589844 -2.2702102661132812
7.867641448974609 -29.685792922973633 -2.2517733573913574
6.293673038482666 -21.985050201416016 -1.6767425537109375
9.63588809967041 -31.310564041137695 -2.4020156860351562
10.252036094665527 -31.1142635345459 -2.4020156860351562
11.47209644317627 -30.68538475036621 -2.4020156860351562
12.075529098510742 -30.452964782714844 -2.4020156860351562
13.856711387634277 -29.684911727905273 -2.4020156860351562
14.43993091583252 -29.405607223510742 -2.4020156860351562
15.589301109313965 -28.812767028808594 -2.4020156860351562
16.154977798461914 -28.499441146850586 -2.4020156860351562
16.714372634887695 -28.175016403198242 -2.4020156860351562
17.267250061035156 -27.83961296081543 -2.4020156860351562
17.81338882446289 -27.493356704711914 -2.4020156860351562
6.334382057189941 -19.224445343017578 -1.9432440996170044
7.776249885559082 -22.121463775634766 -2.2511680126190186
8.208192825317383 -21.95514678955078 -2.2502951622009277
8.637338638305664 -21.782278060913086 -2.2496156692504883
9.679750442504883 -23.071346282958984 -2.4020156860351562
10.5828218460083 -22.67134666442871 -2.4020156860351562
11.028242111206055 -22.45801544189453 -2.4020156860351562
11.906059265136719 -22.0052433013916 -2.4020156860351562
12.33809757232666 -21.765972137451172 -2.4020156860351562
12.765312194824219 -21.518171310424805 -2.4020156860351562
14.0164794921875 -20.72494125366211 -2.4020156860351562
4.495572566986084 -18.423612594604492 -2.252675771713257
5.580992221832275 -18.13469696044922 -2.2538504600524902
6.289572715759277 -17.892234802246094 -2.252836227416992
8.012614250183105 -17.165252685546875 -2.250194787979126
8.348405838012695 -17.000768661499023 -2.249799966812134
9.269775390625 -17.971529006958008 -2.4020156860351562
9.971869468688965 -17.591651916503906 -2.4020156860351562
10.317160606384277 -17.391393661499023 -2.4020156860351562
10.658430099487305 -17.184364318847656 -2.4020156860351562
11.328378677368164 -16.75029182434082 -2.4020156860351562
3.7694272994995117 -15.44774055480957 -2.252999782562256
4.07420015335083 -15.372563362121582 -2.2533273696899414
4.377475261688232 -15.291377067565918 -2.2536556720733643
4.679128170013428 -15.204215049743652 -2.2539846897125244
5.27495002746582 -15.005895614624023 -2.253716468811035
5.568850040435791 -14.895477294921875 -2.2532052993774414
6.149664402008057 -14.65751838684082 -2.252197265625
5.473093032836914 -12.355487823486328 -1.9147284030914307
6.720693111419678 -14.397598266601562 -2.251293897628784
7.002679347991943 -14.260329246520996 -2.251008987426758
7.278289794921875 -14.110590934753418 -2.2496156692504883
7.555378437042236 -13.964178085327148 -2.2496156692504883
8.10064697265625 -13.655094146728516 -2.2496156692504883
3.5044407844543457 -13.222784996032715 -2.253516674041748
3.765228271484375 -13.15268611907959 -2.2537992000579834
4.02461051940918 -13.077445983886719 -2.254081964492798
4.791186332702637 -12.815394401550293 -2.2539174556732178
5.042001724243164 -12.715296745300293 -2.253380298614502
5.288798809051514 -12.605664253234863 -2.2520172595977783
5.473090648651123 -12.355490684509277 -2.226172924041748
6.019189357757568 -12.257529258728027 -2.249626636505127
6.259958267211914 -12.136332511901855 -2.249626398086548
6.498287200927734 -12.010407447814941 -2.2496259212493896
6.734091758728027 -11.879792213439941 -2.2496254444122314
6.96728515625 -11.744539260864258 -2.2496249675750732
7.197730541229248 -11.604741096496582 -2.249624490737915
7.4253830909729 -11.460411071777344 -2.249624252319336
2.842722177505493 -11.649941444396973 -2.2539806365966797
3.0719408988952637 -11.590893745422363 -2.2538506984710693
3.5265698432922363 -11.459120750427246 -2.253556251525879
3.9755027294158936 -11.30929183959961 -2.253215789794922
4.19127082824707 -11.210752487182617 -2.249630928039551
4.411740779876709 -11.125842094421387 -2.249630928039551
5.062479019165039 -10.845236778259277 -2.249630928039551
5.275556564331055 -10.743196487426758 -2.249630928039551
6.106511116027832 -10.293601036071777 -2.249630928039551
2.5240612030029297 -10.344024658203125 -2.2506723403930664
2.7276086807250977 -10.29166030883789 -2.2505569458007812
3.331326723098755 -10.110359191894531 -2.250149726867676
3.727241039276123 -9.969568252563477 -2.2498278617858887
3.923001527786255 -9.893282890319824 -2.2496519088745117
4.310369968414307 -9.73065185546875 -2.249630928039551
4.541287899017334 -9.728705406188965 -2.2694664001464844
5.3336181640625 -9.857805252075195 -2.3691890239715576
5.989593505859375 -9.656890869140625 -2.4020309448242188
6.179039001464844 -9.536785125732422 -2.4020309448242188
6.36607551574707 -9.41296100616455 -2.4020309448242188
2.364649534225464 -9.69073486328125 -2.344369411468506
2.5679101943969727 -9.689115524291992 -2.355782985687256
2.7731945514678955 -9.68731689453125 -2.3681960105895996
3.190566301345825 -9.683161735534668 -2.396120548248291
3.389414072036743 -9.642024040222168 -2.4020309448242188
3.76733136177063 -9.50073528289795 -2.4020309448242188
3.9541258811950684 -9.424524307250977 -2.4020309448242188
4.139378547668457 -9.34464168548584 -2.4020309448242188
5.214558124542236 -8.790037155151367 -2.4020309448242188
5.387045860290527 -8.685420036315918 -2.4020309448242188
5.55743408203125 -8.577393531799316 -2.4020309448242188
2.5532286167144775 -8.918931007385254 -2.4020309448242188
2.728776693344116 -8.866801261901855 -2.4020309448242188
2.9032323360443115 -8.811212539672852 -2.4020309448242188
3.076613664627075 -8.752190589904785 -2.4020309448242188
3.2487668991088867 -8.68975830078125 -2.4020309448242188
3.757366895675659 -8.482251167297363 -2.4020309448242188
4.252797603607178 -8.244999885559082 -2.4020309448242188
4.414711952209473 -8.159449577331543 -2.4020309448242188
4.733321189880371 -7.978845119476318 -2.4020309448242188
5.044551849365234 -7.785808086395264 -2.4020309448242188
2.0114123821258545 -8.243104934692383 -2.4020309448242188
2.495750665664673 -8.109610557556152 -2.4020309448242188
2.8138842582702637 -8.00478458404541 -2.4020309448242188
2.9713354110717773 -7.947686195373535 -2.4020309448242188
3.1276304721832275 -7.887488842010498 -2.4020309448242188
3.436505079269409 -7.757898330688477 -2.4020309448242188
3.7400219440460205 -7.6162109375 -2.4020309448242188
3.8896262645721436 -7.540911674499512 -2.4020309448242188
4.184229850769043 -7.381514072418213 -2.4020309448242188
4.472312927246094 -7.21061372756958 -2.4020309448242188
2.0006799697875977 -7.548868179321289 -2.4020309448242188
2.1492931842803955 -7.507904529571533 -2.4020309448242188
2.2970666885375977 -7.464020729064941 -2.4020309448242188
2.589876651763916 -7.367541790008545 -2.4020309448242188
2.734792470932007 -7.314985752105713 -2.4020309448242188
2.8786473274230957 -7.259581089019775 -2.4020309448242188
3.1629295349121094 -7.140307903289795 -2.4020309448242188
3.579981565475464 -6.940596103668213 -2.4020309448242188
3.8511314392089844 -6.793887615203857 -2.4020309448242188
3.9844822883605957 -6.716546058654785 -2.4020309448242188
4.116280555725098 -6.636592388153076 -2.4020309448242188
4.37501335144043 -6.468954086303711 -2.4020309448242188
1.713018774986267 -7.020228862762451 -2.4020309448242188
1.851253628730774 -6.985048294067383 -2.4020309448242188
2.1255016326904297 -6.906538486480713 -2.4020309448242188
2.2614123821258545 -6.863239765167236 -2.4020309448242188
2.396440267562866 -6.81726598739624 -2.4020309448242188
2.7957115173339844 -6.663485527038574 -2.4020309448242188
3.438715696334839 -6.355571269989014 -2.4020309448242188
3.686884641647339 -6.2148942947387695 -2.4020309448242188
3.9293088912963867 -6.064532279968262 -2.4020309448242188
4.04824686050415 -5.985794544219971 -2.4020309448242188
1.7207872867584229 -6.492790222167969 -2.4020309448242188
1.848610758781433 -6.457559585571289 -2.4020309448242188
2.2275547981262207 -6.336831569671631 -2.4020309448242188
2.352200984954834 -6.291630268096924 -2.4020309448242188
2.4759275913238525 -6.2439751625061035 -2.4020309448242188
2.7204418182373047 -6.141387939453125 -2.4020309448242188
2.960716485977173 -6.029229164123535 -2.4020309448242188
3.07914662361145 -5.969615459442139 -2.4020309448242188
3.4270591735839844 -5.776912212371826 -2.4020309448242188
3.5404210090637207 -5.708145618438721 -2.4020309448242188
3.762956380844116 -5.563955783843994 -2.4020309448242188
1.725067138671875 -6.025996685028076 -2.4020309448242188
2.078686475753784 -5.91333532333374 -2.4020309448242188
2.1950011253356934 -5.871155261993408 -2.4020309448242188
2.4250171184539795 -5.779945373535156 -2.4020309448242188
3.303809642791748 -5.326661109924316 -2.4020309448242188
3.511474609375 -5.192111492156982 -2.4020309448242188
1.3912792205810547 -5.701700687408447 -2.4020309448242188
1.615240454673767 -5.642344951629639 -2.4020309448242188
1.836672306060791 -5.574197769165039 -2.4020309448242188
1.9463475942611694 -5.536857604980469 -2.4020309448242188
2.163362979888916 -5.455723285675049 -2.4020309448242188
2.482454776763916 -5.318124294281006 -2.4020309448242188
2.6904296875 -5.215999603271484 -2.4020309448242188
2.8942041397094727 -5.105745792388916 -2.4020309448242188
3.1913108825683594 -4.925502300262451 -2.4020309448242188
3.287912607192993 -4.8615522384643555 -2.4020309448242188
1.306551456451416 -5.354459285736084 -2.4020309448242188
1.5168615579605103 -5.298717975616455 -2.4020309448242188
1.8278087377548218 -5.199655532836914 -2.4020309448242188
2.031611204147339 -5.123461723327637 -2.4020309448242188
2.3312742710113525 -4.9942426681518555 -2.4020309448242188
2.5265769958496094 -4.8983378410339355 -2.4020309448242188
2.6227710247039795 -4.847512722015381 -2.4020309448242188
2.8120555877685547 -4.74021577835083 -2.4020309448242188
2.996958017349243 -4.625532150268555 -2.4020309448242188
3.0876731872558594 -4.565475940704346 -2.4020309448242188
1.3294140100479126 -5.016083717346191 -2.4020309448242188
1.428164005279541 -4.988865375518799 -2.4020309448242188
1.5263586044311523 -4.9597063064575195 -2.4020309448242188
1.6239575147628784 -4.928609371185303 -2.4020309448242188
1.8172179460525513 -4.860673904418945 -2.4020309448242188
1.9128087759017944 -4.823859691619873 -2.4020309448242188
2.0076489448547363 -4.785162448883057 -2.4020309448242188
2.1017088890075684 -4.744602680206299 -2.4020309448242188
2.287335157394409 -4.657954216003418 -2.4020309448242188
2.5590062141418457 -4.5144147872924805 -2.4020309448242188
2.6476147174835205 -4.463022232055664 -2.4020309448242188
1.1608325242996216 -4.757292747497559 -2.4020309448242188
1.2545080184936523 -4.733453273773193 -2.4020309448242188
1.4403563737869263 -4.68025016784668 -2.4020309448242188
1.5324560403823853 -4.650908470153809 -2.4020309448242188
1.7148278951644897 -4.5868000984191895 -2.4020309448242188
1.8945263624191284 -4.5155439376831055 -2.4020309448242188
2.158457040786743 -4.395501613616943 -2.4020309448242188
2.33026123046875 -4.306884765625 -2.4020309448242188
2.498431444168091 -4.211559295654297 -2.4020309448242188
2.5810742378234863 -4.161423206329346 -2.4020309448242188
2.7433154582977295 -4.056302547454834 -2.4020309448242188
1.0976073741912842 -4.4981818199157715 -2.4020309448242188
1.2742919921875 -4.45135498046875 -2.4020309448242188
1.5355077981948853 -4.368133068084717 -2.4020309448242188
1.8752660751342773 -4.233408451080322 -2.4020309448242188
1.9584606885910034 -4.1955695152282715 -2.4020309448242188
2.122530460357666 -4.115002155303955 -2.4020309448242188
2.2832934856414795 -4.02802038192749 -2.4020309448242188
2.3623547554016113 -3.9821653366088867 -2.4020309448242188
2.4404966831207275 -3.9347617626190186 -2.4020309448242188
2.517688035964966 -3.885823965072632 -2.4020309448242188
2.593897581100464 -3.8353710174560547 -2.4020309448242188
1.039642333984375 -4.260632038116455 -2.4020309448242188
1.123538851737976 -4.23928165435791 -2.4020309448242188
1.5357922315597534 -4.107945442199707 -2.4020309448242188
1.6967394351959229 -4.044120788574219 -2.4020309448242188
1.8550341129302979 -3.974001884460449 -2.4020309448242188
2.2375988960266113 -3.771869421005249 -2.4020309448242188
2.3116137981414795 -3.7269675731658936 -2.4020309448242188
2.456911563873291 -3.632826089859009 -2.4020309448242188
0.9862573146820068 -4.0418500900268555 -2.4020309448242188
1.0658459663391113 -4.021597385406494 -2.4020309448242188
1.3797338008880615 -3.924996852874756 -2.4020309448242188
1.533575415611267 -3.8674817085266113 -2.4020309448242188
1.6096142530441284 -3.8364570140838623 -2.4020309448242188
1.685024380683899 -3.8039398193359375 -2.4020309448242188
1.9072058200836182 -3.6975438594818115 -2.4020309448242188
1.9798167943954468 -3.659177780151367 -2.4020309448242188
2.051650285720825 -3.6193947792053223 -2.4020309448242188
2.1929075717926025 -3.535595655441284 -2.4020309448242188
2.330756902694702 -3.4462766647338867 -2.4020309448242188
