ply
format ascii 1.0
element vertex 324
property float x
property float y
property float z
end_header
32.93382263183594 23.03748893737793 7.086855411529541
32.93382263183594 24.033781051635742 7.188991546630859
32.804725646972656 26.014822006225586 7.382438659667969
32.913509368896484 27.192161560058594 7.52796745300293
32.933837890625 29.505504608154297 7.796785831451416
32.93384552001953 31.973031997680664 8.093603134155273
32.93384552001953 33.279754638671875 8.255754470825195
32.722835540771484 34.41842269897461 8.373963356018066
32.73902893066406 35.84623718261719 8.560115814208984
31.095321655273438 19.946292877197266 5.659437656402588
31.30635643005371 20.97818374633789 5.773157596588135
31.30636215209961 21.899076461791992 5.852864742279053
31.30637550354004 25.864397048950195 6.221006870269775
31.039091110229492 26.707143783569336 6.272925853729248
32.93384552001953 31.9730281829834 7.031795024871826
32.93384552001953 33.27973937988281 7.172672748565674
31.30635643005371 20.081684112548828 4.843377113342285
31.30636215209961 21.899078369140625 4.9751482009887695
31.163671493530273 23.712697982788086 5.0993804931640625
31.30637550354004 25.86438751220703 5.288081169128418
31.306381225585938 28.047462463378906 5.473535537719727
31.095355987548828 31.421945571899414 5.756689548492432
31.09761619567871 34.049041748046875 6.004858493804932
31.095365524291992 35.4466552734375 6.140276908874512
31.039140701293945 38.3795166015625 6.427708625793457
30.56951141357422 19.609027862548828 3.8999083042144775
30.56951141357422 20.48442840576172 3.9514544010162354
30.48920249938965 22.249801635742188 4.053067684173584
31.306371688842773 24.826601028442383 4.290501117706299
31.30637550354004 26.93711280822754 4.434875965118408
31.095355987548828 31.421939849853516 4.747026443481445
31.095359802246094 32.706607818603516 4.84605073928833
31.097606658935547 34.04903793334961 4.9516777992248535
31.095365524291992 35.4466438293457 5.063357353210449
30.56951141357422 20.48442840576172 3.115069627761841
30.569515228271484 21.383644104003906 3.158076047897339
30.569520950317383 22.30840492248535 3.2035913467407227
30.489208221435547 23.19948959350586 3.243215799331665
30.569530487060547 25.25562858581543 3.356717348098755
30.569536209106445 27.387319564819336 3.4744396209716797
30.56954002380371 28.511131286621094 3.5386297702789307
30.56954002380371 29.67770004272461 3.606708288192749
30.56954574584961 30.89060401916504 3.6789660453796387
31.095359802246094 32.70661544799805 3.8203113079071045
31.095359802246094 34.04656982421875 3.9033000469207764
31.095365524291992 35.44664001464844 3.9916155338287354
31.306406021118164 37.16266632080078 4.113423824310303
30.56951141357422 19.60902976989746 2.252100944519043
30.56951141357422 20.48442840576172 2.281867742538452
30.535184860229492 23.234474182128906 2.3793208599090576
30.489208221435547 24.17857551574707 2.4129865169525146
30.56954002380371 28.51113510131836 2.5921361446380615
30.56954002380371 29.677701950073242 2.6420061588287354
30.56954574584961 30.890602111816406 2.694936513900757
30.80721664428711 38.09273910522461 3.037961959838867
30.569608688354492 39.386558532714844 3.09169864654541
30.489198684692383 20.43061065673828 1.4471772909164429
30.48920249938965 21.327465057373047 1.4671577215194702
30.48920249938965 22.249799728393555 1.4883027076721191
30.489208221435547 23.19949722290039 1.5106806755065918
30.489208221435547 24.178571701049805 1.5343652963638306
30.489213943481445 25.18927764892578 1.559441328048706
30.48921775817871 26.2340030670166 1.5859968662261963
30.48921775817871 27.31536865234375 1.614130973815918
30.48922348022461 28.43622589111328 1.6439521312713623
30.56954574584961 30.89060401916504 1.7136509418487549
30.807207107543945 38.09273910522461 1.9317737817764282
30.569608688354492 39.38655090332031 1.965943694114685
30.489198684692383 20.43061065673828 0.6199537515640259
30.489198684692383 22.249799728393555 0.6375709176063538
30.48921775817871 26.234010696411133 0.6794224381446838
30.48921775817871 27.315372467041016 0.6914762854576111
30.48922348022461 28.436235427856445 0.7042496800422668
30.44394874572754 29.555770874023438 0.7167366147041321
30.806093215942383 38.09136199951172 0.8275190591812134
31.157489776611328 19.986190795898438 -0.20841139554977417
31.157489776611328 20.878427505493164 -0.2111659198999405
31.157493591308594 21.794940948486328 -0.21408125758171082
31.157499313354492 22.737489700317383 -0.2171667367219925
31.15750503540039 25.741397857666016 -0.22754652798175812
30.50557518005371 29.615604400634766 -0.2393774390220642
32.088748931884766 38.09135818481445 -0.2804189920425415
30.806093215942383 38.09136199951172 -0.2758203148841858
30.50557518005371 39.30405044555664 -0.280120849609375
31.157489776611328 20.87843132019043 -1.056084156036377
31.157499313354492 23.7080020904541 -1.1024256944656372
31.15750503540039 24.708541870117188 -1.1197097301483154
31.4769287109375 29.357421875 -1.2119797468185425
31.4769287109375 30.55862045288086 -1.235297679901123
30.83089256286621 31.154691696166992 -1.2341798543930054
32.088748931884766 38.09135818481445 -1.4024267196655273
30.806102752685547 38.09136199951172 -1.379433274269104
31.157493591308594 21.794940948486328 -1.9283488988876343
31.157493591308594 22.73749542236328 -1.9561400413513184
31.157499313354492 23.707998275756836 -1.9855523109436035
31.15750503540039 24.708539962768555 -2.0166826248168945
31.157508850097656 26.809032440185547 -2.0845444202423096
30.576156616210938 32.16050720214844 -2.2504794597625732
29.92313003540039 32.76307678222656 -2.2502593994140625
28.581565856933594 33.928123474121094 -2.249807834625244
27.894094467163086 34.49072265625 -2.2496156692504883
26.490732192993164 35.57989501953125 -2.2496156692504883
24.832035064697266 18.12141990661621 -2.2540040016174316
24.802806854248047 20.491344451904297 -2.358962059020996
24.399784088134766 21.85982894897461 -2.4020156860351562
23.957181930541992 22.34401512145996 -2.4020156860351562
23.504980087280273 22.819238662719727 -2.4020156860351562
22.092529296875 24.18929672241211 -2.4020156860351562
21.603736877441406 24.626821517944336 -2.4020156860351562
21.106271743774414 25.05449676513672 -2.4020156860351562
20.600366592407227 25.47205924987793 -2.4020156860351562
20.086191177368164 25.879484176635742 -2.4020156860351562
19.563949584960938 26.2764835357666 -2.4020156860351562
21.05942153930664 13.508719444274902 -2.4020156860351562
20.78470230102539 13.927693367004395 -2.4020156860351562
20.50165557861328 14.34108829498291 -2.4020156860351562
19.288434982299805 15.935525894165039 -2.4020156860351562
17.9515323638916 17.42781639099121 -2.4020156860351562
16.49947166442871 18.80828857421875 -2.4020156860351562
16.119544982910156 19.13490867614746 -2.4020156860351562
15.733159065246582 19.45384979248047 -2.4020156860351562
15.340485572814941 19.765010833740234 -2.4020156860351562
14.941620826721191 20.06819725036621 -2.4020156860351562
16.798595428466797 11.256630897521973 -2.4020156860351562
16.56983184814453 11.590743064880371 -2.4020156860351562
16.09246253967285 12.244887351989746 -2.4020156860351562
15.84404468536377 12.564659118652344 -2.4020156860351562
15.061083793640137 13.493264198303223 -2.4020156860351562
14.787880897521973 13.792137145996094 -2.4020156860351562
14.50875186920166 14.08547306060791 -2.4020156860351562
13.335180282592773 15.201225280761719 -2.4020156860351562
13.028124809265137 15.465205192565918 -2.4020156860351562
14.083186149597168 9.43704605102539 -2.4020166397094727
13.891393661499023 9.717151641845703 -2.4020159244537354
13.694035530090332 9.99335765838623 -2.4020156860351562
13.491181373596191 10.265556335449219 -2.4020156860351562
13.28293228149414 10.533636093139648 -2.4020156860351562
12.626532554626465 11.312142372131348 -2.4020156860351562
12.16347885131836 11.808621406555176 -2.4020156860351562
11.680912971496582 12.286173820495605 -2.4020156860351562
11.432560920715332 12.517603874206543 -2.4020156860351562
11.179618835449219 12.74401569366455 -2.4020156860351562
10.922186851501465 12.965323448181152 -2.4020156860351562
10.660378456115723 13.18143081665039 -2.4020156860351562
10.394301414489746 13.39224910736084 -2.4020156860351562
10.12405776977539 13.597695350646973 -2.4020156860351562
11.947768211364746 8.357566833496094 -2.40201997756958
11.424421310424805 9.05980110168457 -2.4020166397094727
11.052490234375 9.50996208190918 -2.4020156860351562
10.85986042022705 9.729375839233398 -2.4020156860351562
10.046549797058105 10.567127227783203 -2.4020156860351562
9.615395545959473 10.960908889770508 -2.4020156860351562
8.797966003417969 10.443737983703613 -2.2496156692504883
8.372748374938965 10.787633895874023 -2.2496156692504883
10.756582260131836 6.899888038635254 -2.4020233154296875
10.471672058105469 7.325038433074951 -2.40202260017395
10.32291030883789 7.5332465171813965 -2.4020211696624756
10.169997215270996 7.738434791564941 -2.4020211696624756
9.851994514465332 8.139423370361328 -2.40201997756958
9.687033653259277 8.335064888000488 -2.4020185470581055
9.518183708190918 8.527361869812012 -2.40201735496521
9.345521926879883 8.716238975524902 -2.4020166397094727
7.711037635803223 9.153461456298828 -2.249616861343384
7.1475510597229 9.599915504455566 -2.2496163845062256
9.564850807189941 6.13544225692749 -2.402024030685425
9.31152057647705 6.513493537902832 -2.402024269104004
9.043261528015137 6.881093502044678 -2.402024269104004
8.463668823242188 7.582619667053223 -2.402021884918213
8.310133934020996 7.750571250915527 -2.4020209312438965
8.153278350830078 7.915410041809082 -2.4020204544067383
7.993139266967773 8.077088356018066 -2.4020204544067383
7.177145957946777 7.858295917510986 -2.2496249675750732
7.018341064453125 8.000446319580078 -2.2496249675750732
6.856752872467041 8.139355659484863 -2.2496252059936523
6.6923828125 8.275039672851562 -2.2496254444122314
8.49041748046875 5.68937349319458 -2.402024745941162
8.13351821899414 6.188863277435303 -2.402024745941162
8.007966041564941 6.350485801696777 -2.402024745941162
7.879201412200928 6.509565353393555 -2.402024984359741
7.612246036529541 6.819831371307373 -2.402026414871216
7.47416353225708 6.970890522003174 -2.402027130126953
7.333084583282471 7.119150161743164 -2.402027130126953
7.189057350158691 7.26456356048584 -2.4020273685455322
6.45513916015625 7.067779541015625 -2.2496299743652344
6.166970252990723 7.320577621459961 -2.2496304512023926
6.019145488739014 7.442599773406982 -2.2496304512023926
5.716320514678955 7.67764139175415 -2.249630928039551
7.808722972869873 5.0089640617370605 -2.402024984359741
7.706867694854736 5.164320945739746 -2.4020256996154785
7.493916034698486 5.4687604904174805 -2.402027130126953
7.382912635803223 5.617719650268555 -2.4020278453826904
6.909738540649414 6.19045352935791 -2.4020299911499023
6.525607585906982 6.594140529632568 -2.4020304679870605
5.977668285369873 6.5449981689453125 -2.2950336933135986
5.729773044586182 6.531558513641357 -2.249630928039551
5.463654518127441 6.755743026733398 -2.249630928039551
5.327282428741455 6.863793849945068 -2.249630928039551
5.188779354095459 6.969081401824951 -2.249630928039551
7.141898155212402 4.581221103668213 -2.402029037475586
6.95274543762207 4.8635053634643555 -2.4020297527313232
6.853973388671875 5.001753807067871 -2.4020302295684814
6.648205280303955 5.272165298461914 -2.4020304679870605
6.541310787200928 5.404236793518066 -2.4020307064056396
6.431784629821777 5.5341362953186035 -2.4020309448242188
6.319674968719482 5.661813259124756 -2.4020309448242188
6.205036640167236 5.787222385406494 -2.4020309448242188
5.722082614898682 6.26515531539917 -2.4020309448242188
4.872353553771973 6.277646541595459 -2.249630928039551
4.745673656463623 6.3739495277404785 -2.249630928039551
6.573356628417969 4.216526508331299 -2.4020307064056396
6.21489953994751 4.728968620300293 -2.4020309448242188
6.118963718414307 4.852463245391846 -2.4020309448242188
5.816583156585693 5.211091041564941 -2.4020309448242188
5.711070537567139 5.326516628265381 -2.4020309448242188
4.910849571228027 6.072203636169434 -2.4020309448242188
4.788276195526123 6.169322967529297 -2.4020309448242188
6.082398414611816 3.901597261428833 -2.4020309448242188
6.003052711486816 4.02260684967041 -2.4020309448242188
5.921303749084473 4.14200496673584 -2.4020309448242188
5.837178707122803 4.259739398956299 -2.4020309448242188
5.284517765045166 4.928682804107666 -2.4020309448242188
5.184770584106445 5.033508777618408 -2.4020309448242188
4.979071140289307 5.237067222595215 -2.4020309448242188
5.653753757476807 3.626640558242798 -2.4020309448242188
5.580000877380371 3.739121675491333 -2.4020309448242188
5.504012107849121 3.8500492572784424 -2.4020309448242188
5.425814151763916 3.9595420360565186 -2.4020309448242188
5.345444202423096 4.067391872406006 -2.4020309448242188
5.002852439880371 4.482109069824219 -2.4020309448242188
4.724727630615234 4.774348258972168 -2.4020309448242188
4.529778957366943 4.95969295501709 -2.4020309448242188
4.223827838897705 5.222711563110352 -2.4020309448242188
4.118403434753418 5.306241989135742 -2.4020309448242188
5.275909423828125 3.3842504024505615 -2.4020309448242188
5.207086086273193 3.48923397064209 -2.4020309448242188
4.988204002380371 3.795618772506714 -2.4020309448242188
4.911204814910889 3.894684314727783 -2.4020309448242188
4.832230091094971 3.9922473430633545 -2.4020309448242188
4.751321792602539 4.088206768035889 -2.4020309448242188
4.668507099151611 4.182530879974365 -2.4020309448242188
4.583823204040527 4.275169372558594 -2.4020309448242188
4.49730110168457 4.366093635559082 -2.4020309448242188
4.408968448638916 4.4552741050720215 -2.4020309448242188
4.31887674331665 4.542665481567383 -2.4020309448242188
4.133527755737305 4.711946487426758 -2.4020309448242188
4.038345813751221 4.7937726974487305 -2.4020309448242188
3.9415478706359863 4.8736748695373535 -2.4020309448242188
3.8431689739227295 4.9516215324401855 -2.4020309448242188
3.7432470321655273 5.027583122253418 -2.4020309448242188
4.940013408660889 3.1688103675842285 -2.4020309448242188
4.875571250915527 3.267087936401367 -2.4020309448242188
4.809175968170166 3.364060640335083 -2.4020309448242188
4.740849494934082 3.459681987762451 -2.4020309448242188
4.670623779296875 3.5539164543151855 -2.4020309448242188
4.598526477813721 3.6467254161834717 -2.4020309448242188
4.52458381652832 3.7380754947662354 -2.4020309448242188
4.448824405670166 3.8279266357421875 -2.4020309448242188
4.371280193328857 3.9162418842315674 -2.4020309448242188
4.210975170135498 4.088122367858887 -2.4020309448242188
4.128268718719482 4.171626567840576 -2.4020309448242188
4.043908596038818 4.253451824188232 -2.4020309448242188
3.6906042098999023 4.563387393951416 -2.4020309448242188
3.5984888076782227 4.636370658874512 -2.4020309448242188
3.5049290657043457 4.707496166229248 -2.4020309448242188
4.639158725738525 2.9758214950561523 -2.4020309448242188
4.578641414642334 3.0681183338165283 -2.4020309448242188
4.452125072479248 3.2489824295043945 -2.4020309448242188
4.105065822601318 3.6777379512786865 -2.4020309448242188
3.9545202255249023 3.839150905609131 -2.4020309448242188
3.876851797103882 3.917567729949951 -2.4020309448242188
3.797630548477173 3.994410276412964 -2.4020309448242188
3.634653329849243 4.143260478973389 -2.4020309448242188
3.379335880279541 4.35400915145874 -2.4020309448242188
4.367874622344971 2.8018035888671875 -2.4020309448242188
4.31089973449707 2.888704776763916 -2.4020309448242188
4.252189636230469 2.9744439125061035 -2.4020309448242188
4.129688739776611 3.1423137187957764 -2.4020309448242188
4.065939903259277 3.224375009536743 -2.4020309448242188
3.933575391769409 3.3845880031585693 -2.4020309448242188
3.794901132583618 3.5393731594085693 -2.4020309448242188
3.65014386177063 3.688480854034424 -2.4020309448242188
3.5755553245544434 3.760828733444214 -2.4020309448242188
3.499534845352173 3.831669807434082 -2.4020309448242188
3.422109365463257 3.9009759426116943 -2.4020309448242188
3.181722402572632 4.099400520324707 -2.4020309448242188
4.012601375579834 2.806849956512451 -2.4020309448242188
3.897000551223755 2.965259313583374 -2.4020309448242188
3.8368444442749023 3.0426971912384033 -2.4020309448242188
3.7751476764678955 3.1189141273498535 -2.4020309448242188
3.711937189102173 3.193882942199707 -2.4020309448242188
3.581077814102173 3.3399462699890137 -2.4020309448242188
3.3740930557250977 3.5489256381988525 -2.4020309448242188
3.3023533821105957 3.6157751083374023 -2.4020309448242188
3.0793066024780273 3.8075249195098877 -2.4020309448242188
3.002448558807373 3.868420362472534 -2.4020309448242188
3.8972716331481934 2.499931812286377 -2.4020309448242188
3.8464317321777344 2.577468156814575 -2.4020309448242188
3.740147590637207 2.729409694671631 -2.4020309448242188
3.50976300239563 3.019923686981201 -2.4020309448242188
3.38603138923645 3.158032178878784 -2.4020309448242188
2.9830944538116455 3.5411205291748047 -2.4020309448242188
2.911587953567505 3.6001434326171875 -2.4020309448242188
2.7651050090789795 3.713834047317505 -2.4020309448242188
3.6914563179016113 2.367910623550415 -2.4020309448242188
3.5936851501464844 2.513814687728882 -2.4020309448242188
3.542630434036255 2.5852692127227783 -2.4020309448242188
3.4901537895202637 2.655686616897583 -2.4020309448242188
3.4362781047821045 2.725039005279541 -2.4020309448242188
3.3810229301452637 2.7933006286621094 -2.4020309448242188
3.2664670944213867 2.926436185836792 -2.4020309448242188
3.2072155475616455 2.9912567138671875 -2.4020309448242188
3.1466784477233887 3.054875373840332 -2.4020309448242188
3.021836996078491 3.1784183979034424 -2.4020309448242188
2.8921520709991455 3.296861410140991 -2.4020309448242188
2.8255553245544434 3.3541135787963867 -2.4020309448242188
2.757827043533325 3.410020112991333 -2.4020309448242188
2.688992977142334 3.464557409286499 -2.4020309448242188
3.409151554107666 2.3847312927246094 -2.4020309448242188
3.2598254680633545 2.5851097106933594 -2.4020309448242188
3.2074084281921387 2.6498656272888184 -2.4020309448242188
3.0425243377685547 2.837655544281006 -2.4020309448242188
2.926467180252075 2.9572038650512695 -2.4020309448242188
2.8057188987731934 3.0720043182373047 -2.4020309448242188
2.484593391418457 3.337073802947998 -2.4020309448242188
