ply
format ascii 1.0
element vertex 266
property float x
property float y
property float z
end_header
33.11475372314453 -29.600149154663086 7.831686973571777
33.11476135253906 -28.40816307067871 7.693211555480957
33.11476135253906 -27.257110595703125 7.562631130218506
33.11476516723633 -26.144060134887695 7.43944787979126
18.76862335205078 -13.614599227905273 4.08842658996582
29.1146183013916 -20.227420806884766 6.2510552406311035
29.51792335510254 -19.628429412841797 6.25049352645874
30.86336898803711 -19.628429412841797 6.449378967285156
30.646312713623047 -17.780208587646484 6.247381687164307
30.838823318481445 -17.061935424804688 6.214475154876709
31.203353881835938 -16.442564010620117 6.219136714935303
27.093481063842773 -13.579123497009277 5.343757629394531
29.114608764648438 -27.111412048339844 6.094537734985352
29.114614486694336 -26.024553298950195 5.982311248779297
29.114614486694336 -24.9765567779541 5.876535892486572
29.1146183013916 -22.0383243560791 5.593900680541992
29.517919540405273 -19.628429412841797 5.430482864379883
29.88099479675293 -19.0036563873291 5.424925804138184
22.295557022094727 -13.549688339233398 3.996842622756958
30.39800262451172 -17.636138916015625 5.3838019371032715
30.95391082763672 -17.1256103515625 5.419338226318359
31.166072845458984 -16.42292022705078 5.396785259246826
27.093481063842773 -13.579123497009277 4.642704963684082
29.114608764648438 -27.111425399780273 5.180579662322998
29.114614486694336 -26.024553298950195 5.085181713104248
29.114614486694336 -24.9765625 4.995269775390625
28.90357780456543 -22.8193302154541 4.795485019683838
29.1146183013916 -22.03832244873047 4.755019187927246
29.51792335510254 -19.628429412841797 4.6161088943481445
30.86336898803711 -19.628429412841797 4.762991905212402
31.331411361694336 -18.177677154541016 4.716951847076416
30.80311393737793 -16.231658935546875 4.5340375900268555
27.093481063842773 -13.579124450683594 3.9464666843414307
28.29745101928711 -25.29412078857422 4.0756120681762695
28.37777328491211 -24.34444236755371 4.014914035797119
28.37777328491211 -21.480567932128906 3.8218138217926025
28.377777099609375 -19.715496063232422 3.710500478744507
29.059959411621094 -19.323896408081055 3.747445583343506
30.33070182800293 -18.432891845703125 3.811255931854248
31.08785629272461 -17.19971466064453 3.8151280879974365
25.83275604248047 -13.612533569335938 3.1355364322662354
28.29745101928711 -26.35047721862793 3.273221254348755
28.37776756286621 -25.365915298461914 3.22206711769104
28.37777328491211 -24.34443473815918 3.1650969982147217
28.297454833984375 -22.340795516967773 3.0520317554473877
28.37777328491211 -21.480571746826172 3.0128698348999023
30.384550094604492 -19.32390022277832 3.0482451915740967
30.483774185180664 -18.525917053222656 3.0197088718414307
30.553085327148438 -17.72611427307129 2.990180492401123
31.383808135986328 -17.363449096679688 3.0362303256988525
28.377777099609375 -20.584999084472656 2.1739375591278076
28.377777099609375 -19.715499877929688 2.1427228450775146
30.23042869567871 -17.538915634155273 2.1672511100769043
31.258832931518555 -17.294309616088867 2.2152607440948486
31.313417434692383 -16.500560760498047 2.1948492527008057
28.297454833984375 -22.340805053710938 1.4216272830963135
28.297454833984375 -21.41977310180664 1.399412989616394
28.297460556030273 -20.526735305786133 1.3784480094909668
28.297460556030273 -19.659696578979492 1.3586534261703491
29.059959411621094 -19.323896408081055 1.3760768175125122
32.099849700927734 -16.914974212646484 1.430707573890686
28.29745101928711 -26.35048484802246 0.6531446576118469
28.297460556030273 -21.419775009155273 0.5994920134544373
28.297460556030273 -20.52674102783203 0.5905100703239441
28.297460556030273 -19.659698486328125 0.5820310711860657
29.059959411621094 -19.323896408081055 0.5894947648048401
30.384531021118164 -19.323898315429688 0.6082524061203003
31.796831130981445 -19.32390022277832 0.6285127401351929
31.0216007232666 -17.997934341430664 0.6058170795440674
32.38992691040039 -17.06783103942871 0.6184366941452026
28.650121688842773 -24.578088760375977 -0.21252867579460144
28.650121688842773 -23.582216262817383 -0.20892119407653809
28.650121688842773 -21.686723709106445 -0.2023063600063324
28.650121688842773 -20.78255844116211 -0.19927550852298737
28.297460556030273 -19.659704208374023 -0.19399672746658325
29.059955596923828 -19.323896408081055 -0.1964845210313797
31.79683494567871 -19.32390022277832 -0.20948943495750427
32.38992691040039 -17.067829132080078 -0.20613081753253937
28.650115966796875 -25.60934829711914 -1.0820302963256836
28.650121688842773 -23.582216262817383 -1.0448578596115112
28.650121688842773 -21.686723709106445 -1.0117781162261963
28.650121688842773 -20.782550811767578 -0.996618926525116
29.059955596923828 -19.323896408081055 -0.982659101486206
32.38992691040039 -18.791799545288086 -1.0544086694717407
32.38992691040039 -17.920101165771484 -1.04230797290802
32.38992691040039 -17.06783103942871 -1.0309044122695923
27.093481063842773 -13.579120635986328 -0.8533456325531006
28.650115966796875 -25.609359741210938 -1.9488195180892944
28.650121688842773 -23.58221435546875 -1.8818687200546265
28.650121688842773 -22.61922264099121 -1.8512160778045654
28.297460556030273 -19.65970230102539 -1.7474361658096313
30.384540557861328 -19.323898315429688 -1.8261595964431763
31.796825408935547 -19.32390022277832 -1.8869872093200684
30.79788589477539 -17.868144989013672 -1.805727243423462
32.38992691040039 -17.067829132080078 -1.856737732887268
27.093481063842773 -13.579120635986328 -1.5369422435760498
24.660499572753906 -21.155508041381836 -2.3823444843292236
24.65656280517578 -20.295082092285156 -2.34153413772583
24.652584075927734 -19.46316146850586 -2.3030216693878174
24.648555755615234 -18.657724380493164 -2.2666656970977783
25.554672241210938 -16.99300193786621 -2.2501699924468994
26.846343994140625 -14.85305118560791 -2.2496156692504883
27.1433048248291 -14.303129196166992 -2.2496156692504883
27.093481063842773 -13.579119682312012 -2.222095489501953
18.989532470703125 -16.29055404663086 -2.4020156860351562
19.317420959472656 -15.900373458862305 -2.4020156860351562
19.637285232543945 -15.503605842590332 -2.4020156860351562
19.94899559020996 -15.100400924682617 -2.4020156860351562
20.547462463378906 -14.275370597839355 -2.4020156860351562
20.834001541137695 -13.853890419006348 -2.4020156860351562
21.64106559753418 -12.555665016174316 -2.4020161628723145
22.13460922241211 -11.663801193237305 -2.402017116546631
22.367599487304688 -11.210533142089844 -2.402017831802368
14.798715591430664 -13.780510902404785 -2.4020156860351562
15.07623291015625 -13.476219177246094 -2.4020156860351562
15.612711906433105 -12.850984573364258 -2.4020159244537354
16.123193740844727 -12.204442024230957 -2.402017116546631
16.368425369262695 -11.87350845336914 -2.402017593383789
16.606876373291016 -11.537647247314453 -2.4020190238952637
17.69390869140625 -9.789358139038086 -2.402019739151001
17.889633178710938 -9.426918983459473 -2.402019500732422
18.07793426513672 -9.060574531555176 -2.402019500732422
12.63922119140625 -11.29787540435791 -2.4020209312438965
12.86684799194336 -11.038086891174316 -2.402021646499634
13.08901309967041 -10.77370834350586 -2.4020214080810547
13.516955375671387 -10.231667518615723 -2.4020211696624756
13.922463417053223 -9.672648429870605 -2.4020211696624756
14.116591453552246 -9.38705825805664 -2.4020211696624756
14.30486011505127 -9.097577095031738 -2.4020211696624756
14.663530349731445 -8.507401466369629 -2.4020209312438965
11.066556930541992 -9.493669509887695 -2.402022361755371
11.802536010742188 -8.561457633972168 -2.402022123336792
11.974470138549805 -8.319278717041016 -2.402022123336792
12.141437530517578 -8.073650360107422 -2.402021884918213
12.46019458770752 -7.5724406242370605 -2.402021646499634
12.61185073852539 -7.317071437835693 -2.402021646499634
12.75827407836914 -7.058663845062256 -2.402021646499634
12.89940357208252 -6.79732608795166 -2.402021646499634
13.03518009185791 -6.5331711769104 -2.402021646499634
9.866826057434082 -8.121487617492676 -2.402024269104004
10.030202865600586 -7.918828964233398 -2.402024269104004
10.344399452209473 -7.503732681274414 -2.402024030685425
10.641430854797363 -7.076191425323486 -2.4020237922668457
10.920812606811523 -6.636907577514648 -2.4020237922668457
11.1820650100708 -6.186604976654053 -2.4020235538482666
11.424756050109863 -5.726030349731445 -2.4020233154296875
8.624743461608887 -7.3989105224609375 -2.402024984359741
8.773666381835938 -7.221693992614746 -2.402024745941162
8.918940544128418 -7.041487693786621 -2.402024745941162
9.060517311096191 -6.858361721038818 -2.402024745941162
9.19832706451416 -6.672389984130859 -2.402024507522583
9.58865737915039 -6.098171234130859 -2.402024269104004
9.710878372192383 -5.901595115661621 -2.402024269104004
9.82907485961914 -5.702572345733643 -2.402024269104004
7.479639530181885 -6.96498966217041 -2.4020273685455322
7.757106781005859 -6.65466833114624 -2.4020254611968994
8.021706581115723 -6.333126068115234 -2.402024984359741
8.149038314819336 -6.16841983795166 -2.402024984359741
8.393507957458496 -5.831403732299805 -2.402024984359741
8.62405014038086 -5.484705924987793 -2.402024745941162
8.733979225158691 -5.3079023361206055 -2.402024745941162
8.840277671813965 -5.128902912139893 -2.402024745941162
6.916740417480469 -6.182650089263916 -2.4020299911499023
7.041238784790039 -6.040465354919434 -2.402029514312744
7.509506702423096 -5.447340965270996 -2.402027130126953
7.618896484375 -5.293261528015137 -2.402026414871216
7.725129127502441 -5.137092590332031 -2.4020254611968994
7.9279465675354 -4.81805419921875 -2.402024984359741
8.02443790435791 -4.655572891235352 -2.402024984359741
8.117597579956055 -4.491153240203857 -2.402024984359741
8.20739459991455 -4.324878215789795 -2.402024984359741
6.439946174621582 -5.5246381759643555 -2.4020309448242188
6.551143646240234 -5.392334461212158 -2.4020307064056396
6.765329360961914 -5.121018409729004 -2.4020302295684814
6.868229866027832 -4.982121467590332 -2.4020302295684814
6.968278884887695 -4.841243267059326 -2.4020297527313232
7.065449237823486 -4.6982855796813965 -2.402029514312744
7.250939846038818 -4.406614780426025 -2.402028799057007
7.339184284210205 -4.258007049560547 -2.4020280838012695
7.424396991729736 -4.107621192932129 -2.4020276069641113
7.506523132324219 -3.955517530441284 -2.402027130126953
7.585534572601318 -3.8018252849578857 -2.402026653289795
6.129458904266357 -4.839183330535889 -2.4020309448242188
6.321465969085693 -4.585524082183838 -2.4020309448242188
6.50298547744751 -4.324273109436035 -2.4020309448242188
6.589714050292969 -4.19099235534668 -2.4020307064056396
6.981674671173096 -3.49916934967041 -2.4020297527313232
5.57927131652832 -4.592358112335205 -2.4020309448242188
5.671656131744385 -4.477786064147949 -2.4020309448242188
5.761682987213135 -4.361362934112549 -2.4020309448242188
5.934533596038818 -4.123053073883057 -2.4020309448242188
6.175258636474609 -3.752842664718628 -2.4020309448242188
6.39293098449707 -3.3687474727630615 -2.4020309448242188
6.460220813751221 -3.237791061401367 -2.4020309448242188
5.007918357849121 -4.476414203643799 -2.4020309448242188
5.355640888214111 -4.053955078125 -2.4020309448242188
5.4371018409729 -3.944012403488159 -2.4020309448242188
5.516310691833496 -3.832448720932007 -2.4020309448242188
5.593227386474609 -3.719309091567993 -2.4020309448242188
5.667823314666748 -3.6046159267425537 -2.4020309448242188
5.942402362823486 -3.131326198577881 -2.4020309448242188
4.757349967956543 -4.081198692321777 -2.4020309448242188
4.839491844177246 -3.983438014984131 -2.4020309448242188
4.919626235961914 -3.8840434551239014 -2.4020309448242188
4.997719764709473 -3.783029794692993 -2.4020309448242188
5.219426155090332 -3.4707274436950684 -2.4020309448242188
5.289038181304932 -3.36369252204895 -2.4020309448242188
5.421651363372803 -3.14551043510437 -2.4020309448242188
5.484597206115723 -3.0344033241271973 -2.4020309448242188
5.545266151428223 -2.92212176322937 -2.4020309448242188
5.603635311126709 -2.808528423309326 -2.4020309448242188
4.295131683349609 -3.999607563018799 -2.4020309448242188
4.4544677734375 -3.8213539123535156 -2.4020309448242188
4.606415748596191 -3.6367573738098145 -2.4020309448242188
4.6795334815979 -3.542175769805908 -2.4020309448242188
4.750710487365723 -3.4461424350738525 -2.4020309448242188
4.819919109344482 -3.3486602306365967 -2.4020309448242188
4.887125015258789 -3.2497122287750244 -2.4020309448242188
4.952307224273682 -3.149522542953491 -2.4020309448242188
5.076474666595459 -2.9452545642852783 -2.4020309448242188
5.192221641540527 -2.73598313331604 -2.4020309448242188
4.1092209815979 -3.6730973720550537 -2.4020309448242188
4.183184623718262 -3.588630199432373 -2.4020309448242188
4.650704383850098 -2.9577455520629883 -2.4020309448242188
4.767312049865723 -2.765866756439209 -2.4020309448242188
3.797683000564575 -3.536388397216797 -2.4020309448242188
4.072912693023682 -3.2155582904815674 -2.4020309448242188
4.261689186096191 -2.9608094692230225 -2.4020309448242188
4.321113109588623 -2.8734207153320312 -2.4020309448242188
4.378746032714844 -2.7848308086395264 -2.4020309448242188
4.488532543182373 -2.6041345596313477 -2.4020309448242188
4.590873718261719 -2.4191548824310303 -2.4020309448242188
3.6509313583374023 -3.2634432315826416 -2.4020309448242188
3.7166454792022705 -3.1884071826934814 -2.4020309448242188
3.7808215618133545 -3.112032175064087 -2.4020309448242188
3.904433488845825 -2.9554638862609863 -2.4020309448242188
4.021565914154053 -2.7939882278442383 -2.4020309448242188
4.077641487121582 -2.711505174636841 -2.4020309448242188
3.4520812034606934 -3.0856964588165283 -2.4020309448242188
3.574894905090332 -2.9425337314605713 -2.4020309448242188
3.6340880393981934 -2.869107484817505 -2.4020309448242188
3.691774845123291 -2.7944912910461426 -2.4020309448242188
3.855546712875366 -2.5638089179992676 -2.4020309448242188
3.906968832015991 -2.4847464561462402 -2.4020309448242188
3.9567711353302 -2.4046499729156494 -2.4020309448242188
4.004929065704346 -2.323556900024414 -2.4020309448242188
4.051426887512207 -2.2414989471435547 -2.4020309448242188
4.096243858337402 -2.158510208129883 -2.4020309448242188
4.139358997344971 -2.07462739944458 -2.4020309448242188
3.2095654010772705 -2.9887356758117676 -2.4020309448242188
3.269770383834839 -2.9227495193481445 -2.4020309448242188
3.3861021995544434 -2.7871410846710205 -2.4020309448242188
3.6017112731933594 -2.5023021697998047 -2.4020309448242188
3.7006421089172363 -2.353527069091797 -2.4020309448242188
3.747812509536743 -2.2776601314544678 -2.4020309448242188
3.8374717235565186 -2.1231250762939453 -2.4020309448242188
3.879920482635498 -2.0445189476013184 -2.4020309448242188
3.9207603931427 -1.9650661945343018 -2.4020309448242188
3.0447583198547363 -2.835264205932617 -2.4020309448242188
3.157709836959839 -2.7088985443115234 -2.4020309448242188
3.212221622467041 -2.644028902053833 -2.4020309448242188
3.3677098751068115 -2.4429080486297607 -2.4020309448242188
3.4167675971984863 -2.373805284500122 -2.4020309448242188
3.464411497116089 -2.303717851638794 -2.4020309448242188
3.5986387729644775 -2.0878376960754395 -2.4020309448242188
3.7194323539733887 -1.8641611337661743 -2.4020309448242188
