ply
format ascii 1.0
element vertex 207
property float x
property float y
property float z
end_header
-2.1636791229248047 20.27376365661621 0.8039551973342896
-13.258035659790039 38.42987060546875 0.6866938471794128
-3.389235734939575 31.757272720336914 -0.899290919303894
-4.7482829093933105 31.981998443603516 -0.9104118347167969
-6.076720237731934 31.86122703552246 -0.9133118987083435
-6.762660503387451 31.88514518737793 -0.91778564453125
-11.184280395507812 32.41885757446289 -0.9656385779380798
-11.73206901550293 31.86855697631836 -0.9562223553657532
-13.215463638305664 31.80470848083496 -0.96978360414505
-3.3913328647613525 31.77684211730957 -1.6206907033920288
-4.071194171905518 31.9207820892334 -1.6319522857666016
-5.4140729904174805 31.937135696411133 -1.6427770853042603
-6.09013032913208 31.931488037109375 -1.6485726833343506
-6.76143741607666 31.87937355041504 -1.652703046798706
-7.483470439910889 32.02854919433594 -1.6680524349212646
-10.74527645111084 42.070106506347656 -2.2020480632781982
-12.231911659240723 40.82036590576172 -2.161118507385254
-11.192488670349121 32.442649841308594 -1.7404651641845703
-11.75063705444336 31.918983459472656 -1.7249550819396973
-13.212281227111816 31.79704475402832 -1.7462332248687744
-3.1870641708374023 29.862926483154297 -2.2020480632781982
-4.410500526428223 29.706876754760742 -2.2020480632781982
-6.231105327606201 29.378978729248047 -2.2020480632781982
-6.83303689956665 29.244842529296875 -2.2020480632781982
-8.028029441833496 28.93962860107422 -2.2020480632781982
-9.89894962310791 28.693178176879883 -2.2255265712738037
-10.522218704223633 28.582155227661133 -2.233206272125244
-11.681132316589355 28.112150192260742 -2.232104778289795
-4.369361877441406 22.90928077697754 -2.2390518188476562
-4.837906837463379 22.810192108154297 -2.2386064529418945
-6.2293877601623535 22.455795288085938 -2.237283945083618
-6.68786096572876 22.318803787231445 -2.2368481159210205
-7.595670223236084 22.016891479492188 -2.235985279083252
-8.044625282287598 21.85211181640625 -2.23555850982666
-2.002324104309082 18.761852264404297 -2.241299867630005
-2.3867602348327637 18.71373176574707 -2.2409346103668213
-3.152092933654785 18.593915939331055 -2.2402071952819824
-3.9116265773773193 18.442869186401367 -2.239485025405884
-4.664074420928955 18.26087760925293 -2.238770008087158
-5.037258148193359 18.15837860107422 -2.238415241241455
-5.408205509185791 18.04827308654785 -2.238062620162964
-5.7767510414123535 17.930612564086914 -2.2377123832702637
-6.506067752838135 17.672832489013672 -2.2370190620422363
-2.001271963119507 15.691303253173828 -2.241300344467163
-2.322741746902466 15.644770622253418 -2.240994930267334
-2.9623358249664307 15.531999588012695 -2.2403876781463623
-3.91143536567688 15.313997268676758 -2.239487648010254
-4.224487781524658 15.228437423706055 -2.2391910552978516
-5.7593207359313965 14.70569133758545 -2.237736940383911
-6.059298038482666 14.582475662231445 -2.237452268600464
-1.4441295862197876 13.531559944152832 -2.2418370246887207
-1.7214758396148682 13.497467041015625 -2.2415738105773926
-2.821807861328125 13.304509162902832 -2.2405290603637695
-4.168212413787842 12.937844276428223 -2.2392523288726807
-3.1149933338165283 8.461466789245605 -1.4853914976119995
-4.955187797546387 12.652478218078613 -2.2385098934173584
-5.213393211364746 12.546697616577148 -2.2382662296295166
-1.2658190727233887 11.860761642456055 -2.242017984390259
-1.7941014766693115 8.45901870727539 -1.6253310441970825
-2.712247371673584 11.60816764831543 -2.2406468391418457
-2.9497392177581787 11.548868179321289 -2.240421772003174
-2.8830277919769287 8.356793403625488 -1.6615972518920898
-4.115874767303467 11.180203437805176 -2.2393171787261963
-4.344161510467529 11.092260360717773 -2.2391011714935303
-1.3442846536636353 10.540925979614258 -2.2461888790130615
-1.414028286933899 8.341269493103027 -1.788331389427185
-2.421525716781616 10.363893508911133 -2.249722957611084
-2.63395619392395 10.312432289123535 -2.2498202323913574
-2.845273971557617 10.256665229797363 -2.249927520751953
-2.8830277919769287 8.356794357299805 -1.8686275482177734
-3.6780834197998047 9.990962982177734 -2.2504518032073975
-3.8827147483825684 9.91401481628418 -2.2506067752838135
-4.085763454437256 9.832916259765625 -2.2507710456848145
-1.0167211294174194 9.526677131652832 -2.2517032623291016
-1.2121386528015137 9.503938674926758 -2.2517380714416504
-1.4070641994476318 9.477229118347168 -2.251781702041626
-1.41403067111969 8.341268539428711 -1.988357663154602
-1.7950903177261353 9.411943435668945 -2.2518956661224365
-1.988043189048767 9.373387336730957 -2.2519659996032715
-2.1801695823669434 9.33091926574707 -2.252045154571533
-2.37139892578125 9.284546852111816 -2.2521328926086426
-2.561652660369873 9.234292984008789 -2.2522294521331787
-2.750861644744873 9.18017292022705 -2.2523345947265625
-3.6783628463745117 8.852452278137207 -2.2529897689819336
-1.1012243032455444 8.63431167602539 -2.253685474395752
-2.327110528945923 8.38883113861084 -2.254042863845825
-2.4987218379974365 8.338754653930664 -2.2539010047912598
-2.6692419052124023 8.285140037536621 -2.2537505626678467
-2.838599681854248 8.227997779846191 -2.2535910606384277
-3.173551559448242 8.103273391723633 -2.253246545791626
-0.8445568680763245 7.913531303405762 -2.252985954284668
-1.006844401359558 7.894299030303955 -2.252922534942627
-1.3300366401672363 7.84576416015625 -2.25277042388916
-1.4908007383346558 7.816493988037109 -2.2526819705963135
-1.6509203910827637 7.783907413482666 -2.2525851726531982
-1.96893310546875 7.708803653717041 -2.252366781234741
-2.1266942024230957 7.666342735290527 -2.2522456645965576
-2.439382314682007 7.571661949157715 -2.251978635787964
-2.594169855117798 7.5194902420043945 -2.251833200454712
-2.9003210067749023 7.405600547790527 -2.2515182495117188
-3.0515429973602295 7.343925476074219 -2.2513492107391357
-0.9260424375534058 7.260737895965576 -2.2513375282287598
-1.0749047994613647 7.2399797439575195 -2.2512717247009277
-1.2233006954193115 7.2161455154418945 -2.2511978149414062
-1.3711681365966797 7.18924617767334 -2.2511165142059326
-1.5184447765350342 7.159289360046387 -2.2510275840759277
-1.6650573015213013 7.126296043395996 -2.2509310245513916
-2.100329637527466 7.009222030639648 -2.250596523284912
-2.243682861328125 6.964229583740234 -2.2504701614379883
-2.3860692977905273 6.916277885437012 -2.250336170196533
-2.527423143386841 6.865394115447998 -2.250195264816284
-2.6676902770996094 6.811601638793945 -2.250046968460083
-2.806800365447998 6.754920482635498 -2.249891519546509
-0.7183203101158142 6.730691432952881 -2.2500245571136475
-1.131252408027649 6.673154830932617 -2.2498416900634766
-1.4041955471038818 6.620615482330322 -2.2496843338012695
-1.5398266315460205 6.59033203125 -2.249666213989258
-2.0753283500671387 6.441690921783447 -2.2496376037597656
-2.3380651473999023 6.3510308265686035 -2.249630928039551
-2.4679832458496094 6.301682472229004 -2.249630928039551
-0.6675183176994324 6.255263328552246 -2.249630928039551
-0.9271215796470642 6.244601249694824 -2.2575924396514893
-1.1895055770874023 6.2369065284729 -2.27056622505188
-1.3225244283676147 6.235576629638672 -2.2794902324676514
-1.456536889076233 6.234068870544434 -2.2893927097320557
-1.866363525390625 6.228438377380371 -2.325183391571045
-2.4353418350219727 6.218169212341309 -2.388115406036377
-2.577392578125 6.202787399291992 -2.4020309448242188
-0.6630786061286926 6.212703704833984 -2.3943405151367188
-0.7923595905303955 6.212001323699951 -2.399834156036377
-0.9204785227775574 6.200091361999512 -2.4020309448242188
-1.3005017042160034 6.131656169891357 -2.4020309448242188
-1.426119327545166 6.103659629821777 -2.4020309448242188
-1.5511523485183716 6.073088645935059 -2.4020309448242188
-1.799196720123291 6.004279136657715 -2.4020309448242188
-2.0442028045654297 5.925343990325928 -2.4020309448242188
-2.1654417514801025 5.88212251663208 -2.4020309448242188
-2.285768985748291 5.836417198181152 -2.4020309448242188
-0.622821033000946 5.835851192474365 -2.4020309448242188
-0.9809289574623108 5.786436080932617 -2.4020309448242188
-1.0995250940322876 5.765073776245117 -2.4020309448242188
-1.2177172899246216 5.741280555725098 -2.4020309448242188
-1.4523851871490479 5.686441898345947 -2.4020309448242188
-1.5688586235046387 5.655419826507568 -2.4020309448242188
-1.6846460103988647 5.622012138366699 -2.4020309448242188
-1.9140576124191284 5.548102855682373 -2.4020309448242188
-2.0275769233703613 5.507630348205566 -2.4020309448242188
-2.252004384994507 5.419736385345459 -2.4020309448242188
-0.5848901271820068 5.480438709259033 -2.4020309448242188
-0.9211938381195068 5.434032917022705 -2.4020309448242188
-1.143532633781433 5.391627788543701 -2.4020309448242188
-1.3639403581619263 5.3401288986206055 -2.4020309448242188
-1.4733068943023682 5.310996055603027 -2.4020309448242188
-1.6901257038116455 5.246026039123535 -2.4020309448242188
-1.797487735748291 5.210216045379639 -2.4020309448242188
-2.1148521900177 5.08966588973999 -2.4020309448242188
-0.6565173268318176 5.147566795349121 -2.4020309448242188
-0.7620837092399597 5.132998466491699 -2.4020309448242188
-0.8673193454742432 5.116268157958984 -2.4020309448242188
-0.9721947908401489 5.0973801612854 -2.4020309448242188
-1.0766527652740479 5.076342582702637 -2.4020309448242188
-1.1806640625 5.053165912628174 -2.4020309448242188
-1.2841796875 5.027853965759277 -2.4020309448242188
-1.3871508836746216 5.000425815582275 -2.4020309448242188
-1.6923766136169434 4.905537128448486 -2.4020309448242188
-1.7927502393722534 4.869753837585449 -2.4020309448242188
-1.8923619985580444 4.831915855407715 -2.4020309448242188
-1.991182804107666 4.792038440704346 -2.4020309448242188
-0.5196569561958313 4.869223117828369 -2.4020309448242188
-0.6195226907730103 4.8575263023376465 -2.4020309448242188
-0.8184570074081421 4.827991962432861 -2.4020309448242188
-0.9174157381057739 4.8101677894592285 -2.4020309448242188
-1.015993595123291 4.790315628051758 -2.4020309448242188
-1.308986783027649 4.718677043914795 -2.4020309448242188
-1.40560781955719 4.690804481506348 -2.4020309448242188
-1.5016272068023682 4.660952091217041 -2.4020309448242188
-1.5970128774642944 4.629136085510254 -2.4020309448242188
-1.785744547843933 4.559659957885742 -2.4020309448242188
-0.5857873558998108 4.592954635620117 -2.4020309448242188
-0.7738708257675171 4.565029621124268 -2.4020309448242188
-0.867449939250946 4.5481767654418945 -2.4020309448242188
-0.9606591463088989 4.52940559387207 -2.4020309448242188
-1.145821452140808 4.486143112182617 -2.4020309448242188
-1.2376965284347534 4.461668014526367 -2.4020309448242188
-1.3290503025054932 4.4353132247924805 -2.4020309448242188
-1.4198424816131592 4.4070892333984375 -2.4020309448242188
-1.776650309562683 4.275733470916748 -2.4020309448242188
-0.46540647745132446 4.360876560211182 -2.4020309448242188
-0.554852306842804 4.350400924682617 -2.4020309448242188
-0.6440673470497131 4.338089942932129 -2.4020309448242188
-0.8216418027877808 4.307987689971924 -2.4020309448242188
-0.9978295564651489 4.270618915557861 -2.4020309448242188
-1.172335147857666 4.226047039031982 -2.4020309448242188
-1.2588634490966797 4.201084613800049 -2.4020309448242188
-1.3448607921600342 4.174350261688232 -2.4020309448242188
-1.430291771888733 4.145854473114014 -2.4020309448242188
-1.5151195526123047 4.115611553192139 -2.4020309448242188
-1.599310278892517 4.083631992340088 -2.4020309448242188
-0.44150999188423157 4.136948108673096 -2.4020309448242188
-0.8632031083106995 4.069907188415527 -2.4020309448242188
-1.0295813083648682 4.031032085418701 -2.4020309448242188
-1.1121349334716797 4.009042263031006 -2.4020309448242188
-1.194219946861267 3.985360622406006 -2.4020309448242188
-1.2758020162582397 3.95999813079834 -2.4020309448242188
-1.3568456172943115 3.9329674243927 -2.4020309448242188
-1.4373180866241455 3.904278516769409 -2.4020309448242188
-1.5964099168777466 3.8419694900512695 -2.4020309448242188
