ply
format ascii 1.0
element vertex 329
property float x
property float y
property float z
end_header
-21.514970779418945 -34.807064056396484 -0.23038619756698608
-20.58867073059082 -34.86160659790039 -0.22795166075229645
-27.560163497924805 -20.26079750061035 -0.9631696939468384
-26.032386779785156 -20.805694580078125 -0.938359797000885
-36.39372634887695 -31.5742244720459 -1.3566763401031494
-34.985408782958984 -31.61141014099121 -1.3276792764663696
-33.698631286621094 -31.70644187927246 -1.3028544187545776
-33.91987609863281 -34.59762191772461 -1.364287257194519
-33.74409484863281 -35.83635711669922 -1.3860105276107788
-19.862455368041992 -26.996299743652344 -0.9437332153320312
-20.358503341674805 -34.471885681152344 -1.1272883415222168
-18.523902893066406 -34.468814849853516 -1.1018403768539429
-18.137386322021484 -35.44606018066406 -1.1211556196212769
-36.610618591308594 -23.643173217773438 -2.210198402404785
-36.1298713684082 -24.379169464111328 -2.210415840148926
-28.34908103942871 -19.972694396972656 -1.7586829662322998
-27.265769958496094 -20.04437255859375 -1.7162113189697266
-26.141254425048828 -20.042253494262695 -1.6705385446548462
-24.99985122680664 -19.98046875 -1.6230247020721436
-24.52210235595703 -20.422611236572266 -1.6184264421463013
-24.470243453979492 -21.2297306060791 -1.6429346799850464
-32.400047302246094 -29.275394439697266 -2.214542865753174
-31.8117618560791 -29.93111228942871 -2.21515154838562
-29.969257354736328 -31.82745933532715 -2.2170567512512207
-29.32999038696289 -32.435081481933594 -2.2177176475524902
-21.439393997192383 -25.722633361816406 -1.6982108354568481
-18.924476623535156 -25.721439361572266 -1.6194701194763184
-18.430755615234375 -27.29143524169922 -1.6701263189315796
-23.74716567993164 -36.74028396606445 -2.218583822250366
-21.31122589111328 -34.47744369506836 -2.05556321144104
-21.295528411865234 -36.05847930908203 -2.1237869262695312
-19.329559326171875 -35.967952728271484 -2.0708107948303223
-16.907670974731445 -12.429633140563965 -1.53865647315979
-23.316083908081055 -19.4182071685791 -2.2248246669769287
-22.92202377319336 -19.886533737182617 -2.225050210952759
-19.912519454956055 -22.933944702148438 -2.226959228515625
-19.448699951171875 -23.334228515625 -2.2272777557373047
-18.977563858032227 -23.726030349731445 -2.2276809215545654
-18.499849319458008 -24.11005973815918 -2.2282445430755615
-18.01442527770996 -24.484525680541992 -2.228813886642456
-17.521467208862305 -24.849279403686523 -2.229389190673828
-17.02105712890625 -25.20401382446289 -2.2299563884735107
-16.513500213623047 -25.548734664916992 -2.2305288314819336
-14.94979190826416 -26.521085739135742 -2.2322521209716797
-13.875088691711426 -27.116214752197266 -2.2333872318267822
-19.50545310974121 -12.596672058105469 -2.229179859161377
-19.26024627685547 -12.996133804321289 -2.230656623840332
-18.995634078979492 -13.382938385009766 -2.230825662612915
-18.723346710205078 -13.76442813873291 -2.231003761291504
-18.156131744384766 -14.510812759399414 -2.23138689994812
-15.944865226745605 -16.93350601196289 -2.2329840660095215
-10.77721881866455 -12.41249942779541 -1.5781598091125488
-14.896394729614258 -17.8724422454834 -2.233691930770874
-14.53453254699707 -18.171289443969727 -2.233945369720459
-14.166739463806152 -18.46289825439453 -2.2342069149017334
-13.793152809143066 -18.747133255004883 -2.2344768047332764
-13.413914680480957 -19.02387237548828 -2.234754800796509
-11.028180122375488 -20.520978927612305 -2.2365899085998535
-15.909921646118164 -10.274662017822266 -2.2497165203094482
-15.489062309265137 -10.912464141845703 -2.2506489753723145
-15.047090530395508 -11.536459922790527 -2.252253293991089
-14.507315635681152 -12.082048416137695 -2.242626667022705
-13.96695327758789 -12.620404243469238 -2.2360947132110596
-13.711297035217285 -12.900710105895996 -2.236294746398926
-12.669282913208008 -12.411436080932617 -2.1067495346069336
-13.182201385498047 -13.445579528808594 -2.2366909980773926
-12.631630897521973 -13.968900680541992 -2.237114191055298
-12.060409545898438 -14.46987533569336 -2.2375643253326416
-11.767346382141113 -14.711723327636719 -2.2377989292144775
-11.166895866394043 -15.177631378173828 -2.2382874488830566
-10.548048973083496 -15.619074821472168 -2.238780975341797
-9.25904655456543 -16.425643920898438 -2.2397732734680176
-14.241121292114258 -9.196999549865723 -2.4020309448242188
-14.052839279174805 -9.482361793518066 -2.4020309448242188
-13.691923141479492 -9.646331787109375 -2.3731186389923096
-11.35114860534668 -11.12012767791748 -2.25150465965271
-10.899151802062988 -11.574934005737305 -2.2526843547821045
-9.873252868652344 -12.343689918518066 -2.2396228313446045
-9.114080429077148 -12.92575454711914 -2.240939140319824
-8.852386474609375 -13.108219146728516 -2.241157293319702
-7.770354270935059 -13.784686088562012 -2.242079257965088
-7.209669589996338 -14.089924812316895 -2.2425684928894043
-12.086604118347168 -8.155614852905273 -2.4020309448242188
-11.919662475585938 -8.397723197937012 -2.4020309448242188
-11.747864723205566 -8.636417388916016 -2.4020309448242188
-11.013614654541016 -9.555118560791016 -2.4020309448242188
-10.684185981750488 -9.653825759887695 -2.372180223464966
-8.95323371887207 -10.311769485473633 -2.249720335006714
-8.533434867858887 -10.66861343383789 -2.250596761703491
-7.877232074737549 -11.171666145324707 -2.2519142627716064
-6.713871955871582 -11.910579681396484 -2.252406358718872
-6.456550121307373 -12.014349937438965 -2.246941566467285
-6.204374313354492 -12.124869346618652 -2.2437455654144287
-10.735382080078125 -6.932915687561035 -2.4020309448242188
-10.296469688415527 -7.56942892074585 -2.4020309448242188
-10.141721725463867 -7.775559425354004 -2.4020309448242188
-9.982831954956055 -7.978515625 -2.4020309448242188
-9.819878578186035 -8.178236961364746 -2.4020309448242188
-9.128914833068848 -8.943048477172852 -2.4020309448242188
-8.946527481079102 -9.125353813171387 -2.4020309448242188
-8.760778427124023 -9.303932189941406 -2.4020309448242188
-8.571272850036621 -9.478727340698242 -2.4020309448242188
-8.378384590148926 -9.649678230285645 -2.4020309448242188
-7.424851894378662 -9.676508903503418 -2.292531728744507
-7.126736164093018 -9.686782836914062 -2.260443925857544
-6.6984171867370605 -9.918703079223633 -2.2496440410614014
-6.497097492218018 -10.05190372467041 -2.2496695518493652
-6.293092727661133 -10.180999755859375 -2.2496941089630127
-6.086968898773193 -10.306732177734375 -2.2498843669891357
-9.155710220336914 -6.730803489685059 -2.4020309448242188
-9.018101692199707 -6.914093017578125 -2.4020309448242188
-8.731925010681152 -7.272160530090332 -2.4020309448242188
-8.117438316345215 -7.95223331451416 -2.4020309448242188
-7.955389022827148 -8.114344596862793 -2.4020309448242188
-7.450133323669434 -8.580578804016113 -2.4020309448242188
-7.276668071746826 -8.729090690612793 -2.4020309448242188
-6.917600154876709 -9.015410423278809 -2.4020309448242188
-6.54841947555542 -9.287054061889648 -2.4020309448242188
-6.359668254852295 -9.417235374450684 -2.4020309448242188
-5.708407402038574 -9.66580867767334 -2.3728690147399902
-5.200228214263916 -9.676453590393066 -2.3220648765563965
-4.953853130340576 -9.681363105773926 -2.2987935543060303
-8.234652519226074 -6.053691387176514 -2.4020309448242188
-8.110884666442871 -6.218539237976074 -2.4020309448242188
-7.983817100524902 -6.380860328674316 -2.4020309448242188
-7.583332538604736 -6.851995468139648 -2.4020309448242188
-7.443591117858887 -7.003543376922607 -2.4020309448242188
-6.854947566986084 -7.580663204193115 -2.4020309448242188
-6.700658321380615 -7.717379570007324 -2.4020309448242188
-6.543644428253174 -7.850953578948975 -2.4020309448242188
-6.383968353271484 -7.981334209442139 -2.4020309448242188
-6.056894779205322 -8.23230266571045 -2.4020309448242188
-5.889631748199463 -8.352784156799316 -2.4020309448242188
-5.719967365264893 -8.469870567321777 -2.4020309448242188
-5.1973137855529785 -8.800278663635254 -2.4020309448242188
-4.838156700134277 -9.002721786499023 -2.4020309448242188
-7.793324947357178 -5.032937049865723 -2.4020309448242188
-7.584002494812012 -5.3431396484375 -2.4020309448242188
-7.474691390991211 -5.495008945465088 -2.4020309448242188
-7.362468242645264 -5.644656658172607 -2.4020309448242188
-7.247018337249756 -5.791985511779785 -2.4020309448242188
-7.12872314453125 -5.93697452545166 -2.4020309448242188
-7.007529258728027 -6.07954740524292 -2.4020309448242188
-6.6270575523376465 -6.4921875 -2.4020309448242188
-6.494766712188721 -6.624534606933594 -2.4020309448242188
-5.939749240875244 -7.126412868499756 -2.4020309448242188
-4.877806186676025 -7.8913493156433105 -2.4020309448242188
-4.5555830001831055 -8.081649780273438 -2.4020309448242188
-4.225943565368652 -8.258801460266113 -2.4020309448242188
-6.8363871574401855 -5.025755882263184 -2.4020309448242188
-6.733641147613525 -5.162618160247803 -2.4020309448242188
-6.628139972686768 -5.297370433807373 -2.4020309448242188
-6.295677185058594 -5.68851375579834 -2.4020309448242188
-6.179653167724609 -5.814321041107178 -2.4020309448242188
-6.06113338470459 -5.937778949737549 -2.4020309448242188
-5.940134525299072 -6.0588226318359375 -2.4020309448242188
-5.816727161407471 -6.177386283874512 -2.4020309448242188
-5.690964698791504 -6.293449401855469 -2.4020309448242188
-5.4325151443481445 -6.517844200134277 -2.4020309448242188
-5.028412342071533 -6.834432601928711 -2.4020309448242188
-4.605916500091553 -7.126014232635498 -2.4020309448242188
-4.166549205780029 -7.391500473022461 -2.4020309448242188
-3.865063428878784 -7.553529262542725 -2.4020309448242188
-6.560380935668945 -4.236697673797607 -2.4020309448242188
-6.4735894203186035 -4.368152141571045 -2.4020309448242188
-6.3841729164123535 -4.497824192047119 -2.4020309448242188
-6.2921624183654785 -4.625669479370117 -2.4020309448242188
-6.19758939743042 -4.751633644104004 -2.4020309448242188
-6.100499153137207 -4.875661373138428 -2.4020309448242188
-5.687699317932129 -5.3514580726623535 -2.4020309448242188
-5.578616619110107 -5.465084075927734 -2.4020309448242188
-5.2379150390625 -5.792439937591553 -2.4020309448242188
-5.120022296905518 -5.896907329559326 -2.4020309448242188
-5.000046253204346 -5.998971939086914 -2.4020309448242188
-4.878042697906494 -6.098597049713135 -2.4020309448242188
-4.500307559967041 -6.382423400878906 -2.4020309448242188
-4.106109619140625 -6.642889976501465 -2.4020309448242188
-3.9712955951690674 -6.724356651306152 -2.4020309448242188
-3.696871757507324 -6.879044532775879 -2.4020309448242188
-6.0703864097595215 -3.9202611446380615 -2.4020309448242188
-5.990084171295166 -4.041898250579834 -2.4020309448242188
-5.907346248626709 -4.1618852615356445 -2.4020309448242188
-5.822207450866699 -4.280182838439941 -2.4020309448242188
-5.262897968292236 -4.95176362991333 -2.4020309448242188
-5.161957263946533 -5.056900978088379 -2.4020309448242188
-4.737608909606934 -5.456471920013428 -2.4020309448242188
-4.513698577880859 -5.643097877502441 -2.4020309448242188
-4.282442092895508 -5.820539951324463 -2.4020309448242188
-4.164185047149658 -5.905725955963135 -2.4020309448242188
-3.7994225025177 -6.146737575531006 -2.4020309448242188
-3.674672842025757 -6.222118377685547 -2.4020309448242188
-5.411898612976074 -3.9785454273223877 -2.4020309448242188
-5.247041702270508 -4.193562984466553 -2.4020309448242188
-5.0736517906188965 -4.401763916015625 -2.4020309448242188
-4.505138397216797 -4.982085227966309 -2.4020309448242188
-4.403735637664795 -5.071938514709473 -2.4020309448242188
-4.1956071853637695 -5.245410442352295 -2.4020309448242188
-3.759221076965332 -5.566481590270996 -2.4020309448242188
-3.646190643310547 -5.641170978546143 -2.4020309448242188
-3.415710926055908 -5.783627986907959 -2.4020309448242188
-3.2983691692352295 -5.85134220123291 -2.4020309448242188
-3.179685592651367 -5.916677951812744 -2.4020309448242188
-5.265491962432861 -3.4004576206207275 -2.4020309448242188
-5.195833683013916 -3.5059661865234375 -2.4020309448242188
-5.1240668296813965 -3.61004376411438 -2.4020309448242188
-5.050217151641846 -3.712655782699585 -2.4020309448242188
-4.650768756866455 -4.202246189117432 -2.4020309448242188
-4.56506872177124 -4.295188903808594 -2.4020309448242188
-4.4774603843688965 -4.386370658874512 -2.4020309448242188
-4.388131141662598 -4.475804805755615 -2.4020309448242188
-4.296967506408691 -4.563394069671631 -2.4020309448242188
-4.109433650970459 -4.732974529266357 -2.4020309448242188
-3.8156914710998535 -4.972826957702637 -2.4020309448242188
-3.612039089202881 -5.12266206741333 -2.4020309448242188
-3.4025065898895264 -5.264167785644531 -2.4020309448242188
-3.295652389526367 -5.331716060638428 -2.4020309448242188
-3.1874377727508545 -5.3971052169799805 -2.4020309448242188
-3.0779407024383545 -5.460291862487793 -2.4020309448242188
-2.967189311981201 -5.5212602615356445 -2.4020309448242188
-2.855224609375 -5.579984188079834 -2.4020309448242188
-4.930256366729736 -3.183964252471924 -2.4020309448242188
-4.7978434562683105 -3.380208730697632 -2.4020309448242188
-4.657618522644043 -3.5709500312805176 -2.4020309448242188
-4.584653377532959 -3.664160966873169 -2.4020309448242188
-4.509814262390137 -3.755882978439331 -2.4020309448242188
-4.0233964920043945 -4.272861003875732 -2.4020309448242188
-3.936401844024658 -4.353137969970703 -2.4020309448242188
-3.6659440994262695 -4.583221912384033 -2.4020309448242188
-3.4781274795532227 -4.72733736038208 -2.4020309448242188
-3.185884952545166 -4.929016590118408 -2.4020309448242188
-2.984506130218506 -5.053493022918701 -2.4020309448242188
-2.8819780349731445 -5.11265754699707 -2.4020309448242188
-2.673438549041748 -5.224728107452393 -2.4020309448242188
-4.629996299743652 -2.990056276321411 -2.4020309448242188
-4.5687479972839355 -3.0828306674957275 -2.4020309448242188
-4.50564432144165 -3.1743481159210205 -2.4020309448242188
-4.440704822540283 -3.2645750045776367 -2.4020309448242188
-4.373961925506592 -3.353473663330078 -2.4020309448242188
-4.235160827636719 -3.52714467048645 -2.4020309448242188
-4.163157939910889 -3.611844301223755 -2.4020309448242188
-4.014107704162598 -3.7768020629882812 -2.4020309448242188
-3.937119722366333 -3.85699200630188 -2.4020309448242188
-3.8585784435272217 -3.935634136199951 -2.4020309448242188
-3.613464832305908 -4.161752700805664 -2.4020309448242188
-3.5287926197052 -4.233785152435303 -2.4020309448242188
-3.442683696746826 -4.304095268249512 -2.4020309448242188
-3.266303062438965 -4.4394354820251465 -2.4020309448242188
-3.084608793258667 -4.567548751831055 -2.4020309448242188
-2.897892475128174 -4.688233375549316 -2.4020309448242188
-2.7064623832702637 -4.8012895584106445 -2.4020309448242188
-2.510624885559082 -4.906534194946289 -2.4020309448242188
-4.3015875816345215 -2.902557611465454 -2.4020309448242188
-4.181024074554443 -3.0736727714538574 -2.4020309448242188
-4.0536699295043945 -3.239788055419922 -2.4020309448242188
-3.987499952316284 -3.320887327194214 -2.4020309448242188
-3.9197165966033936 -3.400637149810791 -2.4020309448242188
-3.8503258228302 -3.478999614715576 -2.4020309448242188
-3.779372453689575 -3.555945873260498 -2.4020309448242188
-3.402161121368408 -3.918386459350586 -2.4020309448242188
-3.0753014087677 -4.179831027984619 -2.4020309448242188
-2.8169047832489014 -4.358155250549316 -2.4020309448242188
-2.7284326553344727 -4.4140801429748535 -2.4020309448242188
-2.5481958389282227 -4.520524501800537 -2.4020309448242188
-2.3638110160827637 -4.619616508483887 -2.4020309448242188
-4.1136298179626465 -2.6565845012664795 -2.4020309448242188
-3.945448637008667 -2.900486707687378 -2.4020309448242188
-3.886143684387207 -2.979470729827881 -2.4020309448242188
-3.7628233432769775 -3.133772134780884 -2.4020309448242188
-3.633375883102417 -3.2829747200012207 -2.4020309448242188
-3.566429376602173 -3.3555874824523926 -2.4020309448242188
-3.356980562210083 -3.5651211738586426 -2.4020309448242188
-3.284388303756714 -3.6321001052856445 -2.4020309448242188
-3.210465669631958 -3.6976046562194824 -2.4020309448242188
-3.13525390625 -3.7616097927093506 -2.4020309448242188
-3.058732748031616 -3.82407283782959 -2.4020309448242188
-2.821880340576172 -4.002044677734375 -2.4020309448242188
-2.7405920028686523 -4.058143615722656 -2.4020309448242188
-2.574702024459839 -4.165369987487793 -2.4020309448242188
-2.4901647567749023 -4.2164506912231445 -2.4020309448242188
-2.4046177864074707 -4.265815734863281 -2.4020309448242188
-2.3180906772613525 -4.313447952270508 -2.4020309448242188
-3.7851078510284424 -2.66671085357666 -2.4020309448242188
-3.7305548191070557 -2.7425074577331543 -2.4020309448242188
-3.67448353767395 -2.8171908855438232 -2.4020309448242188
-3.61691951751709 -2.890726327896118 -2.4020309448242188
-3.497392416000366 -3.03424334526062 -2.4020309448242188
-3.4354846477508545 -3.1041646003723145 -2.4020309448242188
-3.307502269744873 -3.240187883377075 -2.4020309448242188
-3.241472005844116 -3.306241035461426 -2.4020309448242188
-2.818619966506958 -3.673386335372925 -2.4020309448242188
-2.743962287902832 -3.7294869422912598 -2.4020309448242188
-2.668187141418457 -3.7840685844421387 -2.4020309448242188
-2.5913524627685547 -3.8371217250823975 -2.4020309448242188
-2.3545336723327637 -3.9867968559265137 -2.4020309448242188
-2.2736144065856934 -4.033462047576904 -2.4020309448242188
-2.1918323040008545 -4.078510761260986 -2.4020309448242188
-3.684178352355957 -2.379237174987793 -2.4020309448242188
-3.5852184295654297 -2.52588152885437 -2.4020309448242188
-3.480436325073242 -2.668414831161499 -2.4020309448242188
-3.3699889183044434 -2.8066070079803467 -2.4020309448242188
-3.3126964569091797 -2.87400484085083 -2.4020309448242188
-3.1328344345092773 -3.06907320022583 -2.4020309448242188
-3.070294141769409 -3.131638765335083 -2.4020309448242188
-3.006507396697998 -3.192922830581665 -2.4020309448242188
-2.9415032863616943 -3.252910614013672 -2.4020309448242188
-2.739400625228882 -3.424839973449707 -2.4020309448242188
-2.6697680950164795 -3.479393482208252 -2.4020309448242188
-2.527272939682007 -3.5842301845550537 -2.4020309448242188
-2.454474925994873 -3.634474515914917 -2.4020309448242188
-2.305903196334839 -3.730504035949707 -2.4020309448242188
-2.2301928997039795 -3.7762539386749268 -2.4020309448242188
-1.9977452754974365 -3.9042112827301025 -2.4020309448242188
-3.3017163276672363 -2.5313937664031982 -2.4020309448242188
-3.249988317489624 -2.5974678993225098 -2.4020309448242188
-3.142590284347534 -2.726426601409912 -2.4020309448242188
-3.086961507797241 -2.7892544269561768 -2.4020309448242188
-3.0300793647766113 -2.850944757461548 -2.4020309448242188
-2.971965789794922 -2.9114797115325928 -2.4020309448242188
-2.9126336574554443 -2.9708311557769775 -2.4020309448242188
-2.852126359939575 -3.0289676189422607 -2.4020309448242188
-2.7904553413391113 -3.0858752727508545 -2.4020309448242188
-2.727648973464966 -3.1415276527404785 -2.4020309448242188
-2.5987303256988525 -3.248975992202759 -2.4020309448242188
-2.465593099594116 -3.3511390686035156 -2.4020309448242188
-2.397501230239868 -3.400182008743286 -2.4020309448242188
-2.328437566757202 -3.447845697402954 -2.4020309448242188
-2.258425235748291 -3.494107961654663 -2.4020309448242188
-2.042989492416382 -3.6242852210998535 -2.4020309448242188
-1.9694775342941284 -3.6647539138793945 -2.4020309448242188
