ply
format ascii 1.0
element vertex 337
property float x
property float y
property float z
end_header
-26.618722915649414 14.643352508544922 5.356932163238525
-29.742210388183594 14.127018928527832 5.8058762550354
-30.8956298828125 13.199917793273926 5.924112319946289
-36.814693450927734 13.199881553649902 6.896070957183838
-22.907062530517578 13.199921607971191 4.050164222717285
-25.163997650146484 13.199917793273926 4.3531599044799805
-26.97490692138672 13.47459888458252 4.619289875030518
-27.79037857055664 13.199930191040039 4.713170051574707
-29.742198944091797 13.410724639892578 4.9980974197387695
-39.2476806640625 13.19987678527832 6.343462944030762
-24.56473159790039 13.513427734375 3.650920867919922
-25.16399574279785 13.19991683959961 3.700343608856201
-26.97490692138672 13.474600791931152 3.9265637397766113
-27.79037094116211 13.199930191040039 4.00636625289917
-29.274686813354492 13.19992446899414 4.1817827224731445
-30.8956241607666 13.199917793273926 4.37506628036499
-32.674339294433594 13.199912071228027 4.5889692306518555
-39.43564224243164 13.263090133666992 5.417998313903809
-29.742210388183594 14.127016067504883 3.535734176635742
-30.895626068115234 13.199917793273926 3.607736110687256
-32.674339294433594 13.199912071228027 3.784121036529541
-34.63675308227539 13.19990348815918 3.980290412902832
-39.24769592285156 13.19987678527832 4.446456432342529
-41.985679626464844 13.199870109558105 4.726057529449463
-35.22825241088867 8.811920166015625 3.898623466491699
-22.90705680847168 13.199921607971191 2.238055467605591
-26.61870002746582 14.643351554870605 2.5720019340515137
-27.73948097229004 14.55092716217041 2.6516852378845215
-29.380887985229492 14.676445960998535 2.7802159786224365
-29.74220085144043 14.127015113830566 2.787341356277466
-29.742198944091797 13.410722732543945 2.761868953704834
-31.04380989074707 13.263229370117188 2.8577446937561035
-39.2476921081543 13.19987678527832 3.5052971839904785
-41.985679626464844 13.199870109558105 3.725714683532715
-35.21570587158203 8.808778762817383 3.072955846786499
-25.163997650146484 13.199917793273926 1.7620795965194702
-26.97490692138672 13.474601745605469 1.8698047399520874
-27.79037857055664 13.199930191040039 1.907806158065796
-29.274688720703125 13.19992446899414 1.9913380146026611
-32.67434310913086 13.199912071228027 2.185237169265747
-34.63675308227539 13.19990348815918 2.298520088195801
-39.435646057128906 13.263090133666992 2.580017566680908
-35.203224182128906 8.805656433105469 2.250220775604248
-25.289941787719727 14.57302188873291 1.1509217023849487
-25.847938537597656 13.558685302734375 1.1509217023849487
-27.790374755859375 13.199930191040039 1.2131317853927612
-29.274688720703125 13.19992446899414 1.2662489414215088
-34.636749267578125 13.19990348815918 1.461578130722046
-36.814693450927734 13.199881553649902 1.542129635810852
-30.499765396118164 15.235352516174316 0.5758967399597168
-37.216365814208984 15.900402069091797 0.6836225986480713
-37.803794860839844 15.272123336791992 0.6887128949165344
-42.564231872558594 15.261375427246094 0.7638078331947327
-26.618715286254883 14.643352508544922 -0.1710411012172699
-29.098636627197266 15.263861656188965 -0.18500228226184845
-31.59504508972168 15.007084846496582 -0.19692809879779816
-36.470787048339844 16.44463348388672 -0.2252461165189743
-37.80379867553711 15.272128105163574 -0.22955535352230072
-38.75916290283203 14.770933151245117 -0.23352721333503723
-42.56423568725586 15.261375427246094 -0.2545849680900574
-26.61870574951172 14.643351554870605 -0.8554566502571106
-29.098602294921875 15.263861656188965 -0.9252366423606873
-30.499767303466797 15.235352516174316 -0.959988534450531
-36.470787048339844 16.44463348388672 -1.126502275466919
-37.216365814208984 15.900400161743164 -1.1395636796951294
-37.80379867553711 15.272126197814941 -1.1480228900909424
-42.56423568725586 15.261375427246094 -1.2732242345809937
-35.186851501464844 8.801562309265137 -1.0213087797164917
-46.22693634033203 8.68012809753418 -1.3243954181671143
-29.098642349243164 15.263861656188965 -1.6664199829101562
-31.59504508972168 15.007084846496582 -1.7738829851150513
-36.470787048339844 16.44463539123535 -2.0289180278778076
-37.7778434753418 15.261666297912598 -2.0663094520568848
-37.327720642089844 8.554222106933594 -1.942137598991394
-43.603233337402344 8.187470436096191 -2.2499520778656006
-43.88734436035156 6.451019287109375 -2.249630928039551
-47.096717834472656 5.02435827255249 -2.4020309448242188
-47.18714904785156 4.089411735534668 -2.4020309448242188
-26.50472640991211 14.580650329589844 -2.2180352210998535
-17.81650161743164 8.46252155303955 -1.446216106414795
-27.564666748046875 12.428847312927246 -2.2170510292053223
-22.30977439880371 8.502153396606445 -1.7505574226379395
-23.82667350769043 8.54304027557373 -1.855937123298645
-25.313800811767578 8.513603210449219 -1.9582287073135376
-29.468894958496094 8.626418113708496 -2.251396894454956
-29.6240234375 8.037564277648926 -2.2506256103515625
-29.766881942749023 7.445823669433594 -2.249816656112671
-29.90718650817871 6.8536906242370605 -2.2497034072875977
-30.2725772857666 6.308287143707275 -2.2673306465148926
-32.1972770690918 6.045748710632324 -2.4020309448242188
-32.41169357299805 4.76420783996582 -2.4020309448242188
-32.499794006347656 4.120505332946777 -2.4020309448242188
-15.422738075256348 8.484282493591309 -1.6899166107177734
-20.738744735717773 10.359301567077637 -2.2255663871765137
-22.2125244140625 7.470570087432861 -2.2498886585235596
-24.493722915649414 5.104073524475098 -2.4020309448242188
-24.75385284423828 3.6385796070098877 -2.4020309448242188
-16.605817794799805 9.135107040405273 -2.2513086795806885
-16.96586799621582 8.47485065460205 -2.252751350402832
-17.125106811523438 8.134117126464844 -2.252028703689575
-17.276302337646484 7.789863109588623 -2.2511496543884277
-17.420513153076172 7.442779541015625 -2.2502636909484863
-17.697416305541992 6.744409561157227 -2.249688148498535
-18.63496208190918 6.267356872558594 -2.3354098796844482
-19.290626525878906 6.064778804779053 -2.4020309448242188
-19.40705680847168 5.681032180786133 -2.4020309448242188
-19.617116928100586 4.906981468200684 -2.4020309448242188
-20.06092643737793 2.543435573577881 -2.4020309448242188
-20.10750961303711 2.1451056003570557 -2.4020309448242188
-13.770190238952637 7.934908390045166 -2.2518396377563477
-13.920450210571289 7.657848834991455 -2.251129150390625
-14.204503059387207 7.095485210418701 -2.2497568130493164
-14.342060089111328 6.812230587005615 -2.2497026920318604
-14.683159828186035 6.27329158782959 -2.262380361557007
-15.48112964630127 6.254067420959473 -2.365719795227051
-15.841432571411133 6.037094593048096 -2.4020309448242188
-15.958061218261719 5.721743583679199 -2.4020309448242188
-16.27003288269043 4.762719631195068 -2.4020309448242188
-16.361284255981445 4.439130783081055 -2.4020309448242188
-16.446096420288086 4.113790988922119 -2.4020309448242188
-16.524444580078125 3.7868309020996094 -2.4020309448242188
-16.720378875732422 2.7975451946258545 -2.4020309448242188
-16.818279266357422 2.1323111057281494 -2.4020309448242188
-16.88948631286621 1.4637092351913452 -2.4020309448242188
-12.092974662780762 6.343425750732422 -2.249630928039551
-12.527405738830566 6.257767200469971 -2.3069207668304443
-13.8201265335083 4.648019313812256 -2.4020309448242188
-13.993572235107422 4.096331596374512 -2.4020309448242188
-14.07205581665039 3.818018674850464 -2.4020309448242188
-14.145003318786621 3.538200616836548 -2.4020309448242188
-14.212389945983887 3.2569873332977295 -2.4020309448242188
-14.38090991973877 2.4061200618743896 -2.4020309448242188
-14.425799369812012 2.1204545497894287 -2.4020309448242188
-14.498540878295898 1.5467305183410645 -2.4020309448242188
-11.432357788085938 5.710775852203369 -2.4020309448242188
-11.543423652648926 5.4829301834106445 -2.4020309448242188
-11.649744987487793 5.252928733825684 -2.4020309448242188
-11.751789093017578 5.020859718322754 -2.4020309448242188
-12.19112491607666 3.832766056060791 -2.4020309448242188
-12.456430435180664 2.8545970916748047 -2.4020309448242188
-12.510686874389648 2.6070122718811035 -2.4020309448242188
-12.55992317199707 2.3584017753601074 -2.4020309448242188
-12.73169994354248 1.103372573852539 -2.4020309448242188
-9.956453323364258 5.477199077606201 -2.4020309448242188
-10.06284236907959 5.278669357299805 -2.4020309448242188
-10.165822982788086 5.078070163726807 -2.4020309448242188
-10.264530181884766 4.875468730926514 -2.4020309448242188
-10.359197616577148 4.6709513664245605 -2.4020309448242188
-10.536276817321777 4.256491184234619 -2.4020309448242188
-10.618612289428711 4.0467047691345215 -2.4020309448242188
-10.770731925964355 3.622439384460449 -2.4020309448242188
-10.905909538269043 3.192481517791748 -2.4020309448242188
-11.02392292022705 2.757500648498535 -2.4020309448242188
-11.07646369934082 2.538339138031006 -2.4020309448242188
-11.124616622924805 2.318178176879883 -2.4020309448242188
-11.207780838012695 1.87521493434906 -2.4020309448242188
-11.242767333984375 1.6525788307189941 -2.4020309448242188
-11.27332878112793 1.4292954206466675 -2.4020309448242188
-11.299456596374512 1.2054466009140015 -2.4020309448242188
-11.321146011352539 0.9811274409294128 -2.4020309448242188
-8.855396270751953 5.102818489074707 -2.4020309448242188
-8.954849243164062 4.926197528839111 -2.4020309448242188
-9.050779342651367 4.7476420402526855 -2.4020309448242188
-9.14315128326416 4.567221641540527 -2.4020309448242188
-9.231928825378418 4.3850016593933105 -2.4020309448242188
-9.317075729370117 4.201057434082031 -2.4020309448242188
-9.620696067810059 3.4494926929473877 -2.4020309448242188
-9.687210083007812 3.258026123046875 -2.4020309448242188
-9.749916076660156 3.065275192260742 -2.4020309448242188
-9.86375617980957 2.6762351989746094 -2.4020309448242188
-9.962175369262695 2.2829837799072266 -2.4020309448242188
-10.044866561889648 1.8861445188522339 -2.4020309448242188
-10.111753463745117 1.4863309860229492 -2.4020309448242188
-8.03816032409668 4.631893634796143 -2.4020309448242188
-8.128437042236328 4.471574783325195 -2.4020309448242188
-8.299359321594238 4.145726203918457 -2.4020309448242188
-8.457229614257812 3.813354969024658 -2.4020309448242188
-8.531181335449219 3.644883871078491 -2.4020309448242188
-8.669012069702148 3.3037195205688477 -2.4020309448242188
-8.793206214904785 2.957352876663208 -2.4020309448242188
-8.85012149810791 2.7823894023895264 -2.4020309448242188
-8.903522491455078 2.6063318252563477 -2.4020309448242188
-8.953497886657715 2.4292547702789307 -2.4020309448242188
-9.042786598205566 2.072293281555176 -2.4020309448242188
-9.150004386901855 1.5309187173843384 -2.4020309448242188
-9.203516960144043 1.1668729782104492 -2.4020309448242188
-9.224848747253418 0.9841236472129822 -2.4020309448242188
-9.242555618286133 0.800991952419281 -2.4020309448242188
-7.590624809265137 3.791696786880493 -2.4020309448242188
-7.73501443862915 3.487708568572998 -2.4020309448242188
-7.867223739624023 3.178236722946167 -2.4020309448242188
-8.143223762512207 2.3837618827819824 -2.4020309448242188
-8.270557403564453 1.895325779914856 -2.4020309448242188
-8.339212417602539 1.5658713579177856 -2.4020309448242188
-8.417569160461426 1.0672260522842407 -2.4020309448242188
-8.437058448791504 0.900086522102356 -2.4020309448242188
-8.453277587890625 0.7325901389122009 -2.4020309448242188
-6.766469955444336 3.899099111557007 -2.4020309448242188
-6.842466354370117 3.7641441822052 -2.4020309448242188
-7.119245529174805 3.210059642791748 -2.4020309448242188
-7.351243019104004 2.635782480239868 -2.4020309448242188
-7.449975490570068 2.3421988487243652 -2.4020309448242188
-7.494924068450928 2.1939940452575684 -2.4020309448242188
-7.57606840133667 1.8950614929199219 -2.4020309448242188
-7.612165451049805 1.744444727897644 -2.4020309448242188
-7.675351619720459 1.4412165880203247 -2.4020309448242188
-6.399237155914307 3.356757640838623 -2.4020309448242188
-6.464545726776123 3.229193687438965 -2.4020309448242188
-6.700119972229004 2.7067413330078125 -2.4020309448242188
-6.752479076385498 2.573338508605957 -2.4020309448242188
-6.802178382873535 2.438917875289917 -2.4020309448242188
-6.93517541885376 2.0301294326782227 -2.4020309448242188
-7.010224342346191 1.7535218000411987 -2.4020309448242188
-7.043617248535156 1.6141529083251953 -2.4020309448242188
-7.074243068695068 1.4741499423980713 -2.4020309448242188
-7.102085590362549 1.3335736989974976 -2.4020309448242188
-7.127134323120117 1.1924678087234497 -2.4020309448242188
-7.149381637573242 1.0508906841278076 -2.4020309448242188
-7.1688103675842285 0.908903956413269 -2.4020309448242188
-6.123274803161621 2.7609782218933105 -2.4020309448242188
-6.176822185516357 2.639000177383423 -2.4020309448242188
-6.276629447937012 2.3919882774353027 -2.4020309448242188
-6.322813034057617 2.2670400142669678 -2.4020309448242188
-6.366528034210205 2.141206979751587 -2.4020309448242188
-6.407761096954346 2.0145301818847656 -2.4020309448242188
-6.5472307205200195 1.5003992319107056 -2.4020309448242188
-6.6015849113464355 1.2395914793014526 -2.4020309448242188
-6.645534515380859 0.9768330454826355 -2.4020309448242188
-6.67905330657959 0.7125334143638611 -2.4020309448242188
-5.430905818939209 3.1294970512390137 -2.4020309448242188
-5.607386112213135 2.8010222911834717 -2.4020309448242188
-5.764020919799805 2.462632894515991 -2.4020309448242188
-5.811657428741455 2.347839117050171 -2.4020309448242188
-5.8571391105651855 2.232128620147705 -2.4020309448242188
-5.9002580642700195 2.115532636642456 -2.4020309448242188
-5.941051006317139 1.9981082677841187 -2.4020309448242188
-6.015610218048096 1.7609461545944214 -2.4020309448242188
-6.049347400665283 1.6413044929504395 -2.4020309448242188
-6.10967493057251 1.4001258611679077 -2.4020309448242188
-6.136239528656006 1.2786860466003418 -2.4020309448242188
-6.160390377044678 1.1567493677139282 -2.4020309448242188
-6.201416492462158 0.9115486145019531 -2.4020309448242188
-6.232685565948486 0.6649143695831299 -2.4020309448242188
-5.085143089294434 2.9302544593811035 -2.4020309448242188
-5.142256736755371 2.8288300037384033 -2.4020309448242188
-5.197343826293945 2.7262964248657227 -2.4020309448242188
-5.250385761260986 2.622692108154297 -2.4020309448242188
-5.441709041595459 2.19836688041687 -2.4020309448242188
-5.484240531921387 2.0900180339813232 -2.4020309448242188
-5.52461051940918 1.9808450937271118 -2.4020309448242188
-5.562803268432617 1.8708964586257935 -2.4020309448242188
-5.664211273193359 1.5368088483810425 -2.4020309448242188
-5.693574905395508 1.4241780042648315 -2.4020309448242188
-5.720697402954102 1.310985803604126 -2.4020309448242188
-5.745571613311768 1.1972788572311401 -2.4020309448242188
-5.768182754516602 1.0831040143966675 -2.4020309448242188
-5.788528919219971 0.9685004949569702 -2.4020309448242188
-5.806593418121338 0.8535142540931702 -2.4020309448242188
-5.822383403778076 0.7381938099861145 -2.4020309448242188
-5.8358917236328125 0.6225801110267639 -2.4020309448242188
-5.847075462341309 0.5067283511161804 -2.4020309448242188
-4.775450229644775 2.7517974376678467 -2.4020309448242188
-4.930629730224609 2.462965488433838 -2.4020309448242188
-5.068356990814209 2.1654176712036133 -2.4020309448242188
-5.150241374969482 1.9627329111099243 -2.4020309448242188
-5.257838726043701 1.6530113220214844 -2.4020309448242188
-5.346827983856201 1.3374431133270264 -2.4020309448242188
-5.3722968101501465 1.2311447858810425 -2.4020309448242188
-5.395656108856201 1.1243617534637451 -2.4020309448242188
-5.467790603637695 0.6932368278503418 -2.4020309448242188
-5.480463981628418 0.5846659541130066 -2.4020309448242188
-4.546695232391357 2.5012047290802 -2.4020309448242188
-4.595402717590332 2.4105448722839355 -2.4020309448242188
-4.687370300292969 2.226419687271118 -2.4020309448242188
-4.730606555938721 2.1330254077911377 -2.4020309448242188
-4.811473369598389 1.943757176399231 -2.4020309448242188
-4.884766578674316 1.7514292001724243 -2.4020309448242188
-4.918540000915527 1.6542154550552368 -2.4020309448242188
-4.950385093688965 1.5563465356826782 -2.4020309448242188
-4.980268478393555 1.457870602607727 -2.4020309448242188
-5.0082011222839355 1.3588206768035889 -2.4020309448242188
-5.058145046234131 1.1591508388519287 -2.4020309448242188
-5.080118179321289 1.0586161613464355 -2.4020309448242188
-5.100130081176758 0.9576621651649475 -2.4020309448242188
-5.118124961853027 0.8563309907913208 -2.4020309448242188
-5.159984111785889 0.5504761934280396 -2.4020309448242188
-4.242859363555908 2.4448962211608887 -2.4020309448242188
-4.290510177612305 2.360274076461792 -2.4020309448242188
-4.336472034454346 2.2747223377227783 -2.4020309448242188
-4.380726337432861 2.1882781982421875 -2.4020309448242188
-4.423267841339111 2.1009724140167236 -2.4020309448242188
-4.540369987487793 1.8342368602752686 -2.4020309448242188
-4.5758514404296875 1.7438355684280396 -2.4020309448242188
-4.641404151916504 1.561008095741272 -2.4020309448242188
-4.750510215759277 1.1882826089859009 -2.4020309448242188
-4.773143768310547 1.0938389301300049 -2.4020309448242188
-4.7938971519470215 0.9989646673202515 -2.4020309448242188
-4.8127851486206055 0.9036991596221924 -2.4020309448242188
-4.85798454284668 0.6159223914146423 -2.4020309448242188
-4.100281238555908 2.150827407836914 -2.4020309448242188
-4.220918655395508 1.9032081365585327 -2.4020309448242188
-4.293071269989014 1.7343336343765259 -2.4020309448242188
-4.32662296295166 1.6488547325134277 -2.4020309448242188
-4.3584723472595215 1.562726616859436 -2.4020309448242188
-4.417023181915283 1.3886622190475464 -2.4020309448242188
-4.4436821937561035 1.3007972240447998 -2.4020309448242188
-4.468605041503906 1.2124180793762207 -2.4020309448242188
-4.513169288635254 1.0342615842819214 -2.4020309448242188
-4.532791614532471 0.9445551633834839 -2.4020309448242188
-4.566682815551758 0.764067530632019 -2.4020309448242188
-4.580932140350342 0.6733540296554565 -2.4020309448242188
-3.799905300140381 2.189650058746338 -2.4020309448242188
-3.84252667427063 2.113858461380005 -2.4020309448242188
-3.883746862411499 2.0372426509857178 -2.4020309448242188
-3.9233856201171875 1.9598231315612793 -2.4020309448242188
-3.9614782333374023 1.88163161277771 -2.4020309448242188
-4.098133563995361 1.561779260635376 -2.4020309448242188
-4.128300666809082 1.4801987409591675 -2.4020309448242188
-4.183749675750732 1.31532883644104 -2.4020309448242188
-4.232616901397705 1.1483906507492065 -2.4020309448242188
-4.293414115905762 0.8946732878684998 -2.4020309448242188
-4.310313701629639 0.8093562126159668 -2.4020309448242188
-4.3255157470703125 0.7237171530723572 -2.4020309448242188
-4.369265556335449 0.3786555528640747 -2.4020309448242188
-3.645263671875 2.0053155422210693 -2.4020309448242188
-3.7580602169036865 1.7850104570388794 -2.4020309448242188
-3.7927191257476807 1.7101325988769531 -2.4020309448242188
-3.8575499057769775 1.5583882331848145 -2.4020309448242188
-3.887704372406006 1.4815806150436401 -2.4020309448242188
-3.9163126945495605 1.4041911363601685 -2.4020309448242188
-3.9433915615081787 1.3262513875961304 -2.4020309448242188
-3.968914031982422 1.247787594795227 -2.4020309448242188
-3.9928808212280273 1.1688337326049805 -2.4020309448242188
-4.015276908874512 1.0894215106964111 -2.4020309448242188
-4.072917938232422 0.8487379550933838 -2.4020309448242188
-4.103401184082031 0.6865556240081787 -2.4020309448242188
-2.2290942668914795 0.23780380189418793 -1.2942707538604736
