ply
format ascii 1.0
element vertex 833
property float x
property float y
property float z
end_header
31.091327667236328 27.12407684326172 -0.23230163753032684
30.50557518005371 28.84759521484375 -0.2363854944705963
30.489286422729492 38.25416564941406 -0.2754182517528534
-27.80221939086914 -20.25609016418457 -0.9685911536216736
-26.028743743896484 -21.47470474243164 -0.9501559138298035
-35.32485580444336 -31.608957290649414 -1.3347405195236206
-33.966064453125 -31.64246940612793 -1.307120680809021
-33.58513259887695 -32.5699348449707 -1.3173388242721558
-20.24681854248047 -26.069562911987305 -0.9294427037239075
-21.61474609375 -34.47223663330078 -1.1456894874572754
-19.72566032409668 -34.45689392089844 -1.117965579032898
-18.131263732910156 -34.842411041259766 -1.1059719324111938
-20.07947540283203 -42.68441390991211 -1.3282434940338135
-18.300168991088867 -43.333866119384766 -1.324528455734253
-4.558483600616455 -20.474613189697266 -0.5906351804733276
-4.1341118812561035 -20.49843406677246 -0.588811457157135
-2.8651366233825684 -20.504024505615234 -0.5829566717147827
-3.375621795654297 -42.82382583618164 -1.2095633745193481
28.29744529724121 -32.02730178833008 -1.2033919095993042
28.65011215209961 -31.14457893371582 -1.1915802955627441
28.65011215209961 -29.91747283935547 -1.166385293006897
28.650115966796875 -26.522844314575195 -1.0993398427963257
28.650115966796875 -25.475006103515625 -1.0795130729675293
28.650121688842773 -21.625356674194336 -1.0107362270355225
30.39217758178711 -19.323898315429688 -1.014108419418335
31.782567977905273 -19.32390022277832 -1.0473567247390747
32.38992691040039 -17.954965591430664 -1.0427839756011963
32.38992691040039 -15.486391067504883 -1.0109138488769531
32.38992691040039 -14.695679664611816 -1.0015110969543457
32.38992691040039 -13.91923999786377 -0.992676854133606
34.80996322631836 -14.139033317565918 -1.057939887046814
36.91685485839844 -14.139033317565918 -1.1131293773651123
38.987831115722656 -14.042220115661621 -1.1668442487716675
41.22276306152344 -13.91966724395752 -1.2251290082931519
42.85867691040039 9.400238037109375 -1.2354943752288818
41.344886779785156 9.941349029541016 -1.197360634803772
34.35435485839844 12.786782264709473 -1.0321743488311768
34.354366302490234 14.380488395690918 -1.0486713647842407
30.79281234741211 15.126254081726074 -0.966016948223114
31.157489776611328 19.399616241455078 -1.0334833860397339
31.157489776611328 20.27791976928711 -1.046765685081482
31.157499313354492 24.041112899780273 -1.108129858970642
31.15750503540039 25.053945541381836 -1.1257784366607666
31.091331481933594 27.12407684326172 -1.161788821220398
31.4769287109375 29.766157150268555 -1.2198591232299805
30.489227294921875 31.2416934967041 -1.2292014360427856
31.629384994506836 38.09135818481445 -1.3941280841827393
6.047677040100098 9.380767822265625 -0.3142738342285156
-36.70283889770508 -23.49828338623047 -2.210157632827759
-36.22765350341797 -24.232023239135742 -2.2103707790374756
-25.230316162109375 -19.979167938232422 -1.6321301460266113
-24.445077896118164 -21.006160736083984 -1.6345500946044922
-32.53923034667969 -29.11635398864746 -2.2143988609313965
-30.754995346069336 -31.04631805419922 -2.2162444591522217
-28.857831954956055 -32.86868667602539 -2.218205690383911
-21.68480682373047 -25.721431732177734 -1.7061588764190674
-20.809860229492188 -25.71292495727539 -1.6775649785995483
-19.970073699951172 -25.713233947753906 -1.6511168479919434
-23.97818374633789 -36.58993911743164 -2.218583822250366
-21.635414123535156 -34.50519561767578 -2.0654475688934326
-21.80203628540039 -38.08387756347656 -2.225490093231201
-18.830150604248047 -34.478515625 -1.992330551147461
-20.27149200439453 -38.95524215698242 -2.2270686626434326
-19.460067749023438 -39.30130386352539 -2.2240893840789795
-18.706439971923828 -39.765655517578125 -2.228682279586792
-17.91170310974121 -40.14759826660156 -2.229501485824585
-10.896374702453613 -25.80205535888672 -1.42043137550354
-10.28488540649414 -25.785255432128906 -1.4078658819198608
-9.690399169921875 -25.786073684692383 -1.3970146179199219
-9.106729507446289 -25.792428970336914 -1.3871831893920898
-7.961738586425781 -25.802221298217773 -1.3694204092025757
-4.977889060974121 -20.418758392333984 -1.0658537149429321
-4.502828121185303 -20.224639892578125 -1.0507912635803223
-4.080078125 -20.230485916137695 -1.0466320514678955
-3.660778760910034 -20.237899780273438 -1.0430065393447876
-3.243852376937866 -20.24302101135254 -1.0397074222564697
-2.417661190032959 -20.258516311645508 -1.0346862077713013
-2.007542610168457 -20.269451141357422 -1.032979965209961
-1.5985326766967773 -20.279266357421875 -1.031638264656067
-1.6432775259017944 -42.60887145996094 -2.162484645843506
-0.8189355134963989 -44.28580856323242 -2.246306896209717
0.06946777552366257 -44.30931091308594 -2.247117519378662
0.9584887623786926 -44.3150520324707 -2.247931480407715
3.625676155090332 -44.22548294067383 -2.2503879070281982
4.513608455657959 -44.16000747680664 -2.2512106895446777
5.400371074676514 -44.07673263549805 -2.252034902572632
7.239500522613525 -39.31795883178711 -2.027498722076416
8.905961990356445 -43.45539855957031 -2.2496156692504883
10.437966346740723 -46.19923400878906 -2.4020156860351562
11.362475395202637 -45.9805793762207 -2.4020156860351562
12.282387733459473 -45.743446350097656 -2.4020156860351562
14.107035636901855 -45.214080810546875 -2.4020156860351562
15.01101303100586 -44.922035217285156 -2.4020156860351562
15.908976554870605 -44.61193084716797 -2.4020156860351562
17.68532371520996 -43.9379768371582 -2.4020156860351562
18.562999725341797 -43.57447814941406 -2.4020156860351562
5.536171913146973 -12.305024147033691 -0.6842905879020691
20.295610427856445 -42.79497146606445 -2.4020156860351562
22.83245086669922 -41.496986389160156 -2.4020156860351562
24.478315353393555 -40.54790496826172 -2.4020156860351562
25.09596824645996 -38.034934997558594 -2.310960292816162
25.16747283935547 -36.52788162231445 -2.2496156692504883
26.612150192260742 -35.48917770385742 -2.2496156692504883
27.318586349487305 -34.94829177856445 -2.2496156692504883
28.01401710510254 -34.39335250854492 -2.2496156692504883
28.65011215209961 -31.144582748413086 -2.146127223968506
28.65011215209961 -29.9174747467041 -2.1007487773895264
28.650115966796875 -28.740680694580078 -2.0580596923828125
28.650115966796875 -27.61029815673828 -2.0178656578063965
28.650115966796875 -25.475006103515625 -1.9442857503890991
28.650121688842773 -24.463905334472656 -1.9105968475341797
28.650121688842773 -23.486845016479492 -1.878798484802246
28.650121688842773 -21.62535858154297 -1.82041335105896
28.297460556030273 -20.48139190673828 -1.771543025970459
30.39217758178711 -19.323898315429688 -1.826486349105835
27.09542465209961 -13.629230499267578 -1.5381706953048706
32.38992691040039 -14.6956787109375 -1.8037970066070557
34.80995559692383 -14.139033317565918 -1.9054309129714966
38.987831115722656 -14.042221069335938 -2.1015756130218506
42.628013610839844 -12.513615608215332 -2.2530713081359863
46.86607360839844 -6.849742889404297 -2.4020309448242188
46.99403381347656 -5.908404350280762 -2.4020309448242188
47.10309600830078 -4.964677333831787 -2.4020309448242188
47.26430130004883 -3.071624279022217 -2.4020309448242188
47.31639862060547 -2.1230485439300537 -2.4020309448242188
47.3343505859375 1.6759480237960815 -2.4020309448242188
47.14788055419922 4.519464492797852 -2.4020309448242188
43.8632698059082 6.886980056762695 -2.2517471313476562
43.746849060058594 7.770752906799316 -2.253319263458252
42.85867691040039 9.400238037109375 -2.2252144813537598
41.34489059448242 9.941349029541016 -2.156540632247925
34.35434341430664 10.48203182220459 -1.8215495347976685
34.35435104370117 11.239995956420898 -1.8331358432769775
34.35435485839844 12.786783218383789 -1.8590246438980103
32.420204162597656 15.126251220703125 -1.8143199682235718
30.79280662536621 15.126254081726074 -1.7398769855499268
30.48918342590332 15.743875503540039 -1.740219235420227
31.157489776611328 19.399616241455078 -1.861382246017456
31.157489776611328 20.27791976928711 -1.8853048086166382
31.157493591308594 21.179471969604492 -1.9106290340423584
31.157493591308594 22.105934143066406 -1.9374315738677979
30.48921775817871 27.695133209228516 -2.0889244079589844
30.50557518005371 30.02916717529297 -2.170867681503296
30.349340438842773 32.37255859375 -2.2504031658172607
29.691030502319336 32.97150421142578 -2.2501814365386963
27.64750862121582 34.68867874145508 -2.2496156692504883
26.23410415649414 35.76953887939453 -2.2496156692504883
24.824731826782227 36.86153793334961 -2.253814458847046
24.78824234008789 40.19800567626953 -2.395054578781128
-19.425294876098633 -12.436671257019043 -1.6912035942077637
-24.86709976196289 -17.3649845123291 -2.2238693237304688
-24.516307830810547 -17.862062454223633 -2.22409725189209
-15.684186935424805 -12.419862747192383 -1.4668951034545898
-23.386962890625 -19.29513168334961 -2.223067045211792
-23.01521873474121 -19.77747344970703 -2.224996328353882
-22.616291046142578 -20.237226486206055 -2.2252297401428223
-22.208303451538086 -20.689037322998047 -2.2254750728607178
-21.79141616821289 -21.132719039916992 -2.2257320880889893
-20.931509017944336 -21.995084762573242 -2.226280450820923
-20.488849639892578 -22.413387298583984 -2.226571559906006
-20.037914276123047 -22.82291603088379 -2.2268741130828857
-19.11202621459961 -23.61505126953125 -2.2275216579437256
-18.158735275268555 -24.37481689453125 -2.228645086288452
-16.67278480529785 -25.44214630126953 -2.23034930229187
-16.1633243560791 -25.77804183959961 -2.2309224605560303
-15.6470947265625 -26.10381317138672 -2.2315008640289307
-14.594989776611328 -26.723812103271484 -2.2326271533966064
-14.059611320495605 -27.01801300048828 -2.2331926822662354
-13.518359184265137 -27.30152702331543 -2.2337634563446045
-12.971402168273926 -27.57427406311035 -2.2343389987945557
-10.279036521911621 -25.770587921142578 -2.034318447113037
-9.68298053741455 -25.7663516998291 -2.018244504928589
-9.096587181091309 -25.76370620727539 -2.00334095954895
-7.8287177085876465 -29.525951385498047 -2.239713191986084
-4.5303778648376465 -20.3483829498291 -1.5285176038742065
-4.058075904846191 -20.12141990661621 -1.5050511360168457
-3.645789623260498 -20.155038833618164 -1.501793622970581
-3.226044178009033 -20.131893157958984 -1.494946002960205
-2.8130106925964355 -20.13100242614746 -1.490389347076416
-1.1942174434661865 -20.35393714904785 -1.4949605464935303
-0.773883044719696 -20.066143035888672 -1.4723870754241943
0.6631078720092773 -30.65822410583496 -2.2484521865844727
1.8931726217269897 -30.624019622802734 -2.2497050762176514
6.172045707702637 -30.115629196166992 -2.2540390491485596
7.371726036071777 -29.831180572509766 -2.2530806064605713
8.550954818725586 -29.47291374206543 -2.250131368637085
9.757326126098633 -31.27292823791504 -2.4020156860351562
11.003668785095215 -30.856464385986328 -2.4020156860351562
11.62032413482666 -30.629560470581055 -2.4020156860351562
12.839347839355469 -30.13888931274414 -2.4020156860351562
14.03774642944336 -29.59972381591797 -2.4020156860351562
14.628583908081055 -29.312217712402344 -2.4020156860351562
15.792380332946777 -28.70195770263672 -2.4020156860351562
16.930767059326172 -28.045516967773438 -2.4020156860351562
17.48985481262207 -27.70030403137207 -2.4020156860351562
19.124004364013672 -26.598388671875 -2.4020156860351562
19.653610229492188 -26.20948600769043 -2.4020156860351562
20.688922882080078 -25.400197982788086 -2.4020156860351562
21.69096565246582 -24.550033569335938 -2.4020156860351562
23.588748931884766 -22.732635498046875 -2.4020156860351562
24.03993034362793 -22.25496482849121 -2.4020156860351562
24.66005516052246 -21.05684471130371 -2.3776161670684814
24.65617561340332 -20.212684631347656 -2.337677478790283
24.65225601196289 -19.39594268798828 -2.2999517917633057
24.85463523864746 -17.98950958251953 -2.2496581077575684
25.56195068359375 -16.982147216796875 -2.250173807144165
25.89971351623535 -16.46751594543457 -2.2503738403320312
26.544574737548828 -15.418620109558105 -2.2508208751678467
26.834102630615234 -14.875163078308105 -2.2496156692504883
27.127052307128906 -14.333964347839355 -2.2496156692504883
28.65190887451172 -10.973562240600586 -2.2496304512023926
29.0739688873291 -10.47155475616455 -2.265820026397705
30.913856506347656 -10.438666343688965 -2.392406702041626
31.242177963256836 -9.856035232543945 -2.4020309448242188
31.93160629272461 -7.320415019989014 -2.4020309448242188
32.07200622558594 -6.678508281707764 -2.4020309448242188
32.31403350830078 -5.386910438537598 -2.4020309448242188
32.41557693481445 -4.73771858215332 -2.4020309448242188
32.50407028198242 -4.086630344390869 -2.4020309448242188
32.57949447631836 -3.433887243270874 -2.4020309448242188
32.641815185546875 -2.779764413833618 -2.4020309448242188
32.69100570678711 -2.1245312690734863 -2.4020309448242188
32.7270393371582 -1.468435287475586 -2.4020309448242188
32.74990463256836 -0.8117594718933105 -2.4020309448242188
32.75611114501953 0.502328634262085 -2.4020309448242188
32.709617614746094 1.8155994415283203 -2.4020309448242188
32.6666259765625 2.4712672233581543 -2.4020309448242188
32.45888900756836 4.431271076202393 -2.4020309448242188
29.731746673583984 7.78295373916626 -2.2534499168395996
27.80171775817871 7.876796722412109 -2.1187174320220947
28.963016510009766 10.12351131439209 -2.2496185302734375
28.301780700683594 11.846921920776367 -2.2496166229248047
27.26125717163086 14.07705020904541 -2.2496156692504883
26.045345306396484 16.21664047241211 -2.2496156692504883
25.37403106689453 17.248136520385742 -2.2496156692504883
25.02300262451172 17.753568649291992 -2.2496156692504883
24.82174301147461 18.37017059326172 -2.2641971111297607
24.80763053894043 19.947973251342773 -2.334064245223999
24.686010360717773 21.536056518554688 -2.4020156860351562
24.24910545349121 22.02686309814453 -2.4020156860351562
22.880584716796875 23.445270538330078 -2.4020156860351562
22.405771255493164 23.89944076538086 -2.4020156860351562
21.921926498413086 24.344013214111328 -2.4020156860351562
21.42925453186035 24.77879524230957 -2.4020156860351562
20.92794418334961 25.203664779663086 -2.4020156860351562
20.41826820373535 25.618263244628906 -2.4020156860351562
6.047677040100098 9.380766868591309 -0.8183645606040955
17.194957733154297 27.884321212768555 -2.4020156860351562
-19.312480926513672 -12.917768478393555 -2.230623960494995
-19.050918579101562 -13.303470611572266 -2.230790138244629
-18.505035400390625 -14.05906867980957 -2.231149435043335
-15.684185028076172 -12.419862747192383 -1.920692801475525
-17.630884170532227 -15.150593757629395 -2.231755018234253
-17.325151443481445 -15.502674102783203 -2.2319743633270264
-16.692960739135742 -16.188371658325195 -2.232438802719116
-16.3667049407959 -16.521757125854492 -2.2326838970184326
-16.033790588378906 -16.84849739074707 -2.2329258918762207
-15.348342895507812 -17.481557846069336 -2.233381986618042
-14.996232986450195 -17.787778854370117 -2.2336230278015137
-14.638093948364258 -18.087018966674805 -2.233872413635254
-9.632699966430664 -12.402949333190918 -1.5076825618743896
-13.528735160827637 -18.94130516052246 -2.2346701622009277
-8.125158309936523 -12.398736000061035 -1.423165202140808
-11.973477363586426 -19.975170135498047 -2.2358462810516357
-11.572043418884277 -20.2141056060791 -2.236159563064575
-11.165899276733398 -20.445064544677734 -2.236480474472046
-10.755167961120605 -20.667938232421875 -2.2368085384368896
-10.340035438537598 -20.88261604309082 -2.2371437549591064
-9.497153282165527 -21.287086486816406 -2.2378358840942383
-8.638577461242676 -21.65779685974121 -2.2385549545288086
-8.203828811645508 -21.830326080322266 -2.238924503326416
-7.7656426429748535 -21.99416732788086 -2.239300489425659
-6.4322710037231445 -22.433000564575195 -2.2404654026031494
-5.982126235961914 -22.5615234375 -2.240865468978882
-5.528987884521484 -22.679561614990234 -2.2411227226257324
-4.472166538238525 -20.086915969848633 -1.9756624698638916
-3.2153160572052 -20.064985275268555 -1.950915813446045
-2.8040623664855957 -20.066932678222656 -1.9452444314956665
-1.9880712032318115 -20.07286834716797 -1.9365252256393433
-1.1799046993255615 -20.110082626342773 -1.9339895248413086
-0.4326403737068176 -23.39591407775879 -2.246509552001953
0.036693114787340164 -23.404884338378906 -2.2469897270202637
0.5062145590782166 -23.40442657470703 -2.2474679946899414
0.9757311940193176 -23.39451789855957 -2.2479443550109863
1.4450500011444092 -23.37517547607422 -2.2484185695648193
1.913973331451416 -23.346393585205078 -2.2488906383514404
2.3823399543762207 -23.30817413330078 -2.2493603229522705
3.316565990447998 -23.203481674194336 -2.250291109085083
5.628726482391357 -22.777788162231445 -2.2525618076324463
6.5402512550354 -22.542545318603516 -2.253443479537964
6.315639495849609 -18.900211334228516 -1.9131405353546143
6.340761661529541 -15.753213882446289 -1.6303026676177979
5.536170482635498 -12.305025100708008 -1.295401930809021
11.172314643859863 -22.386688232421875 -2.4020156860351562
12.498380661010742 -21.67430305480957 -2.4020156860351562
15.800803184509277 -19.398950576782227 -2.4020156860351562
16.18670654296875 -19.078136444091797 -2.4020156860351562
16.938810348510742 -18.413616180419922 -2.4020156860351562
18.69727325439453 -16.62517547607422 -2.4020156860351562
19.026954650878906 -16.246829986572266 -2.4020156860351562
19.34898567199707 -15.861947059631348 -2.4020156860351562
19.66325569152832 -15.470691680908203 -2.4020156860351562
19.969560623168945 -15.073196411132812 -2.4020156860351562
20.267873764038086 -14.669649124145508 -2.4020156860351562
20.557992935180664 -14.26020336151123 -2.4020156860351562
20.83990478515625 -13.84501838684082 -2.4020156860351562
21.37841033935547 -12.998106002807617 -2.4020159244537354
21.63473892211914 -12.566709518432617 -2.4020161628723145
21.8824462890625 -12.130268096923828 -2.4020164012908936
22.351343154907227 -11.24291706085205 -2.402017831802368
22.784252166748047 -10.33747386932373 -2.402017831802368
23.70475196838379 -8.004368782043457 -2.40201735496521
23.860525131225586 -7.527327537536621 -2.40201735496521
24.143205642700195 -6.564352035522461 -2.40201735496521
24.270038604736328 -6.078808307647705 -2.40201735496521
24.38704490661621 -5.590817928314209 -2.40201735496521
24.494274139404297 -5.100573539733887 -2.40201735496521
24.591670989990234 -4.6082763671875 -2.40201735496521
24.679122924804688 -4.114130020141602 -2.402017116546631
24.75667381286621 -3.6183242797851562 -2.402017116546631
24.881874084472656 -2.6225574016571045 -2.402017116546631
24.92946434020996 -2.122982978820801 -2.402017116546631
24.967058181762695 -1.6225653886795044 -2.402017116546631
25.012052536010742 -0.6199630498886108 -2.402017116546631
25.019418716430664 -0.11818405240774155 -2.402017116546631
25.016759872436523 0.38364240527153015 -2.402017116546631
24.98124885559082 1.3866236209869385 -2.40201735496521
24.948410034179688 1.8873752355575562 -2.40201735496521
24.905536651611328 2.3873753547668457 -2.40201735496521
24.85264015197754 2.88641357421875 -2.40201735496521
24.54136848449707 4.868946552276611 -2.40201735496521
24.204139709472656 6.335978984832764 -2.4020166397094727
23.930561065673828 7.30157470703125 -2.4020161628723145
23.618478775024414 8.255422592163086 -2.4020156860351562
23.44816017150879 8.727460861206055 -2.4020156860351562
23.07927894592285 9.660819053649902 -2.4020156860351562
22.673269271850586 10.578632354736328 -2.4020156860351562
21.996063232421875 11.922995567321777 -2.4020156860351562
21.752506256103516 12.361763954162598 -2.4020156860351562
21.239234924316406 13.224207878112793 -2.4020156860351562
20.96973419189453 13.647522926330566 -2.4020156860351562
20.69179344177246 14.06535816192627 -2.4020156860351562
20.40553092956543 14.477526664733887 -2.4020156860351562
20.111085891723633 14.88388729095459 -2.4020156860351562
19.808500289916992 15.284233093261719 -2.4020156860351562
19.49797821044922 15.67844295501709 -2.4020156860351562
19.17959976196289 16.06635284423828 -2.4020156860351562
18.519819259643555 16.822628021240234 -2.4020156860351562
17.830270767211914 17.551815032958984 -2.4020156860351562
17.474639892578125 17.905908584594727 -2.4020156860351562
17.112010955810547 18.252775192260742 -2.4020156860351562
16.74250030517578 18.592287063598633 -2.4020156860351562
15.198532104492188 19.874332427978516 -2.4020156860351562
13.97585678100586 20.752349853515625 -2.4020156860351562
12.702582359313965 21.55527114868164 -2.4020156860351562
-15.533231735229492 -10.847029685974121 -2.250481128692627
-15.09643268585205 -11.469408988952637 -2.2520806789398193
-14.86854076385498 -11.77397632598877 -2.2528648376464844
-14.577250480651855 -12.027908325195312 -2.245046377182007
-14.025508880615234 -12.550423622131348 -2.2356948852539062
-12.805678367614746 -12.418601036071777 -2.1189463138580322
-13.251321792602539 -13.376842498779297 -2.2366385459899902
-12.98155403137207 -13.6411714553833 -2.236844062805176
-12.141287803649902 -14.401376724243164 -2.237499952316284
-9.63270092010498 -12.402949333190918 -1.865438461303711
-11.256844520568848 -15.110274314880371 -2.2382137775421143
-10.95274543762207 -15.334712982177734 -2.238464117050171
-10.644147872924805 -15.553011894226074 -2.2387092113494873
-8.125165939331055 -12.398736000061035 -1.7608617544174194
-8.705767631530762 -16.729656219482422 -2.2402141094207764
-6.991452693939209 -17.528287887573242 -2.2416298389434814
-5.927128314971924 -17.9243106842041 -2.2425436973571777
-5.567221164703369 -18.0421142578125 -2.2428581714630127
-4.840559005737305 -18.256103515625 -2.243501901626587
-4.105716228485107 -18.44098663330078 -2.244163990020752
-2.6161510944366455 -18.722179412841797 -2.2455384731292725
-2.2404797077178955 -18.77383804321289 -2.245891809463501
-0.7266259789466858 -12.38440990447998 -1.4736236333847046
-0.349853515625 -18.919132232666016 -2.247710704803467
0.029670409858226776 -18.92548370361328 -2.2480838298797607
0.40931272506713867 -18.924245834350586 -2.248459577560425
0.7889172434806824 -18.91541290283203 -2.248838186264038
1.1683337688446045 -18.89898681640625 -2.2492189407348633
2.303926944732666 -18.80418586730957 -2.250375270843506
2.681070566177368 -18.75743865966797 -2.2507646083831787
2.2787585258483887 -12.376008033752441 -1.4948077201843262
3.806230306625366 -18.57196807861328 -2.2519421577453613
4.178678035736084 -18.49513816833496 -2.2523372173309326
5.286154747009277 -18.220006942749023 -2.2535288333892822
5.651517391204834 -18.113523483276367 -2.25392746925354
6.339898586273193 -16.711109161376953 -2.1230974197387695
6.340761661529541 -15.75321102142334 -2.0171546936035156
7.427181243896484 -17.434446334838867 -2.2510571479797363
8.457050323486328 -16.94593048095703 -2.249687910079956
10.450732231140137 -17.311460494995117 -2.4020156860351562
10.795844078063965 -17.098371505737305 -2.4020156860351562
11.472878456115723 -16.651653289794922 -2.4020156860351562
11.804540634155273 -16.418197631835938 -2.4020156860351562
12.770512580871582 -15.678595542907715 -2.4020156860351562
13.082402229309082 -15.41931438446045 -2.4020156860351562
13.38902759552002 -15.153823852539062 -2.4020156860351562
13.985841751098633 -14.604676246643066 -2.4020156860351562
14.276140213012695 -14.321229934692383 -2.4020156860351562
14.56048583984375 -14.032014846801758 -2.4020156860351562
15.111403465270996 -13.436784744262695 -2.4020156860351562
15.89214038848877 -12.503697395324707 -2.4020161628723145
16.139787673950195 -12.182452201843262 -2.402017116546631
16.380884170532227 -11.856302261352539 -2.402017593383789
16.61538314819336 -11.525386810302734 -2.4020190238952637
17.064247131347656 -10.849759101867676 -2.40201997756958
17.278419494628906 -10.505331993103027 -2.40201997756958
17.878908157348633 -9.44723892211914 -2.402019739151001
18.414682388305664 -8.354950904846191 -2.402019500732422
18.883792877197266 -7.232428550720215 -2.4020192623138428
19.025049209594727 -6.852238655090332 -2.4020192623138428
19.15865135192871 -6.469291687011719 -2.4020192623138428
19.402685165405273 -5.695734024047852 -2.4020190238952637
19.615503311157227 -4.913010597229004 -2.4020190238952637
19.7967529296875 -4.122384071350098 -2.4020190238952637
19.94615364074707 -3.3251259326934814 -2.4020190238952637
20.008832931518555 -2.9244024753570557 -2.4020190238952637
20.17884635925293 -1.3113882541656494 -2.4020190238952637
20.201091766357422 -0.9064064025878906 -2.4020190238952637
20.2152042388916 -0.5010657906532288 -2.4020190238952637
20.22119140625 -0.0955183357000351 -2.4020190238952637
20.219039916992188 0.3100672960281372 -2.4020190238952637
20.19033432006836 1.1206969022750854 -2.4020190238952637
20.163795471191406 1.5254136323928833 -2.4020187854766846
20.1291446685791 1.9295225143432617 -2.4020187854766846
20.035568237304688 2.735246419906616 -2.4020187854766846
19.9766788482666 3.136539936065674 -2.4020187854766846
19.909753799438477 3.5365686416625977 -2.4020187854766846
19.834815979003906 3.93517804145813 -2.4020187854766846
19.56226921081543 5.120863914489746 -2.4020190238952637
19.455629348754883 5.512178421020508 -2.4020190238952637
7.376136302947998 2.745417356491089 -0.9349036812782288
7.251307010650635 3.0353448390960693 -0.9337717890739441
7.200463771820068 3.3595123291015625 -0.9438288807868958
17.96735382080078 9.277899742126465 -2.40201735496521
17.77764320373535 9.636402130126953 -2.40201735496521
17.58080291748047 9.991018295288086 -2.4020168781280518
17.16595458984375 10.688055038452148 -2.4020156860351562
16.492145538330078 11.70101547241211 -2.4020156860351562
16.254154205322266 12.029433250427246 -2.4020156860351562
15.758639335632324 12.671618461608887 -2.4020156860351562
15.237763404846191 13.293424606323242 -2.4020156860351562
14.123327255249023 14.471898078918457 -2.4020156860351562
13.531594276428223 15.026660919189453 -2.4020156860351562
13.227484703063965 15.295036315917969 -2.4020156860351562
12.283740043640137 16.06281852722168 -2.4020156860351562
11.959118843078613 16.305953979492188 -2.4020156860351562
11.629677772521973 16.54252815246582 -2.4020156860351562
10.613813400268555 17.211957931518555 -2.4020156860351562
10.266469955444336 17.42138671875 -2.4020156860351562
-14.27727222442627 -9.140807151794434 -2.4020309448242188
-14.091157913208008 -9.425321578979492 -2.4020309448242188
-12.042428016662598 -10.348311424255371 -2.2497286796569824
-11.83455753326416 -10.589664459228516 -2.2501323223114014
-11.406546592712402 -11.061756134033203 -2.2513535022735596
-10.729025840759277 -11.736817359924316 -2.2531051635742188
-10.480265617370605 -11.936854362487793 -2.2506933212280273
-10.2020845413208 -12.100953102111816 -2.2425944805145264
-9.632696151733398 -12.402949333190918 -2.225118398666382
-9.447553634643555 -12.681635856628418 -2.240664005279541
-8.933053016662598 -13.052800178527832 -2.2410898208618164
-8.125163078308105 -12.398736000061035 -2.1003828048706055
-7.8614068031311035 -13.732327461242676 -2.2420005798339844
-7.02363920211792 -14.184866905212402 -2.242732524871826
-6.738489627838135 -14.32450008392334 -2.242985248565674
-6.450567245483398 -14.458409309387207 -2.243239641189575
-6.159952163696289 -14.58644962310791 -2.2434821128845215
-5.571255207061768 -14.825056076049805 -2.243980646133423
-4.973361015319824 -15.040017127990723 -2.2444968223571777
-4.671267509460449 -15.138519287109375 -2.2447609901428223
-4.367222309112549 -15.23098373413086 -2.2450292110443115
-3.7537925243377686 -15.397635459899902 -2.245577573776245
-3.4446470737457275 -15.47175407409668 -2.2458572387695312
-2.8221001625061035 -15.601412773132324 -2.246427536010742
-2.194709539413452 -15.706125259399414 -2.247011184692383
-0.9293676614761353 -15.83997917175293 -2.248215675354004
0.0248876940459013 -15.873772621154785 -2.249147653579712
0.34330320358276367 -15.872307777404785 -2.2494630813598633
0.6616686582565308 -15.864468574523926 -2.2497804164886475
0.9798620343208313 -15.850258827209473 -2.2501001358032227
1.61520254611969 -15.80273723602295 -2.2507450580596924
3.1915979385375977 -15.572955131530762 -2.2523844242095947
3.503804922103882 -15.508090019226074 -2.252715826034546
4.124154090881348 -15.35963249206543 -2.2533812522888184
4.738229751586914 -15.186375617980957 -2.254049301147461
5.342397212982178 -14.981132507324219 -2.253598690032959
5.640490531921387 -14.867562294006348 -2.2530813217163086
6.80820894241333 -14.35566520690918 -2.251197576522827
7.08977746963501 -14.206239700317383 -2.2496156692504883
7.653798580169678 -13.910476684570312 -2.2496156692504883
8.47650146484375 -13.42502212524414 -2.2496156692504883
9.89630126953125 -13.76427173614502 -2.4020156860351562
12.668798446655273 -11.264816284179688 -2.4020211696624756
12.89220142364502 -11.008458137512207 -2.402021646499634
13.110404968261719 -10.747669219970703 -2.4020214080810547
13.32332706451416 -10.482556343078613 -2.4020214080810547
13.929596900939941 -9.662368774414062 -2.4020211696624756
14.305895805358887 -9.095949172973633 -2.4020211696624756
14.65917682647705 -8.514893531799316 -2.4020209312438965
15.294447898864746 -7.312638759613037 -2.4020206928253174
15.43803882598877 -7.004415035247803 -2.4020206928253174
15.575414657592773 -6.693376541137695 -2.4020206928253174
15.706527709960938 -6.379642963409424 -2.4020206928253174
15.831320762634277 -6.063343524932861 -2.4020204544067383
16.061750411987305 -5.423563003540039 -2.4020204544067383
16.266338348388672 -4.775045871734619 -2.4020204544067383
16.358835220336914 -4.4478440284729 -2.4020204544067383
16.44474983215332 -4.11884880065918 -2.4020204544067383
16.524051666259766 -3.788198709487915 -2.4020204544067383
16.66268539428711 -3.12245512008667 -2.4020204544067383
16.774505615234375 -2.451688528060913 -2.4020206928253174
16.82008171081543 -2.1149837970733643 -2.4020204544067383
16.93568229675293 -0.7598898410797119 -2.4020204544067383
16.952539443969727 -0.0800793468952179 -2.4020204544067383
16.95073127746582 0.25994643568992615 -2.4020204544067383
16.904422760009766 1.2788382768630981 -2.4020204544067383
16.83953285217285 1.9557617902755737 -2.4020204544067383
16.74754524230957 2.629534959793091 -2.4020204544067383
16.691442489624023 2.964900493621826 -2.4020204544067383
16.628620147705078 3.299076557159424 -2.4020204544067383
16.482934951782227 3.9633097648620605 -2.4020204544067383
8.550912857055664 2.238393545150757 -1.2523969411849976
7.946386337280273 2.2513742446899414 -1.170235276222229
7.478291988372803 2.2817392349243164 -1.1078184843063354
7.107949256896973 2.325566291809082 -1.0596543550491333
6.846608638763428 2.39311146736145 -1.0276435613632202
6.776317119598389 2.522163152694702 -1.0244812965393066
6.659797191619873 2.78774356842041 -1.0229579210281372
6.628135681152344 2.932072639465332 -1.0269224643707275
6.605170726776123 3.0817651748657227 -1.0327351093292236
6.590315818786621 3.237339973449707 -1.040357232093811
6.666906356811523 3.6138060092926025 -1.074480414390564
14.56799030303955 8.669949531555176 -2.4020190238952637
14.39117431640625 8.960390090942383 -2.4020187854766846
14.208561897277832 9.24721908569336 -2.402017831802368
13.626740455627441 10.084925651550293 -2.4020156860351562
13.421720504760742 10.356203079223633 -2.4020156860351562
13.211322784423828 10.623308181762695 -2.4020156860351562
12.081330299377441 11.892654418945312 -2.4020156860351562
11.84036636352539 12.13258171081543 -2.4020156860351562
11.344269752502441 12.59766960144043 -2.4020156860351562
11.089325904846191 12.822664260864258 -2.4020156860351562
10.829912185668945 13.042498588562012 -2.4020156860351562
10.566146850585938 13.257085800170898 -2.4020156860351562
10.298131942749023 13.466339111328125 -2.4020156860351562
10.025979042053223 13.670169830322266 -2.4020156860351562
9.74979019165039 13.86850357055664 -2.4020156860351562
8.868857383728027 13.16911792755127 -2.2496156692504883
6.047677040100098 9.380767822265625 -1.5814274549484253
8.333579063415527 13.514204025268555 -2.2496156692504883
8.06085205078125 13.678629875183105 -2.2496156692504883
-12.119549751281738 -8.106554985046387 -2.4020309448242188
-11.610151290893555 -8.820712089538574 -2.4020309448242188
-11.247066497802734 -9.2792329788208 -2.4020309448242188
-10.785929679870605 -9.651322364807129 -2.384363889694214
-10.370903968811035 -9.661473274230957 -2.3350038528442383
-9.972496032714844 -9.671052932739258 -2.288511276245117
-9.610868453979492 -9.70145320892334 -2.249630928039551
-9.413928031921387 -9.892293930053711 -2.2496402263641357
-9.213799476623535 -10.079273223876953 -2.249675750732422
-8.380980491638184 -10.791247367858887 -2.2509171962738037
-8.164461135864258 -10.959306716918945 -2.251357316970825
-7.721274375915527 -11.282166481018066 -2.252204656600952
-6.541968822479248 -11.978687286376953 -2.2484793663024902
-6.288532733917236 -12.08454418182373 -2.2442173957824707
-5.799419403076172 -12.328269004821777 -2.2444450855255127
-5.301390647888184 -12.55342960357666 -2.244891405105591
-4.280029296875 -12.94331169128418 -2.2458250522613525
-3.8242344856262207 -12.393498420715332 -2.1366846561431885
-3.7583091259002686 -13.107380867004395 -2.2463109493255615
-2.96427059173584 -13.314123153686523 -2.2470614910125732
-2.428466796875 -13.425355911254883 -2.247575283050537
-1.888527750968933 -13.514995574951172 -2.2480812072753906
-0.7266284227371216 -12.38440990447998 -2.043705701828003
0.021409912034869194 -13.657449722290039 -2.249920129776001
0.29536008834838867 -13.655919075012207 -2.2501916885375977
0.8429980278015137 -13.636409759521484 -2.2507400512695312
1.1164623498916626 -13.618433952331543 -2.251016616821289
1.3895434141159058 -13.59498405456543 -2.2512948513031006
1.9341344833374023 -13.531686782836914 -2.2518556118011475
3.281292676925659 -13.27841854095459 -2.2532765865325928
3.5473997592926025 -13.211614608764648 -2.253563165664673
4.075431823730469 -13.06204891204834 -2.2541377544403076
4.852858543395996 -12.791470527648926 -2.2538108825683594
5.536169528961182 -12.305025100708008 -2.222836971282959
5.851539134979248 -12.338448524475098 -2.249627113342285
6.097824573516846 -12.218602180480957 -2.249626636505127
6.341651439666748 -12.093846321105957 -2.2496261596679688
6.582942962646484 -11.964213371276855 -2.2496259212493896
7.290519714355469 -11.546674728393555 -2.249624490737915
7.520637035369873 -11.398127555847168 -2.249624013900757
8.51169204711914 -11.83842658996582 -2.4020187854766846
8.747550964355469 -11.6653413772583 -2.402019500732422
8.979660034179688 -11.487553596496582 -2.4020206928253174
9.87145709991455 -10.730928421020508 -2.40202260017395
10.08469009399414 -10.530792236328125 -2.40202260017395
10.498913764953613 -10.117867469787598 -2.40202260017395
10.699724197387695 -9.905269622802734 -2.402022361755371
11.459169387817383 -9.01586627960205 -2.402022123336792
11.637687683105469 -8.784225463867188 -2.402022123336792
11.980612754821777 -8.310439109802246 -2.402021884918213
12.30426025390625 -7.823273658752441 -2.402021884918213
13.154491424560547 -6.289477348327637 -2.402021646499634
13.396137237548828 -5.756871700286865 -2.402021884918213
13.50871753692627 -5.487219333648682 -2.40202260017395
13.718110084533691 -4.94083833694458 -2.402022123336792
13.81444263458252 -4.6647138595581055 -2.402022123336792
13.990405082702637 -4.106935501098633 -2.402022123336792
14.069965362548828 -3.825515031814575 -2.402022123336792
14.21206283569336 -3.2581660747528076 -2.402021884918213
14.274550437927246 -2.9724645614624023 -2.402021884918213
14.427470207214355 -2.108654499053955 -2.402021646499634
14.500432014465332 -1.52834951877594 -2.402021646499634
14.550058364868164 -0.9455834627151489 -2.402021646499634
14.566096305847168 -0.653568685054779 -2.402021646499634
14.580588340759277 -0.06887359172105789 -2.402021646499634
14.5790376663208 0.22357527911663055 -2.402021646499634
14.57162094116211 0.5159299969673157 -2.402021646499634
14.558341979980469 0.808086097240448 -2.402021646499634
14.539206504821777 1.0999085903167725 -2.402021646499634
14.446747779846191 1.9722596406936646 -2.402021646499634
14.40428638458252 2.2616171836853027 -2.402021646499634
14.301994323730469 2.8374791145324707 -2.402021646499634
9.427335739135742 2.067707061767578 -1.5899688005447388
8.801562309265137 2.116328477859497 -1.4912889003753662
8.221503257751465 2.152162790298462 -1.4000407457351685
7.706369400024414 2.1833720207214355 -1.3195111751556396
7.256500244140625 2.2140674591064453 -1.2498366832733154
6.915852069854736 2.2627155780792236 -1.198740839958191
6.640195369720459 2.320963144302368 -1.1587978601455688
6.376279354095459 2.5199928283691406 -1.1294828653335571
6.313371658325195 2.6427319049835205 -1.127503514289856
6.203250408172607 3.2032079696655273 -1.1501210927963257
6.218465328216553 3.370728015899658 -1.165244698524475
6.253801345825195 3.553981304168701 -1.18498694896698
11.720133781433105 8.673881530761719 -2.4020187854766846
11.362785339355469 9.13691520690918 -2.4020164012908936
10.183691024780273 10.43502426147461 -2.4020156860351562
9.537736892700195 11.028548240661621 -2.4020156860351562
8.723639488220215 10.505904197692871 -2.2496156692504883
8.29528522491455 10.84731388092041 -2.2496156692504883
8.076062202453613 11.011502265930176 -2.2496156692504883
6.047675609588623 9.380767822265625 -1.8386929035186768
6.933001518249512 11.764750480651855 -2.2496156692504883
-10.328765869140625 -7.5253143310546875 -2.4020309448242188
-10.018654823303223 -7.933485984802246 -2.4020309448242188
-9.857524871826172 -8.132833480834961 -2.4020309448242188
-9.69241714477539 -8.328903198242188 -2.4020309448242188
-8.993719100952148 -9.078908920288086 -2.4020309448242188
-8.809998512268066 -9.257464408874512 -2.4020309448242188
-8.622364044189453 -9.432295799255371 -2.4020309448242188
-8.431472778320312 -9.603334426879883 -2.4020309448242188
-8.143607139587402 -9.659533500671387 -2.374749183654785
-7.513627052307129 -9.674460411071777 -2.3024230003356934
-6.759634971618652 -9.877033233642578 -2.249635934829712
-6.560240268707275 -10.010730743408203 -2.249661445617676
-5.738763332366943 -10.507830619812012 -2.250417947769165
-4.880651950836182 -10.939579963684082 -2.251572370529175
-4.66080379486084 -11.036543846130371 -2.251833915710449
-4.4390082359313965 -11.129047393798828 -2.252084255218506
-4.215351581573486 -11.217032432556152 -2.252323627471924
-3.989933490753174 -11.300455093383789 -2.252551317214966
-3.762850284576416 -11.37929630279541 -2.25276780128479
-3.534191131591797 -11.453526496887207 -2.2529730796813965
-3.304044008255005 -11.523088455200195 -2.2531661987304688
-3.072519540786743 -11.58797836303711 -2.2533481121063232
-2.3705883026123047 -11.754246711730957 -2.2538228034973145
-2.134493350982666 -11.800129890441895 -2.2539570331573486
-1.8974963426589966 -11.84121036529541 -2.2540793418884277
-1.4204332828521729 -11.902166366577148 -2.2530155181884766
-0.9410839676856995 -11.93943977355957 -2.2511088848114014
-0.22151854634284973 -11.969597816467285 -2.250200033187866
0.018590087071061134 -11.97237491607666 -2.250339984893799
0.2587634325027466 -11.970650672912598 -2.2505393028259277
0.49901488423347473 -11.964426040649414 -2.250798463821411
0.7388268709182739 -11.953706741333008 -2.2511165142059326
0.9788195490837097 -11.938468933105469 -2.2514936923980713
1.696997046470642 -11.873332023620605 -2.254403591156006
2.4078369140625 -11.748693466186523 -2.2541940212249756
2.6428539752960205 -11.697465896606445 -2.2540841102600098
3.1095030307769775 -11.580747604370117 -2.253828287124634
3.3409276008605957 -11.51530933380127 -2.2536826133728027
3.5709619522094727 -11.445182800292969 -2.2535247802734375
3.799504280090332 -11.370407104492188 -2.2533552646636963
4.026464939117432 -11.291007041931152 -2.253173828125
4.245424747467041 -11.190353393554688 -2.249630928039551
4.469008922576904 -11.102953910827637 -2.249630928039551
4.910695552825928 -10.914790153503418 -2.249630928039551
5.769664287567139 -10.486133575439453 -2.249630928039551
5.978821754455566 -10.368287086486816 -2.249630928039551
6.186447620391846 -10.247746467590332 -2.2499513626098633
7.250571250915527 -10.523428916931152 -2.4020285606384277
7.460168361663818 -10.375885009765625 -2.4020276069641113
7.870283126831055 -10.068349838256836 -2.4020252227783203
8.070631980895996 -9.908462524414062 -2.4020252227783203
8.651894569396973 -9.405181884765625 -2.402024984359741
9.02211856842041 -9.050640106201172 -2.402024745941162
9.201833724975586 -8.86785888671875 -2.402024745941162
9.37783432006836 -8.681526184082031 -2.402024507522583
9.550070762634277 -8.491691589355469 -2.402024507522583
9.882946968078613 -8.10185432434082 -2.402024269104004
10.043452262878418 -7.902002811431885 -2.402024269104004
10.199918746948242 -7.698979377746582 -2.402024030685425
10.352274894714355 -7.492861270904541 -2.402024030685425
10.784135818481445 -6.85674524307251 -2.4020237922668457
11.050443649291992 -6.418735980987549 -2.4020235538482666
11.52933120727539 -5.512444972991943 -2.4020233154296875
11.741127967834473 -5.04563045501709 -2.4020233154296875
11.839961051940918 -4.8091278076171875 -2.4020230770111084
11.934035301208496 -4.570695877075195 -2.4020230770111084
12.023307800292969 -4.330423355102539 -2.4020230770111084
12.107741355895996 -4.088409900665283 -2.4020228385925293
12.187304496765137 -3.8447484970092773 -2.4020228385925293
12.261967658996582 -3.599546432495117 -2.4020228385925293
12.4562349319458 -2.8556339740753174 -2.4020228385925293
12.67955493927002 -1.5941567420959473 -2.40202260017395
12.708979606628418 -1.3395299911499023 -2.40202260017395
12.752470016479492 -0.8287609815597534 -2.40202260017395
12.775453567504883 -0.3166583180427551 -2.40202260017395
12.779237747192383 -0.06036697328090668 -2.40202260017395
12.771371841430664 0.45219069719314575 -2.40202260017395
12.759733200073242 0.7082465887069702 -2.40202260017395
12.694047927856445 1.4742984771728516 -2.40202260017395
9.33248519897461 2.0469038486480713 -1.7958391904830933
7.463301658630371 2.1145060062408447 -1.458024263381958
7.011157035827637 2.139209508895874 -1.3778002262115479
6.670190334320068 2.1823408603668213 -1.3191320896148682
6.246076583862305 2.3248062133789062 -1.2527027130126953
6.125209808349609 2.420766592025757 -1.2379521131515503
6.067429065704346 2.5397818088531494 -1.2363221645355225
6.001511096954346 2.654874324798584 -1.2334942817687988
5.890231609344482 3.0415728092193604 -1.2460261583328247
5.878265380859375 3.1863224506378174 -1.2567636966705322
5.886638164520264 3.345325231552124 -1.2726447582244873
5.932761192321777 3.530803680419922 -1.29766845703125
10.848424911499023 6.7545647621154785 -2.4020233154296875
10.710771560668945 6.9707865715026855 -2.4020233154296875
10.422538757324219 7.394725799560547 -2.402022123336792
10.11763858795166 7.806765079498291 -2.4020211696624756
9.959035873413086 8.0081148147583 -2.4020209312438965
9.62984561920166 8.401076316833496 -2.4020180702209473
9.459399223327637 8.592522621154785 -2.402017116546631
9.285158157348633 8.780510902404785 -2.4020166397094727
9.107192039489746 8.964966773986816 -2.4020161628723145
8.925546646118164 9.145825386047363 -2.4020159244537354
7.459662914276123 9.359457969665527 -2.2496166229248047
7.270429611206055 9.507189750671387 -2.2496163845062256
7.078313827514648 9.65108585357666 -2.2496161460876465
6.883323669433594 9.79110336303711 -2.2496161460876465
-9.570208549499512 -6.127142906188965 -2.4020309448242188
-9.445392608642578 -6.317854881286621 -2.4020309448242188
-9.316789627075195 -6.506019115447998 -2.4020309448242188
-8.31462574005127 -7.74582576751709 -2.4020309448242188
-8.157608985900879 -7.911021709442139 -2.4020309448242188
-7.497337341308594 -8.539365768432617 -2.4020309448242188
-6.788827419281006 -9.112772941589355 -2.4020309448242188
-6.41787576675415 -9.377703666687012 -2.4020309448242188
-6.228525638580322 -9.504537582397461 -2.4020309448242188
-6.036648273468018 -9.627545356750488 -2.4020309448242188
-5.792717933654785 -9.66397762298584 -2.381648302078247
-5.535582065582275 -9.669507026672363 -2.355170488357544
-5.283784866333008 -9.674750328063965 -2.3301618099212646
-4.1403727531433105 -9.804192543029785 -2.249630928039551
-3.5433225631713867 -10.035587310791016 -2.249664783477783
-3.3414306640625 -10.104692459106445 -2.249677896499634
-3.138176918029785 -10.170130729675293 -2.2497785091400146
-2.933793306350708 -10.231804847717285 -2.2499501705169678
-1.8952306509017944 -10.477392196655273 -2.2506511211395264
-1.473638892173767 -10.54593563079834 -2.2508575916290283
-1.049587368965149 -10.597321510314941 -2.251020908355713
-0.8368579149246216 -10.616548538208008 -2.251086473464966
-0.4104247987270355 -10.642034530639648 -2.2511847019195557
-0.19690795242786407 -10.648283004760742 -2.251217842102051
0.01669921912252903 -10.65019416809082 -2.251239776611328
0.23030029237270355 -10.647769927978516 -2.251250982284546
0.8701977133750916 -10.614498138427734 -2.251218795776367
1.2951452732086182 -10.57070255279541 -2.251142978668213
1.5068590641021729 -10.542346954345703 -2.2510886192321777
1.7179491519927979 -10.509700775146484 -2.251023769378662
1.9283239841461182 -10.47277545928955 -2.2509477138519287
2.3465893268585205 -10.3861665725708 -2.2507638931274414
2.7609593868255615 -10.282666206359863 -2.250537157058716
2.9664647579193115 -10.224635124206543 -2.2504076957702637
3.1707420349121094 -10.162450790405273 -2.25026798248291
3.373697519302368 -10.096137046813965 -2.250117540359497
3.5752551555633545 -10.025726318359375 -2.2499568462371826
3.77532958984375 -9.951244354248047 -2.2497856616973877
4.376197338104248 -9.72680377960205 -2.254560947418213
4.872822284698486 -9.76398754119873 -2.3066563606262207
5.676575660705566 -9.844148635864258 -2.4020309448242188
5.872874736785889 -9.728315353393555 -2.4020309448242188
6.258303165435791 -9.484956741333008 -2.4020309448242188
6.44727897644043 -9.357528686523438 -2.4020309448242188
6.633656024932861 -9.226340293884277 -2.4020307064056396
6.817366600036621 -9.091436386108398 -2.4020302295684814
7.351751327514648 -8.664997100830078 -2.4020280838012695
8.022551536560059 -8.0479097366333 -2.4020252227783203
8.338854789733887 -7.7196946144104 -2.402024984359741
8.641740798950195 -7.379057884216309 -2.402024745941162
8.78799819946289 -7.20424222946167 -2.402024745941162
8.930729866027832 -7.02653169631958 -2.402024745941162
9.06985855102539 -6.846002101898193 -2.402024745941162
9.205334663391113 -6.662720680236816 -2.402024507522583
9.337114334106445 -6.476756572723389 -2.402024507522583
9.465136528015137 -6.288182735443115 -2.402024507522583
9.589350700378418 -6.097080707550049 -2.402024269104004
9.826156616210938 -5.707596302032471 -2.402024269104004
10.04715347290039 -5.308927059173584 -2.402024030685425
10.151613235473633 -5.106343746185303 -2.402024030685425
10.348237037658691 -4.695106506347656 -2.4020237922668457
10.440317153930664 -4.4866180419921875 -2.4020237922668457
10.528203010559082 -4.276323318481445 -2.4020237922668457
10.83705997467041 -3.4187872409820557 -2.4020235538482666
10.903447151184082 -3.2007482051849365 -2.4020235538482666
11.023041725158691 -2.7608935832977295 -2.4020235538482666
11.124897003173828 -2.316596269607544 -2.4020233154296875
11.169120788574219 -2.093005418777466 -2.4020233154296875
11.208854675292969 -1.868571400642395 -2.4020233154296875
11.244074821472168 -1.6433846950531006 -2.4020233154296875
11.274775505065918 -1.4175373315811157 -2.4020233154296875
11.36004638671875 -0.28157636523246765 -2.4020233154296875
11.356420516967773 0.4020899832248688 -2.4020233154296875
11.346071243286133 0.6297840476036072 -2.4020233154296875
11.311689376831055 1.084307074546814 -2.4020233154296875
11.259100914001465 1.5370869636535645 -2.4020233154296875
11.188395500183105 1.987393856048584 -2.4020233154296875
11.146284103393555 2.211395025253296 -2.4020233154296875
9.324142456054688 2.0450730323791504 -2.017786741256714
7.340038776397705 2.079583168029785 -1.612606167793274
