ply
format ascii 1.0
element vertex 318
property float x
property float y
property float z
end_header
5.4602952003479 -12.36851692199707 2.3839714527130127
33.114749908447266 -35.454524993896484 8.554327011108398
5.4602952003479 -12.36851692199707 2.0712170600891113
28.743242263793945 -32.01827621459961 6.591536045074463
28.743242263793945 -30.774137496948242 6.450960636138916
28.957670211791992 -39.478694915771484 6.375654220581055
28.903564453125 -37.81658935546875 6.1981706619262695
29.10354995727539 -33.73606491088867 5.801974773406982
28.903568267822266 -30.94579315185547 5.514138698577881
29.11458969116211 -39.692626953125 5.285935401916504
28.903564453125 -37.81658935546875 5.111090183258057
28.903568267822266 -30.94578742980957 4.547028064727783
29.11458969116211 -39.6926383972168 4.167088508605957
28.37775421142578 -34.23843002319336 3.764495849609375
28.377763748168945 -31.61115837097168 3.596062660217285
28.29744529724121 -30.296836853027344 3.5094103813171387
28.37775421142578 -35.64771270751953 2.825423002243042
28.37775421142578 -34.23843765258789 2.75758957862854
28.377758026123047 -31.611162185668945 2.6342074871063232
5.460294246673584 -12.36851692199707 0.5331155061721802
28.37775421142578 -34.23843765258789 1.7534911632537842
28.297441482543945 -32.80165481567383 1.7081841230392456
28.29744529724121 -31.52170181274414 1.6702944040298462
5.4602952003479 -12.36851692199707 0.22838133573532104
28.297441482543945 -35.546836853027344 0.767472505569458
28.297441482543945 -34.14154052734375 0.7490496635437012
28.297441482543945 -35.546836853027344 -0.25580689311027527
29.265926361083984 -33.92431640625 -0.2522521913051605
28.29744529724121 -31.521711349487305 -0.23849470913410187
5.4602952003479 -12.36851692199707 -0.3806971609592438
28.297441482543945 -35.54682922363281 -1.2793424129486084
28.65011215209961 -30.674428939819336 -1.1818711757659912
15.744560241699219 -44.96900939941406 -2.416307210922241
16.629045486450195 -44.64940643310547 -2.416307210922241
17.50702667236328 -44.31245422363281 -2.416307210922241
5.4602952003479 -12.368515014648438 -0.6856649518013
20.09878158569336 -43.19875717163086 -2.416307210922241
20.947492599487305 -42.793704986572266 -2.416307210922241
22.620100021362305 -41.93358612060547 -2.416307210922241
24.25745391845703 -41.00819396972656 -2.416307210922241
25.114276885986328 -38.869327545166016 -2.34689998626709
25.085966110229492 -37.19391632080078 -2.2751970291137695
25.687082290649414 -36.50951385498047 -2.2639071941375732
27.107955932617188 -35.4672737121582 -2.2639071941375732
27.802692413330078 -34.92533493041992 -2.2639071941375732
28.294574737548828 -32.798336029052734 -2.1967613697052
10.889931678771973 -31.103376388549805 -2.416307210922241
11.50170612335205 -30.882381439208984 -2.416307210922241
12.711554527282715 -30.40439796447754 -2.416307210922241
5.4602952003479 -12.368515014648438 -0.9913273453712463
13.901603698730469 -29.87901496887207 -2.416307210922241
15.069992065429688 -29.307096481323242 -2.416307210922241
15.645509719848633 -29.00393295288086 -2.416307210922241
16.214908599853516 -28.68949317932129 -2.416307210922241
16.77800178527832 -28.363868713378906 -2.416307210922241
17.33456039428711 -28.027189254760742 -2.416307210922241
18.427188873291016 -27.32122230529785 -2.416307210922241
19.491092681884766 -26.57268524169922 -2.416307210922241
20.011762619018555 -26.18281364440918 -2.416307210922241
20.524633407592773 -25.782743453979492 -2.416307210922241
21.02957534790039 -25.372636795043945 -2.416307210922241
21.526195526123047 -24.95261001586914 -2.416307210922241
22.014507293701172 -24.52288246154785 -2.416307210922241
22.494237899780273 -24.083602905273438 -2.416307210922241
7.797699928283691 -22.27144432067871 -2.265436887741089
8.232650756835938 -22.104867935180664 -2.264580726623535
8.664743423461914 -21.93155288696289 -2.2639071941375732
5.460296630859375 -12.368515014648438 -1.298004150390625
10.61709976196289 -22.81957244873047 -2.416307210922241
11.065442085266113 -22.60557746887207 -2.416307210922241
11.94897174835205 -22.151248931884766 -2.416307210922241
12.383864402770996 -21.91109848022461 -2.416307210922241
12.813913345336914 -21.66240692138672 -2.416307210922241
14.48253345489502 -20.584266662597656 -2.416307210922241
14.885981559753418 -20.294416427612305 -2.416307210922241
15.283632278442383 -19.99665641784668 -2.416307210922241
15.675324440002441 -19.691112518310547 -2.416307210922241
17.179574966430664 -18.39342498779297 -2.416307210922241
6.306962966918945 -18.013671875 -2.26713228225708
6.659326076507568 -17.880456924438477 -2.2664692401885986
7.00938081741333 -17.741621017456055 -2.2659692764282227
7.356613636016846 -17.5960750579834 -2.265486478805542
5.456878662109375 -12.360774993896484 -1.605000615119934
8.041757583618164 -17.284332275390625 -2.2644784450531006
8.37978744506836 -17.119083404541016 -2.2640600204467773
9.30214786529541 -18.090187072753906 -2.416307210922241
9.657394409179688 -17.90308380126953 -2.416307210922241
10.008859634399414 -17.708965301513672 -2.416307210922241
10.699982643127441 -17.300151824951172 -2.416307210922241
12.352521896362305 -16.161680221557617 -2.416307210922241
12.66909408569336 -15.914731979370117 -2.416307210922241
12.980744361877441 -15.661581993103027 -2.416307210922241
13.287331581115723 -15.402324676513672 -2.416307210922241
13.885011672973633 -14.865917205810547 -2.416307210922241
5.585406303405762 -14.996959686279297 -2.2674968242645264
4.886651515960693 -12.368719100952148 -1.8843332529067993
6.17016077041626 -14.7582368850708 -2.266482353210449
6.745143890380859 -14.497489929199219 -2.2655866146087646
7.029006004333496 -14.359573364257812 -2.2652766704559326
7.585673809051514 -14.062464714050293 -2.2639071941375732
7.861735820770264 -13.91000747680664 -2.2639071941375732
8.134757995605469 -13.752127647399902 -2.2639071941375732
8.404611587524414 -13.58889102935791 -2.2639071941375732
9.254892349243164 -14.323783874511719 -2.416307210922241
10.086286544799805 -13.750969886779785 -2.416307210922241
10.355791091918945 -13.54921817779541 -2.416307210922241
10.62121295928955 -13.34218978881836 -2.416307210922241
10.88240909576416 -13.129953384399414 -2.416307210922241
11.13949966430664 -12.912609100341797 -2.4163074493408203
11.392230987548828 -12.690231323242188 -2.4163076877593994
11.6404390335083 -12.462912559509277 -2.4163081645965576
4.805419921875 -12.902677536010742 -2.2682089805603027
6.04189920425415 -12.34301471710205 -2.263917922973633
6.284340858459473 -12.221352577209473 -2.2639174461364746
6.524332046508789 -12.09493350982666 -2.2639169692993164
6.761772155761719 -11.963808059692383 -2.263916492462158
6.996589183807373 -11.828015327453613 -2.263916015625
7.228676795959473 -11.687615394592285 -2.263915538787842
7.457955360412598 -11.542654991149902 -2.2639153003692627
8.201583862304688 -12.16014575958252 -2.4163095951080322
8.439990043640137 -11.995902061462402 -2.4163098335266113
8.675114631652832 -11.82698917388916 -2.4163103103637695
8.906694412231445 -11.653464317321777 -2.416311025619507
9.135271072387695 -11.47541332244873 -2.4163122177124023
9.36004638671875 -11.292879104614258 -2.416313409805298
9.580912590026855 -11.10594367980957 -2.4163143634796143
9.798246383666992 -10.914677619934082 -2.416314125061035
3.9868247509002686 -11.386999130249023 -2.2677035331726074
4.645960807800293 -11.112544059753418 -2.2639224529266357
4.864386081695557 -11.018677711486816 -2.2639224529266357
5.08091402053833 -10.920525550842285 -2.2639224529266357
5.718295574188232 -10.600696563720703 -2.2639224529266357
5.926408767700195 -10.485774993896484 -2.2639224529266357
6.132217884063721 -10.366755485534668 -2.2639224529266357
7.188346862792969 -10.657862663269043 -2.4163198471069336
7.603371620178223 -10.365861892700195 -2.41631817817688
8.203493118286133 -9.897705078125 -2.416316509246826
3.7386462688446045 -10.038357734680176 -2.2642931938171387
3.935734748840332 -9.961835861206055 -2.2641167640686035
4.131242752075195 -9.881403923034668 -2.263930320739746
4.325455188751221 -9.797904968261719 -2.2639224529266357
4.774849891662598 -9.754549980163574 -2.29569149017334
5.621063232421875 -9.945507049560547 -2.4148201942443848
6.203652381896973 -9.601385116577148 -2.4163224697113037
6.391948223114014 -9.477072715759277 -2.4163224697113037
6.577751159667969 -9.349170684814453 -2.4163222312927246
6.941595077514648 -9.082183837890625 -2.4163215160369873
7.119498252868652 -8.943405151367188 -2.41632080078125
7.294627666473389 -8.801140785217285 -2.4163200855255127
7.466912746429443 -8.655447959899902 -2.4163191318511963
7.636289119720459 -8.506428718566895 -2.416317939758301
7.802692890167236 -8.35400390625 -2.4163167476654053
3.390388011932373 -9.683484077453613 -2.411301612854004
3.588308095932007 -9.634702682495117 -2.4163224697113037
3.777765989303589 -9.562005043029785 -2.4163224697113037
4.152202129364014 -9.4054594039917 -2.4163224697113037
4.337027549743652 -9.321677207946777 -2.4163224697113037
4.701545238494873 -9.143244743347168 -2.4163224697113037
4.881092548370361 -9.048666954040527 -2.4163224697113037
5.57957124710083 -8.635497093200684 -2.4163224697113037
6.080843448638916 -8.290163040161133 -2.4163224697113037
6.24328088760376 -8.168498039245605 -2.4163224697113037
6.403287410736084 -8.04371452331543 -2.4163224697113037
6.560800552368164 -7.915765762329102 -2.4163222312927246
6.868096828460693 -7.6506218910217285 -2.4163217544555664
3.257155656814575 -8.74554443359375 -2.4163224697113037
3.4291257858276367 -8.679553985595703 -2.4163224697113037
4.267653942108154 -8.299436569213867 -2.4163224697113037
4.430631160736084 -8.213592529296875 -2.4163224697113037
4.908951282501221 -7.936989784240723 -2.4163224697113037
5.370060920715332 -7.632558822631836 -2.4163224697113037
5.519660472869873 -7.525086879730225 -2.4163224697113037
5.667106628417969 -7.414680004119873 -2.4163224697113037
5.8123459815979 -7.301384925842285 -2.4163224697113037
5.955320835113525 -7.185257434844971 -2.4163224697113037
6.095977783203125 -7.066298007965088 -2.4163224697113037
6.234259128570557 -6.94460916519165 -2.4163224697113037
2.8205504417419434 -8.055937767028809 -2.4163224697113037
2.979006290435791 -7.998707294464111 -2.4163224697113037
3.1362950801849365 -7.938352108001709 -2.4163224697113037
3.2923572063446045 -7.874898433685303 -2.4163224697113037
3.7526280879974365 -7.666251182556152 -2.4163224697113037
3.9032092094421387 -7.590692043304443 -2.4163224697113037
4.052270412445068 -7.512176513671875 -2.4163224697113037
4.199752330780029 -7.430738925933838 -2.4163224697113037
4.772738933563232 -7.076340675354004 -2.4163224697113037
5.183157920837402 -6.781492233276367 -2.4163224697113037
5.701880931854248 -6.351558685302734 -2.4163224697113037
2.5960142612457275 -7.414626121520996 -2.4163224697113037
2.741851806640625 -7.361944198608398 -2.4163224697113037
2.886617422103882 -7.306395530700684 -2.4163224697113037
3.1727283000946045 -7.186779022216797 -2.4163224697113037
3.453890323638916 -7.05596399307251 -2.4163224697113037
3.5924839973449707 -6.9864182472229 -2.4163224697113037
3.999650716781616 -6.761568069458008 -2.4163224697113037
4.132327556610107 -6.681308269500732 -2.4163224697113037
4.392794132232666 -6.51301383972168 -2.4163224697113037
4.770535945892334 -6.241632461547852 -2.4163224697113037
2.402120351791382 -6.860835552215576 -2.4163224697113037
2.537066698074341 -6.8120880126953125 -2.4163224697113037
2.6710216999053955 -6.760686874389648 -2.4163224697113037
2.8039355278015137 -6.706652641296387 -2.4163224697113037
2.935757875442505 -6.650005340576172 -2.4163224697113037
3.1959240436553955 -6.52895975112915 -2.4163224697113037
3.324164867401123 -6.464609146118164 -2.4163224697113037
3.4511120319366455 -6.397739887237549 -2.4163224697113037
3.5767126083374023 -6.328378200531006 -2.4163224697113037
3.7009191513061523 -6.256551265716553 -2.4163224697113037
3.8236875534057617 -6.182285785675049 -2.4163224697113037
4.182855129241943 -5.945164203643799 -2.4163224697113037
4.299379825592041 -5.861447811126709 -2.4163224697113037
4.638728141784668 -5.596733093261719 -2.4163224697113037
4.748288631439209 -5.50407600402832 -2.4163224697113037
4.961818695068359 -5.312446117401123 -2.4163224697113037
2.232835531234741 -6.377330780029297 -2.4163224697113037
2.358271360397339 -6.332019329071045 -2.4163224697113037
2.6063342094421387 -6.234014987945557 -2.4163224697113037
2.728868246078491 -6.18135929107666 -2.4163224697113037
2.9706969261169434 -6.068843841552734 -2.4163224697113037
3.207902669906616 -5.946871280670166 -2.4163224697113037
3.3246495723724365 -5.88239860534668 -2.4163224697113037
3.4401049613952637 -5.815633296966553 -2.4163224697113037
3.5542211532592773 -5.746603488922119 -2.4163224697113037
3.7782483100891113 -5.6018524169921875 -2.4163224697113037
3.8880772590637207 -5.526191234588623 -2.4163224697113037
3.996389150619507 -5.448375701904297 -2.4163224697113037
4.513779163360596 -5.0280938148498535 -2.4163224697113037
2.0836143493652344 -5.9511284828186035 -2.4163224697113037
2.2006664276123047 -5.908847332000732 -2.4163224697113037
2.3168601989746094 -5.864262104034424 -2.4163224697113037
2.432149648666382 -5.817389965057373 -2.4163224697113037
2.546495199203491 -5.768252849578857 -2.4163224697113037
2.659848690032959 -5.716869831085205 -2.4163224697113037
3.10246205329895 -5.4892730712890625 -2.4163224697113037
3.5257458686828613 -5.227476596832275 -2.4163224697113037
3.927057981491089 -4.933114051818848 -2.4163224697113037
4.118692398071289 -4.7742815017700195 -2.4163224697113037
4.212121486663818 -4.692058086395264 -2.4163224697113037
4.303908824920654 -4.607954502105713 -2.4163224697113037
1.9509594440460205 -5.572244167327881 -2.4163224697113037
2.5956687927246094 -5.3027024269104 -2.4163224697113037
2.8029308319091797 -5.196127414703369 -2.4163224697113037
2.904940128326416 -5.139793395996094 -2.4163224697113037
3.1055285930633545 -5.021140098571777 -2.4163224697113037
3.3012754917144775 -4.8946638107299805 -2.4163224697113037
3.3972387313842773 -4.828552722930908 -2.4163224697113037
3.585156202316284 -4.690715312957764 -2.4163224697113037
3.7674901485443115 -4.545566558837891 -2.4163224697113037
3.8564720153808594 -4.4703216552734375 -2.4163224697113037
3.943951368331909 -4.39333438873291 -2.4163224697113037
2.1386144161224365 -5.115289688110352 -2.4163224697113037
2.338829278945923 -5.026900768280029 -2.4163224697113037
2.535402774810791 -4.930678367614746 -2.4163224697113037
3.0088939666748047 -4.65686559677124 -2.4163224697113037
3.1002233028411865 -4.596571445465088 -2.4163224697113037
3.279217481613159 -4.470637321472168 -2.4163224697113037
3.366813898086548 -4.405044078826904 -2.4163224697113037
3.4531004428863525 -4.337735176086426 -2.4163224697113037
3.6216063499450684 -4.1980719566345215 -2.4163224697113037
1.725002408027649 -4.92688512802124 -2.4163224697113037
1.9181054830551147 -4.854966163635254 -2.4163224697113037
2.013552188873291 -4.816163539886475 -2.4163224697113037
2.387140989303589 -4.64234733581543 -2.4163224697113037
2.478304386138916 -4.594329833984375 -2.4163224697113037
2.568498373031616 -4.544519424438477 -2.4163224697113037
2.6576952934265137 -4.492939472198486 -2.4163224697113037
2.745854377746582 -4.439606666564941 -2.4163224697113037
2.83294415473938 -4.384546279907227 -2.4163224697113037
2.9189305305480957 -4.327778339385986 -2.4163224697113037
3.169934034347534 -4.1474504470825195 -2.4163224697113037
3.3311498165130615 -4.019112586975098 -2.4163224697113037
3.409827709197998 -3.9525816440582275 -2.4163224697113037
3.4871764183044434 -3.8845107555389404 -2.4163224697113037
1.7192553281784058 -4.616246700286865 -2.4163224697113037
2.1657323837280273 -4.424383640289307 -2.4163224697113037
2.4237756729125977 -4.288458347320557 -2.4163224697113037
3.067985773086548 -3.8539609909057617 -2.4163224697113037
3.143455743789673 -3.792656421661377 -2.4163224697113037
3.2906908988952637 -3.6656389236450195 -2.4163224697113037
1.539147973060608 -4.396049499511719 -2.4163224697113037
1.625612735748291 -4.364816665649414 -2.4163224697113037
1.796608805656433 -4.29725980758667 -2.4163224697113037
1.8810741901397705 -4.260962009429932 -2.4163224697113037
1.9648058414459229 -4.22300386428833 -2.4163224697113037
2.1299426555633545 -4.1421709060668945 -2.4163224697113037
2.3713488578796387 -4.008858680725098 -2.4163224697113037
2.4500110149383545 -3.961273193359375 -2.4163224697113037
2.5277159214019775 -3.9121453762054443 -2.4163224697113037
2.680145263671875 -3.809338331222534 -2.4163224697113037
2.8284008502960205 -3.7005913257598877 -2.4163224697113037
2.900881290435791 -3.644056558609009 -2.4163224697113037
2.972243547439575 -3.58608341217041 -2.4163224697113037
1.4578661918640137 -4.163895130157471 -2.4163224697113037
1.7017309665679932 -4.070321559906006 -2.4163224697113037
1.7817357778549194 -4.035941123962402 -2.4163224697113037
1.9396300315856934 -3.9624786376953125 -2.4163224697113037
2.017460823059082 -3.9234228134155273 -2.4163224697113037
2.0945067405700684 -3.8828396797180176 -2.4163224697113037
2.394228458404541 -3.7055461406707764 -2.4163224697113037
2.5386059284210205 -3.6081669330596924 -2.4163224697113037
2.6093273162841797 -3.5573604106903076 -2.4163224697113037
2.6790294647216797 -3.505167245864868 -2.4163224697113037
2.747690439224243 -3.451608419418335 -2.4163224697113037
2.88177227973938 -3.3404769897460938 -2.4163224697113037
2.9471423625946045 -3.282947301864624 -2.4163224697113037
3.0113658905029297 -3.2241392135620117 -2.4163224697113037
1.383004069328308 -3.9500811100006104 -2.4163224697113037
1.460699439048767 -3.9220166206359863 -2.4163224697113037
1.5378222465515137 -3.892422914505005 -2.4163224697113037
1.6143468618392944 -3.861311674118042 -2.4163224697113037
1.7654821872711182 -3.7945899963378906 -2.4163224697113037
1.9138647317886353 -3.721956491470337 -2.4163224697113037
1.9869433641433716 -3.6834683418273926 -2.4163224697113037
2.05926513671875 -3.643527030944824 -2.4163224697113037
2.201464891433716 -3.5594091415405273 -2.4163224697113037
2.2712926864624023 -3.5152621269226074 -2.4163224697113037
2.541459798812866 -3.3251826763153076 -2.4163224697113037
2.6065967082977295 -3.274369955062866 -2.4163224697113037
