ply
format ascii 1.0
element vertex 842
property float x
property float y
property float z
end_header
33.334197998046875 -3.6305902004241943 5.136812686920166
33.33421325683594 -1.5976465940475464 5.1124773025512695
33.33421325683594 -0.923350989818573 5.1085734367370605
33.33421325683594 -0.2498152107000351 5.106759071350098
33.33420944213867 1.7717636823654175 5.1138224601745605
33.33420944213867 2.447782278060913 5.120362281799316
33.33420944213867 3.12581729888916 5.129016399383545
33.33420181274414 5.177670955657959 5.167848587036133
33.33420181274414 5.869476795196533 5.185172080993652
33.334197998046875 6.56623649597168 5.204743385314941
33.294036865234375 7.967483997344971 5.244473934173584
33.294036865234375 8.682029724121094 5.271026611328125
27.821449279785156 7.858386039733887 4.4288506507873535
33.33419418334961 10.887125968933105 5.372076511383057
31.039657592773438 10.83626651763916 5.036543846130371
31.08561897277832 12.282066345214844 5.120372772216797
31.096513748168945 13.018463134765625 5.164432048797607
29.084901809692383 -25.22492218017578 5.01346492767334
29.114614486694336 -24.23786735534668 4.933177947998047
28.90357780456543 -23.089956283569336 4.817400932312012
29.094589233398438 -22.295013427734375 4.773197650909424
29.1146183013916 -20.498687744140625 4.636769771575928
29.110321044921875 -19.628427505493164 4.572004318237305
24.123939514160156 -13.571900367736816 3.6044671535491943
31.9221134185791 -16.298202514648438 4.66738224029541
33.334224700927734 -16.178909301757812 4.825076580047607
33.3342170715332 -15.35496711730957 4.779201507568359
33.3342170715332 -14.546201705932617 4.736105442047119
33.3342170715332 -13.751588821411133 4.695677757263184
33.33421325683594 -12.200814247131348 4.622435092926025
33.33421325683594 -11.442819595336914 4.589443206787109
33.33421325683594 -10.69525146484375 4.558767795562744
33.29404830932617 -7.784306526184082 4.452502727508545
33.29404830932617 -7.078291416168213 4.43247652053833
33.29404830932617 -6.378306865692139 4.414421081542969
33.29404830932617 -5.683727264404297 4.39829683303833
33.29404067993164 -4.993922710418701 4.384078502655029
33.29404067993164 -2.9471404552459717 4.352530479431152
33.29405212402344 -0.24951918423175812 4.335701942443848
33.29405212402344 0.4230070412158966 4.335929870605469
33.29405212402344 1.7696250677108765 4.341699123382568
33.29404830932617 2.444831132888794 4.347251892089844
33.29404830932617 4.484773635864258 4.374734878540039
27.82432746887207 4.899309158325195 3.6790502071380615
33.29404067993164 6.558324337005615 4.418891429901123
33.294036865234375 7.967483997344971 4.45799446105957
33.294036865234375 8.682034492492676 4.480563640594482
33.294036865234375 10.134567260742188 4.531989574432373
29.865985870361328 11.108193397521973 4.149469375610352
30.63809585571289 12.826544761657715 4.325240612030029
31.04833984375 13.741730690002441 4.421442031860352
28.375682830810547 -24.60982894897461 4.033358097076416
28.37777328491211 -21.7457218170166 3.8390660285949707
28.37777328491211 -20.849700927734375 3.781313896179199
28.658681869506836 -19.323896408081055 3.7116405963897705
30.378618240356445 -17.907947540283203 3.7867181301116943
30.958358764648438 -16.602785110473633 3.7722527980804443
32.84815216064453 -13.551054000854492 3.8156535625457764
33.2940559387207 -12.186115264892578 3.80712628364563
33.2940559387207 -11.429030418395996 3.779954671859741
36.48776626586914 -10.899311065673828 4.089190483093262
36.48777389526367 -10.10125732421875 4.06549072265625
36.48777389526367 -9.312074661254883 4.043707370758057
36.48777389526367 -8.530996322631836 4.023786544799805
36.48777770996094 -6.228921890258789 3.974804639816284
36.4877815246582 -5.472949504852295 3.9619529247283936
36.4877815246582 -4.721531391143799 3.9507896900177
36.487789154052734 -3.2298295497894287 3.9334428310394287
35.71759033203125 -2.435774087905884 3.844324827194214
36.48776626586914 -1.0106879472732544 3.919623851776123
36.48777389526367 -0.27343764901161194 3.9182305335998535
36.48723602294922 0.46359267830848694 3.9183788299560547
36.4877815246582 4.914993762969971 3.9535093307495117
36.4877815246582 6.424776554107666 3.978398323059082
27.78196144104004 7.244666576385498 3.0830414295196533
27.82145118713379 7.858386039733887 3.10440731048584
34.355106353759766 10.457562446594238 3.8562371730804443
34.355106353759766 11.220573425292969 3.8808887004852295
31.260517120361328 11.62686824798584 3.5814738273620605
28.32158660888672 -23.577674865722656 3.11956524848938
28.37777328491211 -22.66990852355957 3.07468318939209
29.94624900817871 -19.323898315429688 3.017002582550049
30.234622955322266 -18.656005859375 3.007471799850464
30.544477462768555 -16.380823135375977 2.9340429306030273
31.721670150756836 -16.19585609436035 3.0150773525238037
32.38992691040039 -14.919970512390137 3.0188090801239014
39.47580337524414 -13.551055908203125 3.5331456661224365
35.8685188293457 9.353392601013184 3.1379101276397705
34.35511016845703 11.220573425292969 3.059438943862915
31.84763526916504 11.118343353271484 2.8555591106414795
31.259111404418945 11.626344680786133 2.823273181915283
30.608999252319336 13.547282218933105 2.8335795402526855
28.32158660888672 -23.577674865722656 2.285161256790161
28.37777328491211 -22.669912338256836 2.252283811569214
28.37777328491211 -20.849700927734375 2.1836159229278564
28.377777099609375 -19.979900360107422 2.1521196365356445
29.94624900817871 -19.323898315429688 2.210031032562256
31.317035675048828 -19.32390022277832 2.2819201946258545
30.93083953857422 -17.401397705078125 2.2007319927215576
32.38992691040039 -16.537046432495117 2.255148410797119
32.38992691040039 -14.919962882995605 2.2113547325134277
32.38992691040039 -14.134116172790527 2.191413640975952
32.84815979003906 -13.551054000854492 2.2034454345703125
34.72918701171875 -13.51286792755127 2.310842752456665
38.88996505737305 9.306640625 2.479671001434326
31.735204696655273 11.079092979431152 2.0843851566314697
30.574291229248047 12.080037117004395 2.0385451316833496
28.29745101928711 -24.541982650756836 1.4769816398620605
28.297454833984375 -23.557586669921875 1.4518457651138306
28.297454833984375 -20.790685653686523 1.3845844268798828
28.297460556030273 -19.923349380493164 1.3646143674850464
31.31702995300293 -19.32390022277832 1.4510231018066406
31.18197250366211 -17.542682647705078 1.4107606410980225
31.9180850982666 -17.117481231689453 1.4281278848648071
32.38992691040039 -16.537046432495117 1.43399977684021
32.38992691040039 -14.91996955871582 1.4061524868011475
32.65347671508789 -13.470742225646973 1.3928190469741821
36.80387496948242 -13.470742225646973 1.545366644859314
39.241844177246094 -13.470742225646973 1.6359748840332031
42.581912994384766 9.285042762756348 1.7184993028640747
38.74967575073242 9.27306842803955 1.5710804462432861
34.35511016845703 11.993732452392578 1.4348353147506714
31.393089294433594 11.676177978515625 1.3207097053527832
31.192934036254883 12.324467658996582 1.3224918842315674
34.17654037475586 15.12624740600586 1.4737064838409424
28.297454833984375 -24.54197883605957 0.6327210664749146
28.297454833984375 -23.557586669921875 0.6219538450241089
28.297460556030273 -22.60575294494629 0.6117914915084839
28.297460556030273 -21.684171676635742 0.6021980047225952
28.297460556030273 -20.790687561035156 0.5931388735771179
31.317020416259766 -19.32390022277832 0.6216008067131042
32.38992691040039 -15.720573425292969 0.6081611514091492
38.74967575073242 9.27306842803955 0.6730323433876038
35.560543060302734 9.273080825805664 0.6207679510116577
27.821441650390625 7.858387470245361 0.4883427321910858
34.35434341430664 10.4573335647583 0.606594979763031
34.35435485839844 11.9934663772583 0.6146528720855713
34.35435485839844 12.777575492858887 0.6191447377204895
30.990814208984375 12.244610786437988 0.5628697276115417
28.650121688842773 -23.851181030273438 -0.20988692343235016
28.650121688842773 -22.88747787475586 -0.20645736157894135
28.650121688842773 -21.95442008972168 -0.20322005450725555
28.650121688842773 -21.04979705810547 -0.20016264915466309
28.297460556030273 -19.923349380493164 -0.19484755396842957
29.946245193481445 -19.323896408081055 -0.20065855979919434
32.38992691040039 -19.093597412109375 -0.211689755320549
31.055482864379883 -17.471525192260742 -0.2006196528673172
32.38992691040039 -17.370529174804688 -0.20693008601665497
32.38992691040039 -14.134122848510742 -0.19896835088729858
32.65347671508789 -13.470742225646973 -0.19887496531009674
36.33848571777344 -14.139033317565918 -0.21953414380550385
39.24182891845703 -13.470742225646973 -0.23359832167625427
42.85867691040039 9.345390319824219 -0.24697478115558624
41.542236328125 9.941347122192383 -0.24049483239650726
36.34897994995117 9.478680610656738 -0.21149611473083496
27.821447372436523 7.858386039733887 -0.16276687383651733
34.35434341430664 10.45733642578125 -0.2021842896938324
34.35435485839844 11.993464469909668 -0.2048698365688324
34.35435485839844 12.777576446533203 -0.20636703073978424
34.354366302490234 14.382351875305176 -0.2096879482269287
34.17653274536133 15.126246452331543 -0.21042495965957642
28.650115966796875 -24.84784698486328 -1.0678602457046509
28.650121688842773 -21.954418182373047 -1.0163450241088867
28.650121688842773 -21.04979705810547 -1.0010560750961304
28.297460556030273 -19.923351287841797 -0.9744724631309509
28.658681869506836 -19.323896408081055 -0.9732704162597656
31.31702995300293 -19.32390022277832 -1.036178469657898
32.38992691040039 -19.093597412109375 -1.0586994886398315
30.99825096130371 -17.4393253326416 -1.0014909505844116
32.38992691040039 -16.537046432495117 -1.0240229368209839
32.38992691040039 -15.720576286315918 -1.0137745141983032
32.38992691040039 -14.919971466064453 -1.0041364431381226
32.38992691040039 -14.13412094116211 -0.9950813055038452
32.65347671508789 -13.470742225646973 -0.9946150183677673
36.33848190307617 -14.139033317565918 -1.0979349613189697
38.629730224609375 -14.139033317565918 -1.158296823501587
41.54224395751953 9.941347122192383 -1.2027642726898193
36.34897994995117 9.478681564331055 -1.0577317476272583
34.35434341430664 10.457334518432617 -1.0111640691757202
34.35435485839844 11.993462562561035 -1.0245957374572754
28.650115966796875 -24.847848892211914 -1.9232980012893677
28.650121688842773 -21.954418182373047 -1.8305153846740723
28.650121688842773 -21.04979705810547 -1.802978515625
28.297460556030273 -19.923349380493164 -1.7550994157791138
29.946245193481445 -19.323896408081055 -1.8074431419372559
32.38992691040039 -17.370529174804688 -1.8639440536499023
32.38992691040039 -16.53704833984375 -1.844342589378357
32.65348434448242 -13.470742225646973 -1.7913634777069092
36.33847427368164 -14.139033317565918 -1.9774655103683472
38.62974166870117 -14.139031410217285 -2.0861809253692627
39.24184036254883 -13.470742225646973 -2.1041016578674316
42.33824157714844 -13.584168434143066 -2.25496506690979
42.575035095214844 -12.7176513671875 -2.2534334659576416
42.99467086791992 -10.972719192504883 -2.2503345012664795
44.45506286621094 -10.393792152404785 -2.3153083324432373
46.32872009277344 -9.849407196044922 -2.4020309448242188
46.518070220947266 -8.91168212890625 -2.4020309448242188
46.84001922607422 -7.025731563568115 -2.4020309448242188
47.08555603027344 -5.128300666809082 -2.4020309448242188
47.17953109741211 -4.176246166229248 -2.4020309448242188
47.30984115600586 -2.2674460411071777 -2.4020309448242188
47.33837890625 1.558153510093689 -2.4020309448242188
19.93123435974121 2.6847856044769287 -1.0199270248413086
19.891395568847656 3.08965802192688 -1.0208741426467896
20.01445960998535 3.524148464202881 -1.030633568763733
42.85867691040039 9.345391273498535 -2.2246174812316895
41.542240142822266 9.941347122192383 -2.166271209716797
36.34897994995117 9.478681564331055 -1.9050589799880981
34.35434341430664 10.457334518432617 -1.8211843967437744
34.35435485839844 11.993462562561035 -1.8453757762908936
34.35435485839844 12.777576446533203 -1.858862280845642
30.513784408569336 12.774506568908691 -1.677622675895691
24.661535263061523 -21.388601303100586 -2.3935651779174805
24.65370750427246 -19.694896697998047 -2.3136532306671143
24.64973258972168 -18.888931274414062 -2.277005672454834
24.725170135498047 -18.16605567932129 -2.2496156692504883
25.089908599853516 -17.665016174316406 -2.2498743534088135
27.03838539123535 -14.500528335571289 -2.2496156692504883
27.601932525634766 -13.396690368652344 -2.2496163845062256
28.36273956298828 -11.700658798217773 -2.249628782272339
28.593299865722656 -11.125484466552734 -2.2496304512023926
28.81216812133789 -10.545660972595215 -2.249630928039551
31.19369125366211 -10.008453369140625 -2.4020309448242188
31.389461517333984 -9.376394271850586 -2.4020309448242188
31.899686813354492 -7.458273887634277 -2.4020309448242188
32.39754867553711 -4.859442710876465 -2.4020309448242188
32.48908996582031 -4.204102516174316 -2.4020309448242188
32.5673713684082 -3.547060251235962 -2.4020309448242188
32.68405532836914 -2.228889226913452 -2.4020309448242188
32.747406005859375 -0.9070841670036316 -2.4020309448242188
32.75904846191406 -0.24549682438373566 -2.4020309448242188
32.672000885009766 2.3991665840148926 -2.4020309448242188
22.274200439453125 2.0887084007263184 -1.6403573751449585
19.312030792236328 2.2052481174468994 -1.425201416015625
19.015880584716797 2.56148362159729 -1.4068777561187744
18.92864227294922 2.940117120742798 -1.4045311212539673
18.97633171081543 3.3413543701171875 -1.4127901792526245
19.33106803894043 3.8078789710998535 -1.4446334838867188
29.73838233947754 7.754843711853027 -2.2533998489379883
29.351619720458984 8.934523582458496 -2.2496204376220703
28.966815948486328 10.11262035369873 -2.2496185302734375
28.756654739379883 10.695600509643555 -2.2496178150177
28.534765243530273 11.274215698242188 -2.249617338180542
28.30122947692871 11.848227500915527 -2.2496166229248047
18.90130615234375 -16.39283561706543 -2.4020156860351562
19.228546142578125 -16.007736206054688 -2.4020156860351562
19.547941207885742 -15.616098403930664 -2.4020156860351562
19.859375 -15.218122482299805 -2.4020156860351562
20.457746505737305 -14.40365219116211 -2.4020156860351562
20.74458122253418 -13.98753547668457 -2.4020156860351562
21.022794723510742 -13.56569766998291 -2.4020156860351562
21.805721282958984 -12.267682075500488 -2.4020161628723145
22.283214569091797 -11.377028465270996 -2.402017831802368
22.50861930847168 -10.924642562866211 -2.402017831802368
23.128883361816406 -9.54150104522705 -2.402017593383789
23.31687355041504 -9.072420120239258 -2.402017593383789
23.823488235473633 -7.643730163574219 -2.40201735496521
23.97300910949707 -7.1610107421875 -2.40201735496521
24.242652893066406 -6.186986446380615 -2.40201735496521
24.4727725982666 -5.202881336212158 -2.40201735496521
24.662931442260742 -4.210268020629883 -2.402017116546631
24.872610092163086 -2.7089874744415283 -2.402017116546631
24.96172523498535 -1.7022651433944702 -2.402017116546631
25.017677307128906 0.3178633153438568 -2.402017116546631
25.00615882873535 0.8230833411216736 -2.40201735496521
24.952543258666992 1.8323124647140503 -2.40201735496521
22.333419799804688 2.094261884689331 -2.1535277366638184
19.145536422729492 2.1862361431121826 -1.8500109910964966
18.885583877563477 2.9334282875061035 -1.8348525762557983
24.33265495300293 5.822973728179932 -2.4020166397094727
24.077638626098633 6.800919532775879 -2.4020166397094727
23.93536376953125 7.285834312438965 -2.4020161628723145
23.621583938598633 8.246541976928711 -2.4020156860351562
23.45022201538086 8.721938133239746 -2.4020156860351562
15.276412963867188 -13.249003410339355 -2.4020156860351562
15.540861129760742 -12.937758445739746 -2.4020159244537354
16.295856475830078 -11.972884178161621 -2.402017593383789
16.76612663269043 -11.305010795593262 -2.40201997756958
16.99102210998535 -10.964072227478027 -2.40201997756958
17.820472717285156 -9.557015419006348 -2.402019739151001
18.84516143798828 -7.332510948181152 -2.4020192623138428
18.989410400390625 -6.9503936767578125 -2.4020192623138428
19.860248565673828 -3.804718017578125 -2.4020190238952637
19.933046340942383 -3.4028255939483643 -2.4020190238952637
19.997709274291992 -2.9995405673980713 -2.4020190238952637
20.142656326293945 -1.7829920053482056 -2.4020190238952637
20.174556732177734 -1.3758044242858887 -2.4020190238952637
20.19822883605957 -0.9680555462837219 -2.4020190238952637
20.210468292236328 0.6652323603630066 -2.4020190238952637
20.192909240722656 1.0732898712158203 -2.4020190238952637
20.1671142578125 1.480908989906311 -2.4020187854766846
19.666540145874023 2.245729684829712 -2.3512892723083496
19.981807708740234 3.1037003993988037 -2.4020187854766846
19.91504669189453 3.5066423416137695 -2.4020187854766846
19.75717544555664 4.308077812194824 -2.4020187854766846
19.666133880615234 4.70624303817749 -2.4020190238952637
19.56707191467285 5.102480888366699 -2.4020190238952637
19.460025787353516 5.496638298034668 -2.4020190238952637
19.34503936767578 5.888557434082031 -2.4020190238952637
19.222164154052734 6.278067588806152 -2.4020190238952637
19.091442108154297 6.665019989013672 -2.4020190238952637
18.952917098999023 7.049252986907959 -2.4020187854766846
18.49124526977539 8.18406867980957 -2.402017831802368
13.028796195983887 -10.846454620361328 -2.4020214080810547
13.24521255493164 -10.581090927124023 -2.4020214080810547
13.456212997436523 -10.311420440673828 -2.4020211696624756
13.661730766296387 -10.037535667419434 -2.4020211696624756
13.861672401428223 -9.759565353393555 -2.4020211696624756
14.427252769470215 -8.90221118927002 -2.4020209312438965
14.93988037109375 -8.01216983795166 -2.4020209312438965
15.09865951538086 -7.708791732788086 -2.4020209312438965
15.251274108886719 -7.402263641357422 -2.4020206928253174
15.397665977478027 -7.092723369598389 -2.4020206928253174
15.5377779006958 -6.780283451080322 -2.4020206928253174
15.798930168151855 -6.147246360778809 -2.4020204544067383
16.14219856262207 -5.179202556610107 -2.4020204544067383
16.243511199951172 -4.852122783660889 -2.4020204544067383
16.426219940185547 -4.192150592803955 -2.4020204544067383
16.507535934448242 -3.8595340251922607 -2.4020204544067383
16.58211898803711 -3.525341033935547 -2.4020204544067383
16.812406539916992 -2.175693988800049 -2.4020206928253174
16.853063583374023 -1.8355425596237183 -2.4020204544067383
16.886699676513672 -1.4947795867919922 -2.4020204544067383
16.94355010986328 0.5577009320259094 -2.4020204544067383
16.87867546081543 1.5827555656433105 -2.4020204544067383
16.843265533447266 1.923338770866394 -2.4020204544067383
16.751850128173828 2.6020026206970215 -2.4020204544067383
16.695878982543945 2.939811944961548 -2.4020204544067383
16.633094787597656 3.27642560005188 -2.4020204544067383
16.563528060913086 3.6116998195648193 -2.4020204544067383
16.48720359802246 3.945502758026123 -2.4020204544067383
16.11499786376953 5.26324987411499 -2.4020206928253174
16.00540542602539 5.587655544281006 -2.4020209312438965
15.76668643951416 6.229488849639893 -2.4020209312438965
15.502243041992188 6.861161231994629 -2.4020209312438965
11.015138626098633 -9.553277015686035 -2.402022361755371
11.391980171203613 -9.100614547729492 -2.402022123336792
11.57345962524414 -8.868674278259277 -2.402022123336792
11.750222206115723 -8.633115768432617 -2.402022123336792
12.560742378234863 -7.40445613861084 -2.402021646499634
12.849533081054688 -6.8911309242248535 -2.402021646499634
13.243268966674805 -6.1003289222717285 -2.402021646499634
13.36391830444336 -5.831473350524902 -2.402021646499634
13.478837966918945 -5.56050968170166 -2.402022361755371
13.69237232208252 -5.011650085449219 -2.402022123336792
14.05221176147461 -3.8902080059051514 -2.402022123336792
14.262006759643555 -3.0320851802825928 -2.402021884918213
14.32033634185791 -2.7434115409851074 -2.402021884918213
14.419447898864746 -2.162835121154785 -2.402021646499634
14.523962020874023 -1.285634160041809 -2.402021646499634
14.564035415649414 -0.6980215311050415 -2.402021646499634
14.57516098022461 -0.4037208557128906 -2.402021646499634
14.580341339111328 -0.10926482826471329 -2.402021646499634
14.560197830200195 0.77390056848526 -2.402021646499634
14.541598320007324 1.0678168535232544 -2.402021646499634
14.517065048217773 1.3613014221191406 -2.402021646499634
14.48660659790039 1.6542301177978516 -2.402021646499634
14.45024585723877 1.9464805126190186 -2.402021646499634
14.40798282623291 2.23793888092041 -2.402021646499634
14.359846115112305 2.528481960296631 -2.402021646499634
14.3058443069458 2.8179986476898193 -2.402021646499634
14.246010780334473 3.106360912322998 -2.402021646499634
14.108932495117188 3.6791698932647705 -2.402021646499634
14.031749725341797 3.96337890625 -2.402021646499634
13.948837280273438 4.245974540710449 -2.402021884918213
13.76598072052002 4.805849075317383 -2.402021884918213
13.560661315917969 5.357877731323242 -2.402022123336792
13.33321762084961 5.9011688232421875 -2.402022123336792
9.654287338256836 -8.373016357421875 -2.402024269104004
9.821428298950195 -8.176321983337402 -2.402024269104004
10.298554420471191 -7.566544055938721 -2.402024030685425
10.449264526367188 -7.356996059417725 -2.4020237922668457
10.595725059509277 -7.14445161819458 -2.4020237922668457
11.008933067321777 -6.489676475524902 -2.4020235538482666
11.381732940673828 -5.811075210571289 -2.4020233154296875
11.60714054107666 -5.346662998199463 -2.4020233154296875
11.71275806427002 -5.111143112182617 -2.4020233154296875
11.909616470336914 -4.633943557739258 -2.4020230770111084
12.0007905960083 -4.392458438873291 -2.4020230770111084
12.087048530578613 -4.149177074432373 -2.4020228385925293
12.168388366699219 -3.904204845428467 -2.4020228385925293
12.244755744934082 -3.6576476097106934 -2.4020228385925293
12.316132545471191 -3.4095919132232666 -2.4020228385925293
12.382485389709473 -3.160142183303833 -2.4020228385925293
12.443788528442383 -2.909412145614624 -2.4020228385925293
12.500014305114746 -2.657489061355591 -2.4020228385925293
12.551132202148438 -2.4044783115386963 -2.4020228385925293
12.597143173217773 -2.150489091873169 -2.40202260017395
12.70424747467041 -1.3836770057678223 -2.40202260017395
12.729598999023438 -1.1268043518066406 -2.40202260017395
12.778348922729492 0.16235244274139404 -2.40202260017395
12.761362075805664 0.6782886981964111 -2.40202260017395
12.723556518554688 1.1931211948394775 -2.40202260017395
12.69686508178711 1.4498579502105713 -2.40202260017395
12.664990425109863 1.7060014009475708 -2.40202260017395
12.585761070251465 2.2161004543304443 -2.40202260017395
12.48598861694336 2.722585439682007 -2.40202260017395
12.365846633911133 3.2246270179748535 -2.40202260017395
12.298197746276855 3.4737231731414795 -2.40202260017395
12.225529670715332 3.721405506134033 -2.4020228385925293
12.065260887145996 4.212110996246338 -2.4020228385925293
11.977726936340332 4.454936981201172 -2.4020228385925293
11.788042068481445 4.935029983520508 -2.4020228385925293
11.685969352722168 5.1721110343933105 -2.4020228385925293
9.019804954528809 -6.91181755065918 -2.402024745941162
9.548202514648438 -6.161320686340332 -2.402024269104004
9.7892427444458 -5.770678520202637 -2.402024269104004
9.903803825378418 -5.571779251098633 -2.402024269104004
10.01431655883789 -5.370616436004639 -2.402024269104004
10.120741844177246 -5.167258262634277 -2.402024030685425
10.223044395446777 -4.961790084838867 -2.402024030685425
10.321171760559082 -4.75430154800415 -2.4020237922668457
10.415092468261719 -4.5448713302612305 -2.4020237922668457
10.5047607421875 -4.333592414855957 -2.4020237922668457
10.671208381652832 -3.9058077335357666 -2.4020237922668457
10.747915267944336 -3.689486265182495 -2.4020237922668457
10.820239067077637 -3.471656084060669 -2.4020237922668457
10.88814926147461 -3.252413272857666 -2.4020235538482666
10.951616287231445 -3.0318400859832764 -2.4020235538482666
11.0106201171875 -2.8100290298461914 -2.4020235538482666
11.065126419067383 -2.587073564529419 -2.4020235538482666
11.115118980407715 -2.3630616664886475 -2.4020233154296875
11.1605806350708 -2.13808536529541 -2.4020233154296875
11.269575119018555 -1.4582858085632324 -2.4020233154296875
11.296732902526855 -1.2303762435913086 -2.4020233154296875
11.319276809692383 -1.001961350440979 -2.4020233154296875
11.350507736206055 -0.5440029501914978 -2.4020233154296875
11.35738468170166 0.373829185962677 -2.4020233154296875
11.347517013549805 0.6031413078308105 -2.4020233154296875
11.333022117614746 0.832205057144165 -2.4020233154296875
11.3139009475708 1.0609339475631714 -2.4020233154296875
11.290165901184082 1.2892277240753174 -2.4020233154296875
11.261825561523438 1.5169956684112549 -2.4020233154296875
11.228888511657715 1.7441425323486328 -2.4020233154296875
11.19136905670166 1.9705759286880493 -2.4020233154296875
11.149287223815918 2.1962125301361084 -2.4020233154296875
11.102656364440918 2.4209489822387695 -2.4020233154296875
11.051491737365723 2.6446990966796875 -2.4020233154296875
10.99582290649414 2.867368698120117 -2.4020233154296875
10.93566608428955 3.0888659954071045 -2.4020233154296875
10.871051788330078 3.3091070652008057 -2.4020233154296875
10.650702476501465 3.9613664150238037 -2.4020235538482666
10.482033729553223 4.388271808624268 -2.4020235538482666
10.39126205444336 4.599086284637451 -2.4020235538482666
7.72106409072876 -6.6963725090026855 -2.4020256996154785
7.854741096496582 -6.539059162139893 -2.4020252227783203
7.985212326049805 -6.3790788650512695 -2.402024984359741
8.112419128417969 -6.216501712799072 -2.402024984359741
8.236318588256836 -6.051387310028076 -2.402024984359741
8.356857299804688 -5.883804798126221 -2.402024984359741
8.804457664489746 -5.190155982971191 -2.402024745941162
8.907489776611328 -5.011268615722656 -2.402024745941162
9.006887435913086 -4.830338478088379 -2.402024745941162
9.367345809936523 -4.087671756744385 -2.402024269104004
9.597697257995605 -3.512894868850708 -2.402024269104004
9.66668701171875 -3.3183326721191406 -2.402024269104004
9.792814254760742 -2.925226926803589 -2.402024269104004
9.849894523620605 -2.7268474102020264 -2.402024269104004
10.03783893585205 -1.922995924949646 -2.402024030685425
10.107312202453613 -1.5160377025604248 -2.402024030685425
10.135870933532715 -1.3115863800048828 -2.4020237922668457
10.160292625427246 -1.106605052947998 -2.4020237922668457
10.196694374084473 -0.6953640580177307 -2.4020237922668457
10.216459274291992 -0.2829910218715668 -2.4020237922668457
10.219552993774414 0.12984542548656464 -2.4020237922668457
10.19293212890625 0.7484867572784424 -2.4020237922668457
10.175737380981445 0.9542048573493958 -2.4020237922668457
10.154389381408691 1.1595323085784912 -2.4020237922668457
10.09927749633789 1.5686832666397095 -2.4020237922668457
9.835554122924805 2.778130531311035 -2.402024030685425
9.71532917022705 3.173084020614624 -2.402024030685425
9.50534439086914 3.7556042671203613 -2.402024269104004
9.427553176879883 3.946817636489868 -2.402024269104004
9.345915794372559 4.136423110961914 -2.402024269104004
7.129859447479248 -5.935567378997803 -2.402029275894165
7.248287200927734 -5.790586471557617 -2.402028799057007
7.476222991943359 -5.492903709411621 -2.4020273685455322
7.69195032119751 -5.186506748199463 -2.4020259380340576
7.795136451721191 -5.030093669891357 -2.4020252227783203
7.895133972167969 -4.87162446975708 -2.402024984359741
8.08544635772705 -4.548794269561768 -2.402024984359741
8.175668716430664 -4.3845648765563965 -2.402024984359741
8.262557983398438 -4.218543529510498 -2.402024984359741
8.346074104309082 -4.050803184509277 -2.402024984359741
8.774577140808105 -3.0120975971221924 -2.402024745941162
8.833620071411133 -2.8342607021331787 -2.402024745941162
8.88906192779541 -2.6552646160125732 -2.402024745941162
8.989043235778809 -2.2940969467163086 -2.402024507522583
9.033549308776855 -2.112079620361328 -2.402024507522583
9.11147403717041 -1.745524287223816 -2.402024507522583
9.222626686096191 -1.0044803619384766 -2.402024269104004
9.266528129577637 -0.444119393825531 -2.402024269104004
9.273615837097168 -0.256876677274704 -2.402024269104004
9.276908874511719 -0.06951904296875 -2.402024269104004
9.276420593261719 0.11786544322967529 -2.402024269104004
9.272143363952637 0.3052000403404236 -2.402024269104004
9.25225830078125 0.679411768913269 -2.402024269104004
9.236645698547363 0.866142988204956 -2.402024269104004
9.194128036499023 1.2384699583053589 -2.402024269104004
9.167241096496582 1.4239137172698975 -2.402024269104004
9.136610984802246 1.6087745428085327 -2.402024269104004
9.064184188842773 1.9764569997787476 -2.402024269104004
9.022417068481445 2.1591267585754395 -2.402024269104004
8.976972579956055 2.340913772583008 -2.402024507522583
8.875102043151855 2.7015490531921387 -2.402024507522583
8.758757591247559 3.057774066925049 -2.402024507522583
8.695209503173828 3.234055757522583 -2.402024507522583
8.628119468688965 3.409015417098999 -2.402024745941162
6.410019397735596 -5.559319496154785 -2.4020309448242188
6.629321098327637 -5.295864105224609 -2.4020307064056396
6.734927654266357 -5.160934925079346 -2.4020304679870605
6.837788105010986 -5.023831844329834 -2.4020302295684814
7.035097599029541 -4.743605136871338 -2.402029514312744
7.477498531341553 -4.010138988494873 -2.4020273685455322
7.556972503662109 -3.858229875564575 -2.402026891708374
7.706623554229736 -3.54995059967041 -2.4020256996154785
7.843703269958496 -3.2358148097991943 -2.402024984359741
7.907448768615723 -3.0767300128936768 -2.402024984359741
8.414770126342773 -1.0888729095458984 -2.402024745941162
8.465275764465332 -0.5772849917411804 -2.402024745941162
8.475207328796387 -0.4061930775642395 -2.402024745941162
8.480337142944336 0.2791334390640259 -2.402024745941162
8.462153434753418 0.6213945150375366 -2.402024745941162
8.384389877319336 1.3023152351379395 -2.402024745941162
8.356376647949219 1.4713929891586304 -2.402024745941162
8.324963569641113 1.6398762464523315 -2.402024745941162
8.290143966674805 1.8076783418655396 -2.402024745941162
8.210375785827637 2.1410107612609863 -2.402024745941162
8.165458679199219 2.3063981533050537 -2.402024745941162
8.117201805114746 2.47084641456604 -2.402024745941162
8.065642356872559 2.6342926025390625 -2.402024984359741
8.010790824890137 2.796657085418701 -2.402024984359741
7.891308307647705 3.117893695831299 -2.402024984359741
7.826728343963623 3.2766363620758057 -2.402024984359741
6.101573467254639 -4.874311923980713 -2.4020309448242188
6.198774337768555 -4.750043869018555 -2.4020309448242188
6.561912536621094 -4.234347343444824 -2.4020307064056396
6.727565765380859 -3.965845823287964 -2.4020304679870605
6.806292533874512 -3.8291287422180176 -2.4020302295684814
6.955384254455566 -3.5511207580566406 -2.4020297527313232
7.025688171386719 -3.4099481105804443 -2.4020297527313232
7.093124866485596 -3.267319679260254 -2.402029275894165
7.157670974731445 -3.123466730117798 -2.402029037475586
7.21929407119751 -2.978299379348755 -2.402028799057007
7.277973651885986 -2.8317108154296875 -2.4020285606384277
7.333682537078857 -2.684131622314453 -2.4020280838012695
7.436100959777832 -2.3858625888824463 -2.4020276069641113
7.482770919799805 -2.2351889610290527 -2.4020273685455322
7.526386737823486 -2.0836031436920166 -2.402027130126953
7.566936016082764 -1.9312608242034912 -2.402026653289795
7.604396820068359 -1.7779406309127808 -2.402026414871216
7.638749599456787 -1.623990774154663 -2.402026414871216
7.744897365570068 -1.0021933317184448 -2.4020254611968994
7.779055118560791 -0.6885882616043091 -2.402024984359741
7.791374206542969 -0.531531810760498 -2.402024984359741
7.800517559051514 -0.3738746643066406 -2.402024984359741
7.806474208831787 -0.2162141352891922 -2.402024984359741
7.798464298248291 0.4144151210784912 -2.402024984359741
7.775361061096191 0.7291154265403748 -2.4020252227783203
7.759047508239746 0.8860084414482117 -2.4020252227783203
7.6622314453125 1.5093241930007935 -2.4020259380340576
7.59502649307251 1.8175431489944458 -2.402026653289795
7.515429496765137 2.1227924823760986 -2.402027130126953
7.47102165222168 2.274151086807251 -2.4020273685455322
7.42356538772583 2.4245805740356445 -2.4020276069641113
7.373084545135498 2.5740208625793457 -2.4020280838012695
7.319591999053955 2.7224156856536865 -2.4020283222198486
7.26311731338501 2.86968994140625 -2.4020285606384277
7.203677654266357 3.015798807144165 -2.402028799057007
7.141298770904541 3.1606786251068115 -2.402029037475586
5.459091663360596 -4.734586715698242 -2.4020309448242188
5.735793113708496 -4.395344257354736 -2.4020309448242188
6.071808815002441 -3.9180543422698975 -2.4020309448242188
6.149704456329346 -3.7946324348449707 -2.4020309448242188
6.225091457366943 -3.6696488857269287 -2.4020309448242188
6.297939300537109 -3.543120861053467 -2.4020309448242188
6.368215084075928 -3.415238380432129 -2.4020309448242188
6.563350677490234 -3.023284912109375 -2.4020307064056396
6.680093765258789 -2.7558071613311768 -2.4020304679870605
6.734392166137695 -2.6203103065490723 -2.4020304679870605
6.785941123962402 -2.483750820159912 -2.4020302295684814
6.834720134735107 -2.346188545227051 -2.4020302295684814
6.880712509155273 -2.2076668739318848 -2.4020302295684814
6.923897743225098 -2.068247079849243 -2.4020299911499023
6.964257717132568 -1.9280136823654175 -2.4020297527313232
7.001774787902832 -1.7869906425476074 -2.4020297527313232
7.123149394989014 -1.2160117626190186 -2.402029275894165
7.146258354187012 -1.0718966722488403 -2.402029037475586
7.166448593139648 -0.9273417592048645 -2.402029037475586
7.183714389801025 -0.7824105620384216 -2.402029037475586
7.209455490112305 -0.4915824830532074 -2.402028799057007
7.206794261932373 0.5291178822517395 -2.402028799057007
7.194633483886719 0.674659252166748 -2.402028799057007
7.179542064666748 0.8195030093193054 -2.402029037475586
7.140574932098389 1.1091194152832031 -2.402029275894165
7.116714954376221 1.253112554550171 -2.402029275894165
7.089957237243652 1.3965965509414673 -2.402029275894165
7.060301303863525 1.539507508277893 -2.402029275894165
6.992368221282959 1.8233424425125122 -2.4020297527313232
6.869114875793457 2.24349308013916 -2.4020299911499023
6.822399616241455 2.381770372390747 -2.4020302295684814
6.665645599365234 2.790552854537964 -2.4020304679870605
5.07436990737915 -4.400904655456543 -2.4020309448242188
5.162223815917969 -4.297525405883789 -2.4020309448242188
5.413002967834473 -3.977062225341797 -2.4020309448242188
5.492224216461182 -3.866879463195801 -2.4020309448242188
5.569202899932861 -3.75518798828125 -2.4020309448242188
5.643910884857178 -3.6419811248779297 -2.4020309448242188
5.78639030456543 -3.4110188484191895 -2.4020309448242188
6.042808532714844 -2.9328579902648926 -2.4020309448242188
6.156328201293945 -2.686467170715332 -2.4020309448242188
6.259799480438232 -2.4356939792633057 -2.4020309448242188
6.307715892791748 -2.308732032775879 -2.4020309448242188
6.395809173583984 -2.052086114883423 -2.4020309448242188
6.435950756072998 -1.9224915504455566 -2.4020309448242188
6.508342266082764 -1.6609997749328613 -2.4020307064056396
6.570113182067871 -1.3967987298965454 -2.4020307064056396
6.642641544342041 -0.9964407086372375 -2.4020304679870605
6.677462100982666 -0.7272729277610779 -2.4020304679870605
6.690789699554443 -0.5922430157661438 -2.4020304679870605
6.714375972747803 -0.18595901131629944 -2.4020304679870605
6.716762542724609 -0.050335388630628586 -2.4020304679870605
6.562746524810791 1.4310154914855957 -2.4020307064056396
6.499598026275635 1.694892406463623 -2.4020307064056396
6.385027885437012 2.0853874683380127 -2.4020309448242188
6.34160852432251 2.213879108428955 -2.4020309448242188
6.295599460601807 2.3415515422821045 -2.4020309448242188
6.247025012969971 2.468226909637451 -2.4020309448242188
4.735249042510986 -4.106813430786133 -2.4020309448242188
4.975261211395264 -3.812504291534424 -2.4020309448242188
5.051248550415039 -3.7112388610839844 -2.4020309448242188
5.125173091888428 -3.608452081680298 -2.4020309448242188
5.19700813293457 -3.504204034805298 -2.4020309448242188
5.2667236328125 -3.398526430130005 -2.4020309448242188
5.63896369934082 -2.7369308471679688 -2.4020309448242188
5.693090915679932 -2.622433662414551 -2.4020309448242188
5.794355392456055 -2.3904881477355957 -2.4020309448242188
5.886167049407959 -2.154420852661133 -2.4020309448242188
6.005832195281982 -1.7939910888671875 -2.4020309448242188
6.040839672088623 -1.6722904443740845 -2.4020309448242188
6.073384761810303 -1.549993872642517 -2.4020309448242188
6.103452205657959 -1.4270135164260864 -2.4020309448242188
6.156103610992432 -1.1793529987335205 -2.4020309448242188
6.198709487915039 -0.9297700524330139 -2.4020309448242188
6.253527641296387 -0.426460862159729 -2.4020309448242188
6.260866641998291 -0.3000694215297699 -2.4020309448242188
6.265647888183594 -0.17355544865131378 -2.4020309448242188
6.267875671386719 -0.04697158560156822 -2.4020309448242188
6.267543792724609 0.07963211089372635 -2.4020309448242188
6.240673542022705 0.5851334929466248 -2.4020309448242188
6.173085689544678 1.086958408355713 -2.4020309448242188
6.124152660369873 1.3353794813156128 -2.4020309448242188
5.996399879455566 1.8253055810928345 -2.4020309448242188
5.958311557769775 1.9460794925689697 -2.4020309448242188
5.829527378082275 2.303272247314453 -2.4020309448242188
5.731755256652832 2.536801338195801 -2.4020309448242188
4.510535717010498 -3.7550125122070312 -2.4020309448242188
4.658505916595459 -3.569786310195923 -2.4020309448242188
4.72965669631958 -3.4749693870544434 -2.4020309448242188
4.798874378204346 -3.378756284713745 -2.4020309448242188
4.86613655090332 -3.281125068664551 -2.4020309448242188
4.931412220001221 -3.18212890625 -2.4020309448242188
5.055905818939209 -2.980414390563965 -2.4020309448242188
5.115070819854736 -2.877638101577759 -2.4020309448242188
5.330633640289307 -2.4555249214172363 -2.4020309448242188
5.425452709197998 -2.2381956577301025 -2.4020309448242188
5.469550609588623 -2.128161668777466 -2.4020309448242188
5.551036357879639 -1.9055325984954834 -2.4020309448242188
5.588390827178955 -1.793028473854065 -2.4020309448242188
5.623464107513428 -1.6797930002212524 -2.4020309448242188
5.65624475479126 -1.5658727884292603 -2.4020309448242188
5.740689754486084 -1.2204444408416748 -2.4020309448242188
5.764167308807373 -1.1042147874832153 -2.4020309448242188
5.804062366485596 -0.8705654740333557 -2.4020309448242188
5.855392932891846 -0.39930862188339233 -2.4020309448242188
5.86851692199707 0.07456283271312714 -2.4020309448242188
5.865814208984375 0.1930747926235199 -2.4020309448242188
5.853230953216553 0.42981427907943726 -2.4020309448242188
5.83109712600708 0.6658552289009094 -2.4020309448242188
5.799447059631348 0.9008070230484009 -2.4020309448242188
5.758336067199707 1.1342991590499878 -2.4020309448242188
5.734251499176025 1.250406265258789 -2.4020309448242188
5.707828044891357 1.3659236431121826 -2.4020309448242188
5.648006439208984 1.595324158668518 -2.4020309448242188
5.578971862792969 1.8221241235733032 -2.4020309448242188
5.541031360626221 1.934431552886963 -2.4020309448242188
5.366835594177246 2.3753154277801514 -2.4020309448242188
4.163751125335693 -3.611154079437256 -2.4020309448242188
4.235837459564209 -3.5263524055480957 -2.4020309448242188
4.306196212768555 -3.44006085395813 -2.4020309448242188
4.569780349731445 -3.081299066543579 -2.4020309448242188
4.690495491027832 -2.8942341804504395 -2.4020309448242188
4.747992992401123 -2.7989070415496826 -2.4020309448242188
4.908776760101318 -2.506160259246826 -2.4020309448242188
5.005990982055664 -2.305940628051758 -2.4020309448242188
5.095035076141357 -2.101886034011841 -2.4020309448242188
5.311770915985107 -1.4704900979995728 -2.4020309448242188
5.366823673248291 -1.2547870874404907 -2.4020309448242188
5.413122653961182 -1.0370169878005981 -2.4020309448242188
5.450585842132568 -0.8175564408302307 -2.4020309448242188
5.465987205505371 -0.7073013186454773 -2.4020309448242188
5.49009370803833 -0.4859582483768463 -2.4020309448242188
5.505241394042969 -0.2638261318206787 -2.4020309448242188
5.503790378570557 0.29256150126457214 -2.4020309448242188
5.487485408782959 0.514578104019165 -2.4020309448242188
5.475972652435303 0.6253035068511963 -2.4020309448242188
5.428056716918945 0.9557728171348572 -2.4020309448242188
5.407645225524902 1.0652107000350952 -2.4020309448242188
5.304036617279053 1.4981672763824463 -2.4020309448242188
5.239203929901123 1.7111536264419556 -2.4020309448242188
5.203574180603027 1.8166221380233765 -2.4020309448242188
5.039981365203857 2.2325732707977295 -2.4020309448242188
4.181879997253418 -3.0725088119506836 -2.4020309448242188
4.243083477020264 -2.9874258041381836 -2.4020309448242188
4.302554607391357 -2.901113271713257 -2.4020309448242188
4.470345497131348 -2.63523268699646 -2.4020309448242188
4.573127269744873 -2.452540159225464 -2.4020309448242188
4.668444633483887 -2.2658472061157227 -2.4020309448242188
4.756145000457764 -2.075458288192749 -2.4020309448242188
4.797091960906982 -1.9789748191833496 -2.4020309448242188
4.836083889007568 -1.8816841840744019 -2.4020309448242188
4.908132076263428 -1.6848371028900146 -2.4020309448242188
5.001154899597168 -1.3845181465148926 -2.4020309448242188
5.075821399688721 -1.079145073890686 -2.4020309448242188
5.096580505371094 -0.9763759970664978 -2.4020309448242188
5.115260124206543 -0.8732397556304932 -2.4020309448242188
5.158757209777832 -0.5618635416030884 -2.4020309448242188
5.177237510681152 -0.35306182503700256 -2.4020309448242188
5.187273025512695 -0.1436845362186432 -2.4020309448242188
5.1888427734375 0.06592696905136108 -2.4020309448242188
5.186451435089111 0.17071335017681122 -2.4020309448242188
5.175328254699707 0.38003432750701904 -2.4020309448242188
5.155755519866943 0.5887370109558105 -2.4020309448242188
5.142813682556152 0.6927494406700134 -2.4020309448242188
5.127772331237793 0.7964780926704407 -2.4020309448242188
5.110640525817871 0.8998820185661316 -2.4020309448242188
5.091423034667969 1.0029200315475464 -2.4020309448242188
5.021341323852539 1.3094096183776855 -2.4020309448242188
4.993873119354248 1.41056227684021 -2.4020309448242188
4.964364051818848 1.5111368894577026 -2.4020309448242188
4.932831764221191 1.6111433506011963 -2.4020309448242188
4.899283409118652 1.710422158241272 -2.4020309448242188
4.863741397857666 1.8089942932128906 -2.4020309448242188
4.786715030670166 2.0039443969726562 -2.4020309448242188
4.745267391204834 2.100214958190918 -2.4020309448242188
3.6993796825408936 -3.208418130874634 -2.4020309448242188
3.7634265422821045 -3.1330456733703613 -2.4020309448242188
3.8259387016296387 -3.0563952922821045 -2.4020309448242188
3.886888265609741 -2.9785025119781494 -2.4020309448242188
3.9462523460388184 -2.8993890285491943 -2.4020309448242188
4.004006385803223 -2.8190953731536865 -2.4020309448242188
4.060126781463623 -2.7376561164855957 -2.4020309448242188
4.1145920753479 -2.655097246170044 -2.4020309448242188
4.405400276184082 -2.1381781101226807 -2.4020309448242188
4.488160133361816 -1.9585165977478027 -2.4020309448242188
4.563593864440918 -1.7756609916687012 -2.4020309448242188
4.692014217376709 -1.4015581607818604 -2.4020309448242188
4.719365119934082 -1.306500792503357 -2.4020309448242188
4.78982400894165 -1.0183110237121582 -2.4020309448242188
4.868085861206055 -0.5302051901817322 -2.4020309448242188
4.885526180267334 -0.33316269516944885 -2.4020309448242188
4.891259670257568 -0.23445968329906464 -2.4020309448242188
4.896735668182373 -0.036701202392578125 -2.4020309448242188
4.889969348907471 0.25991836190223694 -2.4020309448242188
4.875482082366943 0.45718854665756226 -2.4020309448242188
4.838847637176514 0.7516010999679565 -2.4020309448242188
4.80454683303833 0.9464295506477356 -2.4020309448242188
4.762404441833496 1.1396894454956055 -2.4020309448242188
4.623234748840332 1.6140223741531372 -2.4020309448242188
4.554279804229736 1.7994168996810913 -2.4020309448242188
3.497889280319214 -3.033669948577881 -2.4020309448242188
3.5584471225738525 -2.962402820587158 -2.4020309448242188
3.731315851211548 -2.7414703369140625 -2.4020309448242188
3.988698720932007 -2.351306915283203 -2.4020309448242188
4.035376071929932 -2.270265579223633 -2.4020309448242188
4.080407619476318 -2.1882989406585693 -2.4020309448242188
4.165453910827637 -2.0217199325561523 -2.4020309448242188
4.243708610534668 -1.8518441915512085 -2.4020309448242188
4.280243873596191 -1.765755534172058 -2.4020309448242188
4.315033912658691 -1.6789474487304688 -2.4020309448242188
4.408789157867432 -1.4145535230636597 -2.4020309448242188
4.486359596252441 -1.1449679136276245 -2.4020309448242188
4.528939247131348 -0.962847888469696 -2.4020309448242188
4.547464370727539 -0.8711785674095154 -2.4020309448242188
4.564130783081055 -0.7791549563407898 -2.4020309448242188
4.578936576843262 -0.6868137717247009 -2.4020309448242188
4.602940559387207 -0.5013267397880554 -2.4020309448242188
4.612126350402832 -0.40825697779655457 -2.4020309448242188
4.619431018829346 -0.31502196192741394 -2.4020309448242188
4.624853610992432 -0.22165846824645996 -2.4020309448242188
4.630029201507568 -0.03469711169600487 -2.4020309448242188
4.629787445068359 0.05882415547966957 -2.4020309448242188
4.627651214599609 0.1523207128047943 -2.4020309448242188
4.617725849151611 0.3390885889530182 -2.4020309448242188
4.588714599609375 0.6181114315986633 -2.4020309448242188
4.575296401977539 0.7106626629829407 -2.4020309448242188
4.560008525848389 0.8029292225837708 -2.4020309448242188
4.42949104309082 1.3483164310455322 -2.4020309448242188
4.401357173919678 1.4375169277191162 -2.4020309448242188
4.371424674987793 1.5261121988296509 -2.4020309448242188
4.339710712432861 1.6140931844711304 -2.4020309448242188
4.270983695983887 1.788034439086914 -2.4020309448242188
4.234000205993652 1.8739326000213623 -2.4020309448242188
3.313161611557007 -2.873466730117798 -2.4020309448242188
3.3705224990844727 -2.805962562561035 -2.4020309448242188
3.5342602729797363 -2.596698760986328 -2.4020309448242188
3.585991144180298 -2.524782419204712 -2.4020309448242188
3.7780566215515137 -2.2271339893341064 -2.4020309448242188
3.822268009185791 -2.1503729820251465 -2.4020309448242188
3.864919424057007 -2.0727345943450928 -2.4020309448242188
3.9454784393310547 -1.9149527549743652 -2.4020309448242188
4.019597053527832 -1.7540478706359863 -2.4020309448242188
4.054203987121582 -1.6725060939788818 -2.4020309448242188
4.087155818939209 -1.5902824401855469 -2.4020309448242188
4.118441104888916 -1.507408618927002 -2.4020309448242188
4.249435901641846 -1.0845022201538086 -2.4020309448242188
4.289765357971191 -0.9119999408721924 -2.4020309448242188
4.349380016326904 -0.5628080368041992 -2.4020309448242188
4.36855936050415 -0.38668882846832275 -2.4020309448242188
4.380612850189209 -0.2099452167749405 -2.4020309448242188
4.385285377502441 0.05572509765625 -2.4020309448242188
4.366485595703125 0.4094596803188324 -2.4020309448242188
4.357322692871094 0.4975742995738983 -2.4020309448242188
4.333674430847168 0.6731410026550293 -2.4020309448242188
4.26521110534668 1.0206947326660156 -2.4020309448242188
4.24372673034668 1.1066312789916992 -2.4020309448242188
4.220509052276611 1.1921162605285645 -2.4020309448242188
4.19556999206543 1.2771161794662476 -2.4020309448242188
4.168920993804932 1.3615952730178833 -2.4020309448242188
4.110530853271484 1.5288492441177368 -2.4020309448242188
4.045433044433594 1.6936103105545044 -2.4020309448242188
4.010401725769043 1.7749701738357544 -2.4020309448242188
3.197451114654541 -2.6618728637695312 -2.4020309448242188
3.449531078338623 -2.325939655303955 -2.4020309448242188
3.495805501937866 -2.2557945251464844 -2.4020309448242188
3.5406506061553955 -2.1847283840179443 -2.4020309448242188
3.584052562713623 -2.112771511077881 -2.4020309448242188
3.6259984970092773 -2.039952516555786 -2.4020309448242188
3.705425977706909 -1.891847848892212 -2.4020309448242188
3.7428808212280273 -1.8166213035583496 -2.4020309448242188
3.846022844314575 -1.5866237878799438 -2.4020309448242188
3.8772826194763184 -1.5086218118667603 -2.4020309448242188
