ply
format ascii 1.0
element vertex 378
property float x
property float y
property float z
end_header
-17.30754280090332 26.47551918029785 5.5773539543151855
-17.308582305908203 24.262706756591797 5.255215167999268
-17.30741310119629 23.246444702148438 5.1102705001831055
-17.537708282470703 20.779979705810547 4.7945990562438965
-17.88966941833496 20.343029022216797 4.776732444763184
-17.246734619140625 18.07392692565918 4.405056476593018
-17.246732711791992 17.35337257385254 4.314029216766357
-17.246732711791992 16.661725997924805 4.228401184082031
-17.24673080444336 15.996734619140625 4.1477885246276855
-17.246728897094727 14.738718032836914 4.000248432159424
-17.246726989746094 14.14220905303955 3.932729482650757
-17.388309478759766 13.676652908325195 3.9007890224456787
-17.668546676635742 34.16139221191406 5.891870021820068
-17.246746063232422 25.246400833129883 4.683920860290527
-17.246740341186523 23.164947509765625 4.4242844581604
-17.24673843383789 22.207645416259766 4.3075432777404785
-17.246736526489258 21.299179077148438 4.19849157333374
-17.88966941833496 20.343027114868164 4.150068283081055
-17.246736526489258 18.82585334777832 3.9112987518310547
-17.246734619140625 18.07392692565918 3.8271520137786865
-17.246732711791992 17.353363037109375 3.7480669021606445
-17.246732711791992 16.661710739135742 3.6736717224121094
-17.24673080444336 15.996731758117676 3.603635787963867
-17.246726989746094 14.14220905303955 3.416790008544922
-17.388309478759766 13.676652908325195 3.3890397548675537
-17.246742248535156 24.1760196685791 3.8672094345092773
-17.246740341186523 23.164947509765625 3.7608025074005127
-17.24673843383789 22.2076416015625 3.661567211151123
-17.537704467773438 20.779985427856445 3.5409021377563477
-17.889667510986328 20.343029022216797 3.5277087688446045
-17.305715560913086 18.890233993530273 3.3361151218414307
-17.30970001220703 15.412405967712402 3.0181121826171875
-17.310409545898438 14.793140411376953 2.9651684761047363
-17.307586669921875 14.192112922668457 2.9146459102630615
-17.246747970581055 26.38252067565918 3.3846349716186523
-17.308584213256836 24.262714385986328 3.200385570526123
-17.30525779724121 21.371461868286133 2.952923536300659
-17.577173233032227 20.826745986938477 2.9264397621154785
-17.306577682495117 18.136642456054688 2.6919543743133545
-17.307403564453125 17.4144229888916 2.6364543437957764
-17.30970001220703 15.412406921386719 2.488774538040161
-17.310407638549805 14.793134689331055 2.445115566253662
-17.436708450317383 13.714719772338867 2.3821589946746826
-17.98244285583496 33.10110092163086 3.188896417617798
-19.1531982421875 33.608543395996094 3.2746288776397705
-17.307415008544922 23.246444702148438 2.4533891677856445
-17.246736526489258 18.825857162475586 2.161320924758911
-17.246734619140625 18.073930740356445 2.1148242950439453
-17.246732711791992 17.35337257385254 2.07112193107605
-17.24673080444336 15.996731758117676 1.9913111925125122
-17.246728897094727 15.356340408325195 1.9548499584197998
-17.24672508239746 14.142208099365234 1.888062834739685
-17.35976791381836 33.56438064575195 2.343242645263672
-20.210060119628906 33.84438705444336 2.4444093704223633
-17.246747970581055 26.382516860961914 1.9545429944992065
-17.246742248535156 24.17601776123047 1.8415403366088867
-17.246736526489258 18.82586097717285 1.5832231044769287
-17.246734619140625 18.073930740356445 1.5491615533828735
-17.246732711791992 17.353374481201172 1.5171492099761963
-17.246732711791992 16.661724090576172 1.4870356321334839
-17.246728897094727 14.738718032836914 1.4067994356155396
-17.246726989746094 14.142210006713867 1.3830540180206299
-17.858598709106445 32.87313461303711 1.4751478433609009
-17.246747970581055 26.38251495361328 1.2428513765335083
-17.246746063232422 25.24639892578125 1.205604076385498
-17.747556686401367 22.85251235961914 1.1409226655960083
-17.837160110473633 22.02834701538086 1.1176536083221436
-17.88966941833496 20.343027114868164 1.0681941509246826
-17.837160110473633 19.470333099365234 1.0412009954452515
-17.837158203125 18.692670822143555 1.0188010931015015
-17.837156295776367 17.947446823120117 0.9977482557296753
-17.837154388427734 17.232118606567383 0.9779444932937622
-17.983226776123047 16.679847717285156 0.9671558737754822
-18.359338760375977 16.34699249267578 0.9693043231964111
-18.79655647277832 16.06317138671875 0.9749397039413452
-19.215728759765625 15.756779670715332 0.9798585176467896
-17.951208114624023 33.04361343383789 0.6352128386497498
-17.837162017822266 22.967905044555664 0.4912254214286804
-17.837160110473633 22.028345108032227 0.4787898063659668
-17.88966941833496 20.343027114868164 0.45760175585746765
-17.837156295776367 17.94743537902832 0.42742323875427246
-17.983224868774414 16.679847717285156 0.4143177568912506
-18.35933494567871 16.346994400024414 0.41523849964141846
-17.289472579956055 33.4284782409668 -0.21189162135124207
-17.837160110473633 22.02834701538086 -0.15958480536937714
-17.88966941833496 20.343027114868164 -0.1525227278470993
-17.837160110473633 19.4703369140625 -0.1486692726612091
-17.837158203125 18.692672729492188 -0.14547088742256165
-17.837156295776367 17.947437286376953 -0.14246459305286407
-17.837156295776367 17.23210334777832 -0.13963668048381805
-17.983226776123047 16.679847717285156 -0.1380966156721115
-19.8886661529541 15.643289566040039 -0.14246444404125214
-16.60308074951172 32.10136413574219 -1.0176435708999634
-17.308252334594727 31.860090255737305 -1.0209425687789917
-18.1530818939209 31.85361099243164 -1.0323512554168701
-19.096784591674805 31.980060577392578 -1.0488182306289673
-17.837162017822266 22.96790313720703 -0.8188474774360657
-17.837160110473633 22.02834701538086 -0.7981179356575012
-17.88966941833496 20.343027114868164 -0.7627987265586853
-17.837160110473633 19.470340728759766 -0.7435243129730225
-17.983224868774414 16.679847717285156 -0.69064861536026
-18.35933494567871 16.346994400024414 -0.6921826004981995
-19.88866424560547 15.643289566040039 -0.7124923467636108
-17.33960723876953 31.917814254760742 -1.8421276807785034
-18.160480499267578 31.86659812927246 -1.8601036071777344
-19.1473331451416 32.06471252441406 -1.8940037488937378
-19.928789138793945 31.88233757019043 -1.9067753553390503
-20.849559783935547 31.893760681152344 -1.9324175119400024
-21.92283821105957 32.0914421081543 -1.9709972143173218
-22.810497283935547 31.975168228149414 -1.9919368028640747
-17.837162017822266 22.967899322509766 -1.474807858467102
-17.837160110473633 22.028331756591797 -1.4374717473983765
-17.837158203125 21.134794235229492 -1.402544617652893
-17.837160110473633 19.470346450805664 -1.3391441106796265
-17.837158203125 18.692668914794922 -1.3103339672088623
-17.837156295776367 17.947446823120117 -1.2832567691802979
-18.35933494567871 16.346994400024414 -1.246673345565796
-19.034671783447266 16.266658782958984 -1.2698051929473877
-19.459426879882812 15.956609725952148 -1.2762281894683838
-19.88866424560547 15.643288612365723 -1.2832531929016113
-15.581713676452637 26.09360122680664 -2.2283968925476074
-16.105424880981445 25.76564598083496 -2.2278990745544434
-17.837162017822266 22.967905044555664 -2.1322615146636963
-17.837160110473633 22.02834701538086 -2.0782811641693115
-17.88966941833496 20.343027114868164 -1.9863117933273315
-17.837156295776367 17.94743537902832 -1.8553179502487183
-17.983226776123047 16.679847717285156 -1.7984321117401123
-19.034671783447266 16.266660690307617 -1.8358705043792725
-19.888662338256836 15.643288612365723 -1.8553117513656616
-11.512553215026855 20.201332092285156 -2.232261896133423
-12.320076942443848 19.709808349609375 -2.231494188308716
-12.716123580932617 19.45196533203125 -2.2311177253723145
-13.106796264648438 19.18621253967285 -2.2307465076446533
-13.491951942443848 18.91266632080078 -2.2303802967071533
-13.871447563171387 18.63142204284668 -2.2300195693969727
-14.245115280151367 18.34262466430664 -2.2296643257141113
-14.612832069396973 18.046398162841797 -2.2293145656585693
-15.329734802246094 17.432031631469727 -2.228633165359497
-15.678651809692383 17.114208221435547 -2.228302001953125
-16.021087646484375 16.789457321166992 -2.227977752685547
-18.223661422729492 14.333697319030762 -2.225900173187256
-8.643721580505371 16.712270736694336 -2.2349870204925537
-9.313404083251953 16.342390060424805 -2.234351634979248
-9.967326164245605 15.945822715759277 -2.233731508255005
-10.288028717041016 15.737728118896484 -2.2334277629852295
-10.916422843933105 15.302396774291992 -2.232834815979004
-11.223852157592773 15.075324058532715 -2.2325448989868164
-11.526541709899902 14.842113494873047 -2.232259511947632
-12.965457916259766 13.587326049804688 -2.2308952808380127
-13.237558364868164 13.319366455078125 -2.230637550354004
-9.13467788696289 8.472625732421875 -1.4799591302871704
-14.020270347595215 12.483530044555664 -2.229907274246216
-10.40438175201416 8.89138412475586 -1.625712275505066
-10.775839805603027 8.475667953491211 -1.6285173892974854
-4.334184646606445 8.379973411560059 -1.3367623090744019
-7.812928676605225 13.709527015686035 -2.235788345336914
-8.361879348754883 13.377445220947266 -2.2352676391601562
-8.631153106689453 13.203155517578125 -2.2350122928619385
-5.7837090492248535 8.466413497924805 -1.452791452407837
-5.968264579772949 8.36616039276123 -1.456113576889038
-7.363872528076172 8.373747825622559 -1.579986810684204
-7.759596824645996 8.470076560974121 -1.6275992393493652
-8.082986831665039 8.47067642211914 -1.6589574813842773
-8.39310073852539 8.444999694824219 -1.6870079040527344
-8.822311401367188 8.523067474365234 -1.738075852394104
-11.551040649414062 10.713727951049805 -2.2322587966918945
-11.7725191116333 10.482282638549805 -2.233456611633301
-10.391170501708984 8.88009262084961 -1.9367046356201172
-10.310219764709473 8.454324722290039 -1.8891816139221191
-12.48225212097168 9.817815780639648 -2.2501220703125
-6.482363700866699 11.932333946228027 -2.2370669841766357
-4.823909759521484 8.464634895324707 -1.605003833770752
-6.960665702819824 11.656570434570312 -2.236614465713501
-7.195531368255615 11.511497497558594 -2.2363924980163574
-5.824304103851318 8.525840759277344 -1.7009735107421875
-5.968260765075684 8.366159439086914 -1.6929923295974731
-8.541638374328613 10.548497200012207 -2.236016273498535
-8.7747163772583 10.396563529968262 -2.2411723136901855
-7.363872051239014 8.373747825622559 -1.8370171785354614
-9.22530746459961 10.069976806640625 -2.2498247623443604
-9.630535125732422 9.69010066986084 -2.250638723373413
-10.020316123962402 9.29407787322998 -2.2514898777008057
-10.209213256835938 9.09019660949707 -2.2519290447235107
-10.377907752990723 8.868764877319336 -2.2488937377929688
-10.750910758972168 8.4560546875 -2.25329852104187
-5.694457054138184 10.481956481933594 -2.2421576976776123
-5.916932106018066 10.382678031921387 -2.246197462081909
-6.344607353210449 10.15015983581543 -2.249880313873291
-6.550453186035156 10.020273208618164 -2.250153064727783
-7.1518988609313965 9.606048583984375 -2.2510275840759277
-7.538626670837402 9.309951782226562 -2.2516560554504395
-7.727477073669434 9.156082153320312 -2.251983642578125
-7.363872051239014 8.373747825622559 -2.0959672927856445
-8.275066375732422 8.671958923339844 -2.253018379211426
-8.451025009155273 8.503278732299805 -2.253380298614502
-8.621901512145996 8.329442024230957 -2.2533090114593506
-8.949675559997559 7.968717098236084 -2.2523720264434814
-9.41269302368164 7.403492450714111 -2.250908374786377
-5.085172176361084 9.360487937927246 -2.2517430782318115
-5.274940490722656 9.256054878234863 -2.251960515975952
-5.6480393409729 9.035798072814941 -2.2524211406707764
-5.968260288238525 8.366159439086914 -2.1723129749298096
-6.366344928741455 8.550948143005371 -2.253443479537964
-6.539682388305664 8.420777320861816 -2.2537193298339844
-7.197482585906982 7.856520652770996 -2.2522528171539307
-7.508336544036865 7.55476713180542 -2.251465320587158
-8.091313362121582 6.914677619934082 -2.249802589416504
-8.365205764770508 6.579599380493164 -2.2496609687805176
-4.577911376953125 8.426770210266113 -2.2538657188415527
-4.747889995574951 8.33123779296875 -2.2536733150482178
-4.91571569442749 8.232016563415527 -2.253408432006836
-5.081458568572998 8.129384994506836 -2.2531349658966064
-5.245024681091309 8.023386001586914 -2.2528533935546875
-5.406374931335449 7.914068222045898 -2.252563714981079
-5.565436840057373 7.8014817237854 -2.2522659301757812
-6.177376747131348 7.31941556930542 -2.250997543334961
-6.74772310256958 6.789440155029297 -2.249701976776123
-7.017980575561523 6.509347915649414 -2.249648332595825
-4.151986598968506 7.6427507400512695 -2.25199818611145
-4.306076526641846 7.555965900421143 -2.2517659664154053
-4.458335876464844 7.466064929962158 -2.251525640487671
-4.608705997467041 7.3730645179748535 -2.2512779235839844
-4.757120132446289 7.277010917663574 -2.2510228157043457
-4.903517246246338 7.177945613861084 -2.250760078430176
-5.33000373840332 6.863139629364014 -2.249929428100586
-6.208817481994629 6.247278690338135 -2.280517578125
-6.718403339385986 6.231472015380859 -2.3725709915161133
-6.928648471832275 6.169248580932617 -2.4020309448242188
-7.173776149749756 5.882452487945557 -2.4020309448242188
-3.6522161960601807 7.061406135559082 -2.2505834102630615
-3.935554027557373 6.90580415725708 -2.250166177749634
-4.348269462585449 6.6516032218933105 -2.2496767044067383
-4.615041255950928 6.469219207763672 -2.2496416568756104
-5.057155132293701 6.245497226715088 -2.2750089168548584
-5.265760898590088 6.239287376403809 -2.3112776279449463
-5.857665061950684 6.1386027336120605 -2.4020309448242188
-6.220979690551758 5.770096778869629 -2.4020309448242188
-6.45042085647583 5.512406349182129 -2.4020309448242188
-6.561167240142822 5.380117893218994 -2.4020309448242188
-3.3600451946258545 6.496564865112305 -2.249647378921509
-3.491425037384033 6.4268670082092285 -2.249634027481079
-3.6214330196380615 6.3545403480529785 -2.249630928039551
-3.7497851848602295 6.279600620269775 -2.249630928039551
-3.9033148288726807 6.244535446166992 -2.2650372982025146
-4.443975925445557 6.229444980621338 -2.3536269664764404
-4.914539813995361 6.069252014160156 -2.4020309448242188
-5.1571855545043945 5.8644328117370605 -2.4020309448242188
-5.505081653594971 5.539134979248047 -2.4020309448242188
-5.725736618041992 5.3107500076293945 -2.4020309448242188
-5.832528114318848 5.1932373046875 -2.4020309448242188
-5.936916351318359 5.073574066162109 -2.4020309448242188
-6.138271331787109 4.828016757965088 -2.4020309448242188
-3.2224833965301514 6.230536937713623 -2.3316774368286133
-3.7048559188842773 6.204217910766602 -2.4020309448242188
-3.830223321914673 6.1276092529296875 -2.4020309448242188
-3.953996419906616 6.048466682434082 -2.4020309448242188
-4.076154708862305 5.966824054718018 -2.4020309448242188
-4.315316200256348 5.796176433563232 -2.4020309448242188
-4.432365417480469 5.707241535186768 -2.4020309448242188
-4.880999565124512 5.328278064727783 -2.4020309448242188
-4.988663673400879 5.227932453155518 -2.4020309448242188
-5.197078704833984 5.020796775817871 -2.4020309448242188
-5.298085689544678 4.914094924926758 -2.4020309448242188
-5.49349308013916 4.694633483886719 -2.4020309448242188
-5.587809085845947 4.581969738006592 -2.4020309448242188
-5.679806232452393 4.467416286468506 -2.4020309448242188
-3.9008750915527344 5.468145847320557 -2.4020309448242188
-4.1199564933776855 5.30503511428833 -2.4020309448242188
-4.226968288421631 5.220175266265869 -2.4020309448242188
-4.332233905792236 5.133151531219482 -2.4020309448242188
-4.435701847076416 5.044005393981934 -2.4020309448242188
-4.7349467277526855 4.764219284057617 -2.4020309448242188
-4.924714088439941 4.567787170410156 -2.4020309448242188
-5.10635232925415 4.36378812789917 -2.4020309448242188
-5.194020748138428 4.259063720703125 -2.4020309448242188
-5.279538631439209 4.152583122253418 -2.4020309448242188
-3.103510618209839 5.445797443389893 -2.4020309448242188
-3.213589906692505 5.381575584411621 -2.4020309448242188
-3.3223419189453125 5.31512451171875 -2.4020309448242188
-3.535684823989868 5.175660133361816 -2.4020309448242188
-3.6401824951171875 5.102705001831055 -2.4020309448242188
-3.743171215057373 5.027640342712402 -2.4020309448242188
-3.8446178436279297 4.950495719909668 -2.4020309448242188
-3.944476842880249 4.871305465698242 -2.4020309448242188
-4.042703151702881 4.790098190307617 -2.4020309448242188
-4.595590114593506 4.262515068054199 -2.4020309448242188
-4.7650957107543945 4.072152137756348 -2.4020309448242188
-4.926701068878174 3.875063419342041 -2.4020309448242188
-2.6962132453918457 5.213013648986816 -2.4020309448242188
-2.905918598175049 5.099086761474609 -2.4020309448242188
-3.1108179092407227 4.9767327308654785 -2.4020309448242188
-3.21136474609375 4.912454128265381 -2.4020309448242188
-3.310577869415283 4.846146583557129 -2.4020309448242188
-3.599846839904785 4.635317325592041 -2.4020309448242188
-3.6933445930480957 4.5611677169799805 -2.4020309448242188
-3.7853221893310547 4.48513126373291 -2.4020309448242188
-4.137192249298096 4.162775039672852 -2.4020309448242188
-4.303008556365967 3.9911370277404785 -2.4020309448242188
-4.613038063049316 3.628352642059326 -2.4020309448242188
-2.631019115447998 4.843040466308594 -2.4020309448242188
-3.200845241546631 4.4868597984313965 -2.4020309448242188
-3.2914061546325684 4.4208526611328125 -2.4020309448242188
-3.4684154987335205 4.28338623046875 -2.4020309448242188
-3.639693021774292 4.1388349533081055 -2.4020309448242188
-3.7230889797210693 4.063978672027588 -2.4020309448242188
-3.8049468994140625 3.9874420166015625 -2.4020309448242188
-4.040950298309326 3.748073101043701 -2.4020309448242188
-4.1163201332092285 3.6651360988616943 -2.4020309448242188
-4.261926174163818 3.494753837585449 -2.4020309448242188
-4.332097053527832 3.4073808193206787 -2.4020309448242188
-2.3839404582977295 4.609257698059082 -2.4020309448242188
-2.477167844772339 4.559836387634277 -2.4020309448242188
-2.569364070892334 4.508525371551514 -2.4020309448242188
-2.6604979038238525 4.455355167388916 -2.4020309448242188
-2.839432954788208 4.343509197235107 -2.4020309448242188
-3.0136706829071045 4.224481105804443 -2.4020309448242188
-3.1829240322113037 4.098469257354736 -2.4020309448242188
-3.426856517791748 3.8968095779418945 -2.4020309448242188
-3.5824475288391113 3.75426983833313 -2.4020309448242188
-3.658034563064575 3.6806554794311523 -2.4020309448242188
-3.732112407684326 3.6055212020874023 -2.4020309448242188
-3.804647207260132 3.528897523880005 -2.4020309448242188
-3.875612735748291 3.450812339782715 -2.4020309448242188
-4.078769207000732 3.208127975463867 -2.4020309448242188
-2.3375890254974365 4.302911281585693 -2.4020309448242188
-2.4245946407318115 4.25449275970459 -2.4020309448242188
-2.7622270584106445 4.043448448181152 -2.4020309448242188
-2.8438634872436523 3.9864537715911865 -2.4020309448242188
-2.924328565597534 3.9278087615966797 -2.4020309448242188
-3.0035815238952637 3.8675408363342285 -2.4020309448242188
-3.3078625202178955 3.6107358932495117 -2.4020309448242188
-3.38059139251709 3.542734384536743 -2.4020309448242188
-3.451923131942749 3.473268985748291 -2.4020309448242188
-3.5218260288238525 3.402369260787964 -2.4020309448242188
-3.657241106033325 3.256376266479492 -2.4020309448242188
-3.722693920135498 3.1813414096832275 -2.4020309448242188
-3.7866051197052 3.104995012283325 -2.4020309448242188
-3.8489506244659424 3.02736759185791 -2.4020309448242188
-2.2102720737457275 4.06854772567749 -2.4020309448242188
-2.5335071086883545 3.8755297660827637 -2.4020309448242188
-2.6117773056030273 3.8232171535491943 -2.4020309448242188
-2.6889708042144775 3.769326686859131 -2.4020309448242188
-2.7650511264801025 3.713876247406006 -2.4020309448242188
-2.8399877548217773 3.6568901538848877 -2.4020309448242188
-2.986314058303833 3.5384063720703125 -2.4020309448242188
-3.0576391220092773 3.4769580364227295 -2.4020309448242188
-3.1276988983154297 3.4140727519989014 -2.4020309448242188
-3.1964659690856934 3.3497753143310547 -2.4020309448242188
-3.263911008834839 3.2840936183929443 -2.4020309448242188
-3.3300089836120605 3.2170543670654297 -2.4020309448242188
-3.394726514816284 3.1486852169036865 -2.4020309448242188
-3.4580438137054443 3.0790131092071533 -2.4020309448242188
-3.519932746887207 3.0080668926239014 -2.4020309448242188
-2.0935473442077637 3.8536877632141113 -2.4020309448242188
-2.171468496322632 3.8103246688842773 -2.4020309448242188
-2.248488664627075 3.765388011932373 -2.4020309448242188
-2.324579954147339 3.7188944816589355 -2.4020309448242188
-2.3997130393981934 3.6708617210388184 -2.4020309448242188
-2.473851203918457 3.6213133335113525 -2.4020309448242188
-2.5469653606414795 3.570268392562866 -2.4020309448242188
-2.619028329849243 3.5177459716796875 -2.4020309448242188
-2.6900084018707275 3.463770627975464 -2.4020309448242188
-2.7598767280578613 3.40836238861084 -2.4020309448242188
-2.8286051750183105 3.3515429496765137 -2.4020309448242188
-2.8961644172668457 3.2933385372161865 -2.4020309448242188
-2.9625232219696045 3.2337749004364014 -2.4020309448242188
-3.027658700942993 3.1728739738464355 -2.4020309448242188
-3.3340446949005127 2.8492095470428467 -2.4020309448242188
-3.3912854194641113 2.7808337211608887 -2.4020309448242188
-3.447122097015381 2.7113096714019775 -2.4020309448242188
-1.9113024473190308 3.6954264640808105 -2.4020309448242188
-1.9860436916351318 3.6558024883270264 -2.4020309448242188
-2.0599632263183594 3.6146655082702637 -2.4020309448242188
-2.2764904499053955 3.4823668003082275 -2.4020309448242188
-2.9327940940856934 2.950927734375 -2.4020309448242188
-2.9921867847442627 2.8906915187835693 -2.4020309448242188
-3.0503392219543457 2.8292601108551025 -2.4020309448242188
-3.2701146602630615 2.5720860958099365 -2.4020309448242188
