ply
format ascii 1.0
element vertex 382
property float x
property float y
property float z
end_header
-17.842615127563477 34.83517074584961 6.9012298583984375
-17.306838989257812 22.747121810913086 5.039860248565674
-17.39655303955078 21.08920669555664 4.820517539978027
-17.24673843383789 19.307376861572266 4.564874172210693
-17.246734619140625 18.559350967407227 4.467374801635742
-17.246734619140625 17.842315673828125 4.375601291656494
-17.246732711791992 16.491836547851562 4.207643508911133
-17.246728897094727 15.239364624023438 4.058155536651611
-16.917192459106445 34.69383239746094 5.913092613220215
-17.397724151611328 33.966583251953125 5.846347332000732
-17.246746063232422 25.681318283081055 4.739085674285889
-17.24674415588379 24.620765686035156 4.605098724365234
-17.246742248535156 23.61813735961914 4.480161666870117
-17.24673843383789 21.766027450561523 4.254311561584473
-17.35777473449707 21.042205810546875 4.178773880004883
-17.748231887817383 20.67329978942871 4.17404842376709
-17.246734619140625 17.842313766479492 3.8015618324279785
-17.246728897094727 15.239362716674805 3.525761127471924
-16.55396270751953 33.94891357421875 4.918423175811768
-17.576589584350586 32.71343994140625 4.835923194885254
-19.36669921875 34.404380798339844 5.141216278076172
-17.246746063232422 25.681320190429688 4.028396129608154
-17.24674415588379 24.620773315429688 3.9145007133483887
-17.246742248535156 23.61813735961914 3.8083012104034424
-17.357770919799805 21.042211532592773 3.552110433578491
-17.748233795166016 20.67329978942871 3.548093795776367
-17.306020736694336 18.62312889099121 3.3105785846710205
-17.30684471130371 17.904497146606445 3.242727041244507
-16.65852165222168 34.16337203979492 4.081414699554443
-17.31032371520996 25.77598762512207 3.3341124057769775
-17.306840896606445 22.747133255004883 3.0692389011383057
-17.305797576904297 21.84056282043457 2.9922752380371094
-17.39655303955078 21.08920669555664 2.9356579780578613
-17.789106369018555 20.72091293334961 2.9325413703918457
-17.305160522460938 19.372787475585938 2.7893919944763184
-17.306842803955078 17.904497146606445 2.67399525642395
-17.308393478393555 16.55080223083496 2.571584939956665
-17.309833526611328 15.295123100280762 2.4804272651672363
-16.415374755859375 33.664710998535156 3.1705572605133057
-18.783733367919922 33.36875534057617 3.2415521144866943
-17.31032371520996 25.775985717773438 2.628397226333618
-17.24673843383789 19.307376861572266 2.1915500164031982
-17.246734619140625 18.55933380126953 2.1447391510009766
-17.246732711791992 17.153846740722656 2.059176206588745
-17.246732711791992 16.49184226989746 2.0200464725494385
-17.24673080444336 15.854291915893555 1.9831315279006958
-17.246728897094727 15.2393798828125 1.9482795000076294
-16.173032760620117 34.89370346069336 2.3848891258239746
-16.453702926635742 33.74332809448242 2.3279378414154053
-17.125444412231445 33.43499755859375 2.3294601440429688
-17.24674415588379 24.62077522277832 1.8640605211257935
-17.246742248535156 23.61813735961914 1.8134886026382446
-17.24673843383789 21.766027450561523 1.722067952156067
-17.246732711791992 17.15384864807129 1.5083988904953003
-15.556353569030762 35.37060546875 1.5236295461654663
-15.420184135437012 33.26941680908203 1.4459065198898315
-17.609289169311523 32.77430725097656 1.4670469760894775
-17.246746063232422 25.68131446838379 1.2198033332824707
-17.24674415588379 24.62077522277832 1.1853153705596924
-17.246742248535156 23.618160247802734 1.1531580686569214
-17.837162017822266 22.51116371154785 1.1325126886367798
-17.837160110473633 21.623342514038086 1.1052885055541992
-17.837158203125 20.776885986328125 1.0797505378723145
-17.837158203125 18.453126907348633 1.011988639831543
-17.837156295776367 17.7410888671875 0.9919938445091248
-18.065542221069336 16.606998443603516 0.9675920009613037
-18.458595275878906 16.310178756713867 0.9712693691253662
-16.839635848999023 32.87700271606445 0.6239607334136963
-18.78569793701172 33.37224578857422 0.6468931436538696
-19.87428855895996 32.26746368408203 0.640146017074585
-17.8371639251709 23.44416046142578 0.4976035952568054
-17.837158203125 20.776880264282227 0.46255233883857727
-17.837160110473633 19.968341827392578 0.45227643847465515
-17.837158203125 18.453125 0.4335237145423889
-17.837154388427734 17.05641746520996 0.41688308119773865
-18.06554412841797 16.606996536254883 0.41450485587120056
-18.692230224609375 16.51662254333496 0.42134901881217957
-14.437886238098145 32.827518463134766 -0.2019113153219223
-16.422706604003906 33.679744720458984 -0.21096542477607727
-17.211462020874023 33.60293197631836 -0.21256515383720398
-17.837162017822266 22.51116180419922 -0.16170638799667358
-17.837154388427734 17.056419372558594 -0.13895156979560852
-18.06554412841797 16.606996536254883 -0.13815855979919434
-14.716641426086426 31.751522064208984 -0.9854151606559753
-20.575571060180664 31.979764938354492 -1.0707594156265259
-17.837162017822266 19.96834373474121 -0.7539234757423401
-17.837158203125 18.453126907348633 -0.722663402557373
-17.837156295776367 17.741090774536133 -0.7083849906921387
-17.837154388427734 17.056415557861328 -0.694923996925354
-18.065534591674805 16.607006072998047 -0.6909599304199219
-14.811850547790527 31.95693588256836 -1.7862910032272339
-16.465452194213867 32.14649200439453 -1.831697702407837
-17.150665283203125 31.920726776123047 -1.8377023935317993
-17.93805694580078 31.866456985473633 -1.8545387983322144
-18.842756271362305 31.98508071899414 -1.8826507329940796
-19.617712020874023 31.85089683532715 -1.897101879119873
-22.30202293395996 31.837499618530273 -1.9713464975357056
-17.837160110473633 21.623336791992188 -1.4215679168701172
-17.837158203125 20.776884078979492 -1.3887221813201904
-17.837160110473633 19.96834945678711 -1.357873797416687
-17.837158203125 19.194705963134766 -1.328870177268982
-17.837156295776367 17.7410888671875 -1.275855302810669
-17.837154388427734 17.05641746520996 -1.2516111135482788
-18.692230224609375 16.51662254333496 -1.2650115489959717
-12.252934455871582 27.85958480834961 -2.2315611839294434
-13.865191459655762 27.069820404052734 -2.2300286293029785
-14.391751289367676 26.785837173461914 -2.2295279502868652
-15.427332878112793 26.18749237060547 -2.228543758392334
-15.936010360717773 25.87335205078125 -2.228060007095337
-17.423173904418945 24.87263298034668 -2.2266464233398438
-17.8371639251709 23.44414710998535 -2.159946918487549
-17.837160110473633 21.62335205078125 -2.055288076400757
-17.837158203125 20.77687644958496 -2.007798910140991
-17.837162017822266 19.968347549438477 -1.9631986618041992
-17.837156295776367 17.741092681884766 -1.8446176052093506
-9.369441032409668 21.303369522094727 -2.2342991828918457
-9.784934043884277 21.111244201660156 -2.2339041233062744
-11.00728988647461 20.486703872680664 -2.2327423095703125
-11.800559043884277 20.031147003173828 -2.2319881916046143
-14.77526569366455 17.911527633666992 -2.2291603088378906
-15.122511863708496 17.614837646484375 -2.228830099105835
-15.46380615234375 17.311426162719727 -2.2285056114196777
-15.799099922180176 17.001489639282227 -2.2281880378723145
-16.76740837097168 16.033506393432617 -2.227271318435669
-8.577743530273438 16.7468204498291 -2.2350499629974365
-9.227202415466309 16.391948699951172 -2.234433174133301
-9.862208366394043 16.012035369873047 -2.2338311672210693
-10.78515625 15.39648151397705 -2.2329585552215576
-11.084504127502441 15.17944049835205 -2.2326762676239014
-11.670083045959473 14.728080749511719 -2.232123374938965
-13.052266120910645 13.503005027770996 -2.2308130264282227
-13.313905715942383 13.242178916931152 -2.2305662631988525
-8.817851066589355 8.431899070739746 -1.449245572090149
-13.82142448425293 12.70559024810791 -2.230092763900757
-14.06728458404541 12.429975509643555 -2.229863405227661
-6.918542861938477 14.188576698303223 -2.2366368770599365
-4.31509256362915 8.424614906311035 -1.3411486148834229
-4.500804901123047 8.376882553100586 -1.3473855257034302
-7.740642070770264 13.751025199890137 -2.2358570098876953
-8.27363395690918 13.43289566040039 -2.235351324081421
-8.535310745239258 13.266077995300293 -2.235103130340576
-8.793672561645508 13.094196319580078 -2.2348594665527344
-5.8636627197265625 8.37074089050293 -1.4480881690979004
-9.791543006896973 12.35731315612793 -2.2339231967926025
-7.479537010192871 8.373201370239258 -1.59079909324646
-8.817850112915039 8.431900024414062 -1.7286770343780518
-11.59829330444336 10.66187572479248 -2.232205867767334
-11.817914009094238 10.442291259765625 -2.234477996826172
-5.46931791305542 12.435662269592285 -2.238024950027466
-5.712290287017822 12.32441234588623 -2.237795352935791
-4.500804901123047 8.376882553100586 -1.5665688514709473
-4.764793395996094 8.46452522277832 -1.6001886129379272
-6.891477584838867 11.69808578491211 -2.236680030822754
-7.119527339935303 11.559152603149414 -2.236464262008667
-5.446830749511719 8.465789794921875 -1.6583727598190308
-8.003111839294434 10.959681510925293 -2.2356293201446533
-8.643890380859375 10.478569984436035 -2.2377617359161377
-7.3281569480896 8.535909652709961 -1.8533164262771606
-7.479538440704346 8.373201370239258 -1.849591612815857
-9.297224998474121 10.00478458404541 -2.2499642372131348
-9.686925888061523 9.634761810302734 -2.2507574558258057
-8.817851066589355 8.431899070739746 -2.0098955631256104
-10.062081336975098 9.24970817565918 -2.2515852451324463
-5.00813627243042 10.805058479309082 -2.238471269607544
-4.31509256362915 8.424614906311035 -1.7791277170181274
-4.500805377960205 8.376882553100586 -1.787402629852295
-5.859116554260254 10.40866470336914 -2.2450919151306152
-6.0728583335876465 10.308947563171387 -2.248917579650879
-6.477155685424805 10.067178726196289 -2.2500545978546143
-5.86366081237793 8.370741844177246 -1.9209939241409302
-7.062254905700684 9.671226501464844 -2.250889539718628
-7.252086639404297 9.531698226928711 -2.251185178756714
-7.439148426055908 9.388484954833984 -2.2514891624450684
-7.62344217300415 9.24161434173584 -2.2518014907836914
-7.328155994415283 8.535906791687012 -2.1145546436309814
-8.158798217773438 8.77974796295166 -2.2527875900268555
-8.500445365905762 8.45466423034668 -2.2534844875335693
-8.663983345031738 8.28476333618164 -2.253192901611328
-8.979485511779785 7.934373378753662 -2.2522828578948975
-4.478402614593506 9.662237167358398 -2.251119613647461
-4.667965412139893 9.573060989379883 -2.25130295753479
-5.225837707519531 9.283553123474121 -2.2519030570983887
-5.4079508781433105 9.179848670959473 -2.252119302749634
-5.588030815124512 9.07260513305664 -2.2523438930511475
-5.766002178192139 8.961856842041016 -2.2525763511657715
-5.863661766052246 8.370741844177246 -2.160337448120117
-6.286598205566406 8.609026908874512 -2.2533204555511475
-6.455465316772461 8.484703063964844 -2.2535836696624756
-6.621038436889648 8.356002807617188 -2.2535617351531982
-6.942409992218018 8.086577415466309 -2.252854824066162
-7.098974227905273 7.947164058685303 -2.2524898052215576
-7.25271463394165 7.804708003997803 -2.252117395401001
-7.977088451385498 7.048628807067871 -2.250149726867676
-3.859628915786743 8.775665283203125 -2.2531464099884033
-4.2024054527282715 8.618304252624512 -2.253469228744507
-4.3714470863342285 8.534629821777344 -2.2536418437957764
-4.703951358795166 8.356451034545898 -2.2537407875061035
-4.866858005523682 8.261380195617676 -2.2534866333007812
-5.027847766876221 8.163103103637695 -2.2532248497009277
-5.1868181228637695 8.06165885925293 -2.2529549598693848
-5.343719959259033 7.957093238830566 -2.2526776790618896
-5.949509620666504 7.508500576019287 -2.2514939308166504
-6.095202445983887 7.388988971710205 -2.2511801719665527
-6.238476276397705 7.266632080078125 -2.250859260559082
-6.379275798797607 7.141475200653076 -2.2505316734313965
-6.517543315887451 7.013574600219727 -2.250197172164917
-6.653224945068359 6.882980823516846 -2.249856472015381
-6.918226718902588 6.615415096282959 -2.249668598175049
-3.8128678798675537 7.819491863250732 -2.252474069595337
-3.9655942916870117 7.742259502410889 -2.252265691757202
-4.4140143394470215 7.492671489715576 -2.251596689224243
-4.704294204711914 7.311689853668213 -2.251114845275879
-4.846662521362305 7.2169365882873535 -2.250863552093506
-4.987105369567871 7.11939811706543 -2.250605344772339
-5.125575065612793 7.019094467163086 -2.250340461730957
-5.659733295440674 6.592514991760254 -2.249664783477783
-5.788241386413574 6.479846477508545 -2.249643087387085
-5.914937496185303 6.36470890045166 -2.249630928039551
-6.278992176055908 6.245146751403809 -2.292954683303833
-6.523126602172852 6.237611770629883 -2.3368523120880127
-6.776787757873535 6.229618549346924 -2.383345365524292
-6.952117919921875 6.142900466918945 -2.4020309448242188
-3.624302864074707 7.075937747955322 -2.250622510910034
-3.762453556060791 7.002659320831299 -2.2504255771636963
-4.034232139587402 6.848002910614014 -2.250011682510376
-4.1677470207214355 6.766664505004883 -2.2497949600219727
-4.299835205078125 6.683043003082275 -2.249682664871216
-4.430396556854248 6.597123146057129 -2.2496659755706787
-4.686398029327393 6.417665481567383 -2.249631643295288
-4.954962730407715 6.253347873687744 -2.258647918701172
-5.354188919067383 6.236605644226074 -2.3269224166870117
-5.56516170501709 6.23008918762207 -2.364884614944458
-5.8971147537231445 6.10072660446167 -2.4020309448242188
-6.015944480895996 5.983545780181885 -2.4020309448242188
-3.075721263885498 6.6360015869140625 -2.249674081802368
-3.3343217372894287 6.50982141494751 -2.249650001525879
-3.461712598800659 6.442937850952148 -2.2496371269226074
-3.5877561569213867 6.373579978942871 -2.249630928039551
-3.712446928024292 6.301779747009277 -2.249630928039551
-3.850228786468506 6.251147270202637 -2.2581605911254883
-4.188411712646484 6.236766338348389 -2.31073260307312
-4.849958419799805 6.120903968811035 -2.4020309448242188
-5.087017059326172 5.925400733947754 -2.4020309448242188
-5.316215515136719 5.720733642578125 -2.4020309448242188
-5.537034034729004 5.507213115692139 -2.4020309448242188
-5.749520778656006 5.285173416137695 -2.4020309448242188
-5.852204322814941 5.171059608459473 -2.4020309448242188
-2.8913493156433105 6.238273620605469 -2.285546064376831
-3.04022216796875 6.234889984130859 -2.305773973464966
-3.6638665199279785 6.219086647033691 -2.399312973022461
-3.9099302291870117 6.077045917510986 -2.4020309448242188
-4.0287089347839355 5.998960971832275 -2.4020309448242188
-4.3755316734313965 5.750914096832275 -2.4020309448242188
-4.487739562988281 5.663737773895264 -2.4020309448242188
-4.598269939422607 5.574368000030518 -2.4020309448242188
-4.707070827484131 5.4828386306762695 -2.4020309448242188
-4.8140106201171875 5.389188766479492 -2.4020309448242188
-5.02224588394165 5.195680618286133 -2.4020309448242188
-5.222719192504883 4.994121074676514 -2.4020309448242188
-5.41510009765625 4.78483772277832 -2.4020309448242188
-2.7042076587677 6.148557662963867 -2.4020309448242188
-3.0621256828308105 5.978363513946533 -2.4020309448242188
-3.1791276931762695 5.916975021362305 -2.4020309448242188
-3.4093241691589355 5.787355899810791 -2.4020309448242188
-3.522533416748047 5.71917200088501 -2.4020309448242188
-3.6344072818756104 5.648776531219482 -2.4020309448242188
-3.853749990463257 5.501462459564209 -2.4020309448242188
-4.067147731781006 5.3456292152404785 -2.4020309448242188
-4.274258136749268 5.181523323059082 -2.4020309448242188
-4.762414932250977 4.73676061630249 -2.4020309448242188
-4.854660987854004 4.64216947555542 -2.4020309448242188
-5.033487319946289 4.447635173797607 -2.4020309448242188
-2.5234923362731934 5.737643241882324 -2.4020309448242188
-2.8574817180633545 5.578824996948242 -2.4020309448242188
-2.966665506362915 5.521538734436035 -2.4020309448242188
-3.391254186630249 5.271264553070068 -2.4020309448242188
-3.49452805519104 5.2035346031188965 -2.4020309448242188
-3.6964831352233887 5.062065124511719 -2.4020309448242188
-3.8927276134490967 4.912758827209473 -2.4020309448242188
-3.9886040687561035 4.835238456726074 -2.4020309448242188
-4.175696849822998 4.674613952636719 -2.4020309448242188
-4.266842365264893 4.591575622558594 -2.4020309448242188
-4.356330394744873 4.506762981414795 -2.4020309448242188
-4.530215740203857 4.331930637359619 -2.4020309448242188
-2.362816095352173 5.372352123260498 -2.4020309448242188
-2.4682323932647705 5.324836254119873 -2.4020309448242188
-2.675557851791382 5.223644733428955 -2.4020309448242188
-2.7777886390686035 5.170004844665527 -2.4020309448242188
-2.878943920135498 5.114365577697754 -2.4020309448242188
-2.9789793491363525 5.0567498207092285 -2.4020309448242188
-3.077871561050415 4.9971747398376465 -2.4020309448242188
-3.367246627807617 4.80694580078125 -2.4020309448242188
-3.553699254989624 4.670787811279297 -2.4020309448242188
-3.6448864936828613 4.599984169006348 -2.4020309448242188
-3.909851551055908 4.37700080871582 -2.4020309448242188
-3.9951865673065186 4.299249649047852 -2.4020309448242188
-4.078974723815918 4.2198357582092285 -2.4020309448242188
-4.161191463470459 4.1387834548950195 -2.4020309448242188
-4.241796970367432 4.056135177612305 -2.4020309448242188
-4.320757865905762 3.9719183444976807 -2.4020309448242188
-2.2189183235168457 5.045166969299316 -2.4020309448242188
-2.317720890045166 5.000545978546143 -2.4020309448242188
-2.4156322479248047 4.953990936279297 -2.4020309448242188
-2.5126097202301025 4.905516624450684 -2.4020309448242188
-2.703608274459839 4.802894115447998 -2.4020309448242188
-2.890427827835083 4.6928391456604 -2.4020309448242188
-2.9821789264678955 4.63507604598999 -2.4020309448242188
-3.2503557205200195 4.451122760772705 -2.4020309448242188
-3.337273597717285 4.386329650878906 -2.4020309448242188
-3.5072178840637207 4.251674175262451 -2.4020309448242188
-3.590169668197632 4.181863784790039 -2.4020309448242188
-3.671736478805542 4.1104350090026855 -2.4020309448242188
-3.9077703952789307 3.8867266178131104 -2.4020309448242188
-4.0576171875 3.730020046234131 -2.4020309448242188
-2.456069231033325 4.571230888366699 -2.4020309448242188
-2.5455162525177 4.52203369140625 -2.4020309448242188
-2.6339635848999023 4.471091270446777 -2.4020309448242188
-2.7214012145996094 4.418415546417236 -2.4020309448242188
-2.8930883407592773 4.307957649230957 -2.4020309448242188
-2.977264404296875 4.250220775604248 -2.4020309448242188
-3.0602874755859375 4.190834999084473 -2.4020309448242188
-3.1421234607696533 4.129831314086914 -2.4020309448242188
-3.532474994659424 3.801323175430298 -2.4020309448242188
-3.6065611839294434 3.7311065196990967 -2.4020309448242188
-3.6792571544647217 3.6594419479370117 -2.4020309448242188
-3.750525951385498 3.5863659381866455 -2.4020309448242188
-3.820340394973755 3.5119006633758545 -2.4020309448242188
-2.1462230682373047 4.401486873626709 -2.4020309448242188
-2.317685604095459 4.31366491317749 -2.4020309448242188
-2.4020848274230957 4.267241954803467 -2.4020309448242188
-2.4855566024780273 4.219168186187744 -2.4020309448242188
-2.568068742752075 4.169460296630859 -2.4020309448242188
-2.730074405670166 4.065225601196289 -2.4020309448242188
-2.8878533840179443 3.9547033309936523 -2.4020309448242188
-3.0411620140075684 3.838060140609741 -2.4020309448242188
-3.189769744873047 3.715472936630249 -2.4020309448242188
-3.3334386348724365 3.587137460708618 -2.4020309448242188
-3.403348207473755 3.520878791809082 -2.4020309448242188
-3.539201498031616 3.384291410446167 -2.4020309448242188
-3.6695737838745117 3.24246883392334 -2.4020309448242188
-1.864071011543274 4.238351821899414 -2.4020309448242188
-2.029329776763916 4.161754608154297 -2.4020309448242188
-2.110797166824341 4.121032238006592 -2.4020309448242188
-2.3501782417297363 3.989366292953491 -2.4020309448242188
-2.505272150039673 3.893839120864868 -2.4020309448242188
-2.5813794136047363 3.84380841255188 -2.4020309448242188
-2.6564855575561523 3.7922918796539307 -2.4020309448242188
-2.7305638790130615 3.7393059730529785 -2.4020309448242188
-2.8035850524902344 3.6848742961883545 -2.4020309448242188
-2.9463489055633545 3.5717523097991943 -2.4020309448242188
-3.1518778800964355 3.3917577266693115 -2.4020309448242188
-3.217982053756714 3.329108715057373 -2.4020309448242188
-3.2828454971313477 3.265164613723755 -2.4020309448242188
-3.346435546875 3.199962615966797 -2.4020309448242188
-3.4697070121765137 3.065864086151123 -2.4020309448242188
-1.8442529439926147 3.979017972946167 -2.4020309448242188
-2.0757200717926025 3.8633196353912354 -2.4020309448242188
-2.1513121128082275 3.8217413425445557 -2.4020309448242188
-2.3729686737060547 3.688206195831299 -2.4020309448242188
-2.586362361907959 3.541832208633423 -2.4020309448242188
-2.6555285453796387 3.490273952484131 -2.4020309448242188
-2.7907519340515137 3.383127450942993 -2.4020309448242188
-2.856759548187256 3.327578067779541 -2.4020309448242188
-2.921661376953125 3.2707409858703613 -2.4020309448242188
-2.9854283332824707 3.2126402854919434 -2.4020309448242188
-3.0480406284332275 3.153298854827881 -2.4020309448242188
-3.169710636138916 3.0309715270996094 -2.4020309448242188
-3.2287144660949707 2.96803879737854 -2.4020309448242188
-1.749550700187683 3.7746989727020264 -2.4020309448242188
-1.8966612815856934 3.70296311378479 -2.4020309448242188
-1.9691332578659058 3.6649389266967773 -2.4020309448242188
-2.1117589473724365 3.584653854370117 -2.4020309448242188
-2.31950306892395 3.453862190246582 -2.4020309448242188
-2.3869895935058594 3.4075732231140137 -2.4020309448242188
-2.4535534381866455 3.3599607944488525 -2.4020309448242188
-2.5191686153411865 3.311052083969116 -2.4020309448242188
-2.647447347640991 3.209407329559326 -2.4020309448242188
-2.7100670337677 3.1567113399505615 -2.4020309448242188
-2.8321263790130615 3.0476744174957275 -2.4020309448242188
-2.89152455329895 2.9913787841796875 -2.4020309448242188
-2.949807643890381 2.9339213371276855 -2.4020309448242188
-3.006948232650757 2.875333786010742 -2.4020309448242188
