ply
format ascii 1.0
element vertex 542
property float x
property float y
property float z
end_header
-17.3102970123291 25.75251579284668 5.471360206604004
-17.306713104248047 22.637123107910156 5.024425506591797
-17.30564308166504 21.707496643066406 4.8951005935668945
-17.837158203125 20.599224090576172 4.804686546325684
-18.23147964477539 34.15857696533203 5.9316020011901855
-17.246746063232422 25.657970428466797 4.736115455627441
-17.24674415588379 24.565351486206055 4.598146915435791
-17.24673843383789 21.633607864379883 4.238430500030518
-17.246736526489258 19.11860466003418 3.9444830417633057
-16.79832649230957 34.80636978149414 5.032773971557617
-19.118627548217773 34.13349151611328 5.094642162322998
-17.246742248535156 23.53418731689453 3.799478769302368
-17.246740341186523 22.55866813659668 3.6977763175964355
-17.837158203125 20.599224090576172 3.5483484268188477
-17.111576080322266 33.69004440307617 4.057587623596191
-17.785808563232422 33.32358169555664 4.056126117706299
-17.30903434753418 24.65407371520996 3.23471736907959
-17.307842254638672 23.61756706237793 3.1441986560821533
-17.305644989013672 21.707496643066406 2.9810779094696045
-17.837158203125 20.599225997924805 2.926015615463257
-17.305377960205078 19.183612823486328 2.7742908000946045
-17.306255340576172 18.41835594177246 2.7138965129852295
-17.3102970123291 25.75251007080078 2.626746654510498
-17.837158203125 20.599218368530273 2.3066787719726562
-17.246736526489258 19.11860466003418 2.1796576976776123
-0.8100610375404358 18.61981201171875 1.155713677406311
-1.1724902391433716 18.356639862060547 1.1406211853027344
-1.676611304283142 19.89006233215332 1.23776376247406
-16.311880111694336 33.798458099365234 2.327174186706543
-17.784868240356445 33.321800231933594 2.3421878814697266
-18.81342887878418 33.588619232177734 2.387310266494751
-17.246742248535156 23.534204483032227 1.8092875480651855
-17.246736526489258 19.118600845336914 1.5966547727584839
-17.246734619140625 18.35501480102539 1.5618183612823486
-0.4621069133281708 19.941431045532227 0.7865223288536072
-1.2959215641021729 20.289098739624023 0.8016505241394043
-1.7195409536361694 20.399349212646484 0.8072199821472168
-13.968969345092773 38.49430465698242 1.6147193908691406
-15.97492504119873 36.852691650390625 1.58379065990448
-16.23174476623535 33.632408142089844 1.472529411315918
-17.46059226989746 32.71426010131836 1.4621919393539429
-18.580154418945312 33.172149658203125 1.4992152452468872
-17.246746063232422 25.657968521118164 1.2190382480621338
-17.246742248535156 23.53418731689453 1.1504859924316406
-17.573766708374023 22.986427307128906 1.1409220695495605
-17.837162017822266 22.374208450317383 1.1282856464385986
-17.837158203125 21.465023040771484 1.1004798412322998
-17.837158203125 20.599224090576172 1.0744444131851196
-17.837158203125 18.983375549316406 1.0271247625350952
-16.070913314819336 33.299137115478516 0.624563455581665
-18.662641525268555 33.31939697265625 0.6450971961021423
-17.837162017822266 23.330934524536133 0.4960829019546509
-17.837162017822266 22.374210357666016 0.48334425687789917
-17.837160110473633 21.46502113342285 0.471432626247406
-16.082653045654297 35.12852096557617 -0.2175227254629135
-16.339279174804688 33.85520935058594 -0.21164870262145996
-18.794677734375 33.55513381958008 -0.2165382355451584
-17.837162017822266 23.33095359802246 -0.1653488129377365
-17.837162017822266 22.374210357666016 -0.1611030548810959
-17.837158203125 21.46502113342285 -0.15713241696357727
-17.837158203125 18.983375549316406 -0.1466592401266098
-0.7372058033943176 31.81282615661621 -0.8960177302360535
-2.0220799446105957 31.657873153686523 -0.8932310342788696
-2.692145824432373 31.93764305114746 -0.9024814963340759
-3.330082893371582 31.780179977416992 -0.8997581005096436
-4.008175373077393 31.972639083862305 -0.9073249697685242
-5.32819938659668 31.93355369567871 -0.9116079211235046
-11.146222114562988 40.76982879638672 -1.1901167631149292
-13.070161819458008 31.91246223449707 -0.9710282683372498
-13.761799812316895 31.747209548950195 -0.9743043184280396
-15.38910961151123 31.886505126953125 -0.9969483613967896
-16.249990463256836 31.993751525878906 -1.010413646697998
-17.03646469116211 31.919618606567383 -1.018790364265442
-17.890867233276367 31.941532135009766 -1.030875325202942
-20.573270797729492 31.991350173950195 -1.070997714996338
-21.46615219116211 31.935176849365234 -1.083489179611206
-17.837162017822266 22.374217987060547 -0.8057098388671875
-17.837160110473633 21.46501922607422 -0.7858540415763855
-0.5751330256462097 24.81855010986328 -1.2589943408966064
-1.0797436237335205 24.81855010986328 -1.2598446607589722
-3.326975107192993 31.750545501708984 -1.6190214157104492
-4.645299434661865 31.8071231842041 -1.6301870346069336
-5.982381343841553 31.854938507080078 -1.6437416076660156
-7.3251776695251465 31.821290969848633 -1.656000018119812
-13.142009735107422 41.384090423583984 -2.2020480632781982
-11.026634216308594 32.42497253417969 -1.7368830442428589
-11.605534553527832 31.981395721435547 -1.7254022359848022
-12.283730506896973 31.819774627685547 -1.7297866344451904
-13.071303367614746 31.91524314880371 -1.7490488290786743
-13.807875633239746 31.85350227355957 -1.7606719732284546
-17.034038543701172 31.915042877197266 -1.8346565961837769
-21.50100326538086 31.98702621459961 -1.9546117782592773
-25.666128158569336 35.02292251586914 -2.2020480632781982
-17.837162017822266 22.37421417236328 -1.451145887374878
-17.837158203125 20.599220275878906 -1.3818981647491455
-17.837160110473633 19.77310562133789 -1.3505053520202637
-17.837158203125 18.983375549316406 -1.321039080619812
-1.4098339080810547 22.072433471679688 -1.6216965913772583
-3.735715866088867 29.79926109313965 -2.2020480632781982
-4.340091228485107 29.717252731323242 -2.2020480632781982
-5.5432047843933105 29.516508102416992 -2.2020480632781982
-6.141458034515381 29.397850036621094 -2.2020480632781982
-7.920053958892822 28.969369888305664 -2.2020480632781982
-9.111857414245605 28.693178176879883 -2.2073793411254883
-9.757560729980469 28.693178176879883 -2.222167730331421
-10.390186309814453 28.632240295410156 -2.2333319187164307
-10.966789245605469 28.408363342285156 -2.232783794403076
-12.10540771484375 27.92608642578125 -2.231701374053955
-13.223097801208496 27.39845085144043 -2.2306389808654785
-13.773504257202148 27.117916107177734 -2.2301156520843506
-15.388527870178223 26.210895538330078 -2.2285804748535156
-15.914069175720215 25.887184143066406 -2.2280807495117188
-17.946624755859375 24.489213943481445 -2.2261486053466797
-17.837162017822266 23.330942153930664 -2.1533467769622803
-17.837158203125 20.599220275878906 -1.9979335069656372
-0.7276355028152466 16.725095748901367 -1.6072125434875488
-1.068027377128601 16.72113800048828 -1.6085848808288574
-1.4053235054016113 16.67172622680664 -1.60624361038208
-2.9028351306915283 23.155508041381836 -2.240445613861084
-3.839179039001465 23.00939178466797 -2.239555835723877
-4.7684502601623535 22.825517654418945 -2.2386724948883057
-5.689155578613281 22.604223251342773 -2.237797260284424
-7.05084228515625 22.20305824279785 -2.2365031242370605
-8.384880065917969 21.7202091217041 -2.2352349758148193
-9.256505012512207 21.353900909423828 -2.2344064712524414
-9.6864595413208 21.15765380859375 -2.2339978218078613
-10.53378963470459 20.739425659179688 -2.2331924438476562
-11.363237380981445 20.287391662597656 -2.2324037551879883
-12.570963859558105 19.547792434692383 -2.2312557697296143
-13.34991455078125 19.014911651611328 -2.230515241622925
-13.731081008911133 18.736867904663086 -2.2301528453826904
-14.106459617614746 18.45119857788086 -2.2297961711883545
-14.475969314575195 18.158063888549805 -2.229444742202759
-14.83944320678711 17.857606887817383 -2.2290992736816406
-15.196687698364258 17.549880981445312 -2.228759527206421
-15.547636032104492 17.23509407043457 -2.228426218032837
-0.7276330590248108 16.725095748901367 -1.9885848760604858
-1.4053235054016113 16.67170524597168 -1.9873870611190796
-1.9663878679275513 18.765941619873047 -2.2413339614868164
-2.72589111328125 18.664609909057617 -2.240612030029297
-4.228753566741943 18.37014389038086 -2.2391836643218994
-4.600208759307861 18.277597427368164 -2.23883056640625
-5.336915016174316 18.070079803466797 -2.2381303310394287
-5.701882362365723 17.95518684387207 -2.237783432006836
-6.424289226531982 17.703418731689453 -2.2370967864990234
-6.781445026397705 17.566638946533203 -2.236757516860962
-7.834944248199463 17.11347770690918 -2.2357559204101562
-8.179656028747559 16.9483585357666 -2.2354283332824707
-8.52090072631836 16.77632713317871 -2.2351038455963135
-8.858560562133789 16.597440719604492 -2.2347829341888428
-9.522523880004883 16.2194766998291 -2.2341532707214355
-11.1101655960083 15.160445213317871 -2.232652187347412
-11.713587760925293 14.693058967590332 -2.2320821285247803
-12.008062362670898 14.450348854064941 -2.2318029403686523
-7.311066627502441 8.443184852600098 -1.3266793489456177
-12.58183765411377 13.947426795959473 -2.2312588691711426
-12.860983848571777 13.687421798706055 -2.230994462966919
-0.3667236268520355 15.825125694274902 -2.2428531646728516
-1.0087352991104126 15.792881965637207 -2.2422430515289307
-1.6487170457839966 15.734624862670898 -2.2416350841522217
-3.8578343391418457 15.327950477600098 -2.2395384311676025
-4.167720317840576 15.244451522827148 -2.2392446994781494
-4.475828170776367 15.154696464538574 -2.238953113555908
-4.782095909118652 15.058730125427246 -2.2386629581451416
-5.086205959320068 14.956591606140137 -2.238374948501587
-5.6878886222839355 14.733969688415527 -2.237804651260376
-5.985170841217041 14.613587379455566 -2.237522602081299
-6.279932022094727 14.487217903137207 -2.2372429370880127
-6.57200813293457 14.354928016662598 -2.2369656562805176
-6.8613152503967285 14.216763496398926 -2.2366912364959717
-4.298577785491943 8.463232040405273 -1.3449597358703613
-4.462762355804443 8.361459732055664 -1.342914342880249
-8.26220417022705 13.44001579284668 -2.2353622913360596
-8.532459259033203 13.267936706542969 -2.2351057529449463
-5.873984336853027 8.36660099029541 -1.448447823524475
-9.321393966674805 12.71957778930664 -2.2343640327453613
-10.075356483459473 12.124573707580566 -2.2336556911468506
-7.311066627502441 8.443184852600098 -1.58249032497406
-10.557226181030273 11.703064918518066 -2.233201026916504
-7.958991050720215 8.470446586608887 -1.6468538045883179
-0.591693103313446 13.600448608398438 -2.2426466941833496
-0.8676501512527466 13.584041595458984 -2.242384672164917
-1.1431957483291626 13.562039375305176 -2.2421228885650635
-1.966156005859375 13.46257495880127 -2.2413415908813477
-2.510622501373291 13.368550300598145 -2.2408244609832764
-2.7812585830688477 13.31328296661377 -2.240567684173584
-3.050694465637207 13.252546310424805 -2.240311861038208
-3.318814516067505 13.18636417388916 -2.2400574684143066
-2.846796751022339 8.371325492858887 -1.4566454887390137
-3.0704948902130127 8.461383819580078 -1.4828622341156006
-5.403284072875977 12.464910507202148 -2.2380871772766113
-5.654707908630371 12.351302146911621 -2.2378499507904053
-5.903748512268066 12.232637405395508 -2.237614154815674
-4.462758541107178 8.361458778381348 -1.5613778829574585
-4.741061210632324 8.464481353759766 -1.5982677936553955
-6.874072074890137 11.708433151245117 -2.236696481704712
-5.444244861602783 8.465785026550293 -1.658140778541565
-7.571986675262451 11.264837265014648 -2.236036539077759
-8.021638870239258 10.94599723815918 -2.235611915588379
-8.241552352905273 10.77983283996582 -2.2354013919830322
-8.458740234375 10.609810829162598 -2.235309600830078
-8.685975074768066 10.452413558959961 -2.238856554031372
-9.35276985168457 9.953775405883789 -2.2500734329223633
-1.7234338521957397 11.800616264343262 -2.241584062576294
-1.3931554555892944 8.349641799926758 -1.5911009311676025
-2.200752019882202 11.718533515930176 -2.241131544113159
-2.6742405891418457 11.61717700958252 -2.24068284034729
-2.3129003047943115 8.459980010986328 -1.648499846458435
-2.4926037788391113 8.439631462097168 -1.6540600061416626
-3.606675386428833 11.357393264770508 -2.2397994995117188
-2.8467979431152344 8.371325492858887 -1.6619739532470703
-4.064087390899658 11.199408531188965 -2.239366292953491
-4.290266036987305 11.11350154876709 -2.239151954650879
-3.465763568878174 8.462118148803711 -1.7187774181365967
-3.6683189868927 8.462492942810059 -1.733629584312439
-4.298575401306152 8.463238716125488 -1.7841798067092896
-4.462759494781494 8.361458778381348 -1.7814692258834839
-5.835867404937744 10.419059753417969 -2.244649648666382
-6.0572123527526855 10.317153930664062 -2.2487356662750244
-6.474979877471924 10.06856632232666 -2.250051498413086
-5.873984336853027 8.36660099029541 -1.921462059020996
-7.078731060028076 9.65933895111084 -2.2509148120880127
-7.467185020446777 9.366519927978516 -2.2515358924865723
-7.656963348388672 9.21428108215332 -2.2518599033355713
-7.311066627502441 8.443185806274414 -2.099269151687622
-8.027193069458008 8.898422241210938 -2.2525339126586914
-0.6768957376480103 10.59791374206543 -2.244750738143921
-0.892073929309845 10.583441734313965 -2.245060443878174
-1.3216259479522705 10.543439865112305 -2.24611496925354
-1.5360851287841797 10.518233299255371 -2.246929168701172
-1.3931554555892944 8.349641799926758 -1.7893459796905518
-2.8069775104522705 10.267111778259277 -2.2499072551727295
-3.0150537490844727 10.20850944519043 -2.250020980834961
-3.6316611766815186 10.007757186889648 -2.2504184246063232
-3.8343992233276367 9.932612419128418 -2.2505693435668945
-4.433055400848389 9.682900428771973 -2.25107741355896
-4.629166126251221 9.591680526733398 -2.251264810562134
-4.462758541107178 8.361458778381348 -2.0034353733062744
-5.206009864807129 9.294564247131348 -2.251880168914795
-5.873984336853027 8.36660099029541 -2.160872459411621
-6.3012542724609375 8.59843635559082 -2.253342866897583
-6.475345134735107 8.469730377197266 -2.253615617752075
-6.976434707641602 8.05673885345459 -2.252776622772217
-7.137409687042236 7.912075042724609 -2.2523980140686035
-0.2219579964876175 9.577994346618652 -2.2516534328460693
-0.6106933355331421 9.56110954284668 -2.251659393310547
-0.8047387599945068 9.546804428100586 -2.251675605773926
-0.9984521269798279 9.52859878540039 -2.2517006397247314
-1.1917626857757568 9.506500244140625 -2.2517340183258057
-1.3845922946929932 9.480514526367188 -2.2517762184143066
-1.3931554555892944 8.349641799926758 -1.989484190940857
-1.9594298601150513 9.379364967346191 -2.251955032348633
-2.3388452529907227 9.292731285095215 -2.252117156982422
-3.6331968307495117 8.870912551879883 -2.2529523372650146
-3.9909703731536865 8.717277526855469 -2.253265857696533
-4.167481422424316 8.635083198547363 -2.253434658050537
-4.342321872711182 8.549342155456543 -2.2536115646362305
-4.51540994644165 8.460092544555664 -2.253796339035034
-4.854590892791748 8.268697738647461 -2.2535061836242676
-5.185084819793701 8.062788009643555 -2.252958059310913
-5.506782054901123 7.843571662902832 -2.2523772716522217
-5.81915283203125 7.611426830291748 -2.2517647743225098
-6.121676921844482 7.3667497634887695 -2.2511215209960938
-6.413845062255859 7.109970569610596 -2.2504491806030273
-6.555896282196045 6.977182388305664 -2.2501022815704346
-0.20164673030376434 8.701614379882812 -2.2536087036132812
-0.5548180937767029 8.686270713806152 -2.2536141872406006
-0.9070947170257568 8.65672492980957 -2.2536513805389404
-1.0827124118804932 8.636632919311523 -2.2536818981170654
-1.3931554555892944 8.349641799926758 -2.191757917404175
-1.6066771745681763 8.555214881896973 -2.2538208961486816
-1.7801220417022705 8.5210542678833 -2.253882884979248
-1.952856421470642 8.483415603637695 -2.253952741622925
-2.295819044113159 8.397549629211426 -2.2540676593780518
-2.465749502182007 8.348682403564453 -2.2539291381835938
-2.6346020698547363 8.296347618103027 -2.253781795501709
-2.968881845474243 8.181363105773926 -2.2534618377685547
-3.2981231212615967 8.052794456481934 -2.253108263015747
-3.460691452026367 7.983490943908691 -2.2529187202453613
-3.939286470413208 7.755842208862305 -2.2523021697998047
-4.250119686126709 7.587961196899414 -2.2518515586853027
-4.402871131896973 7.499298572540283 -2.2516143321990967
-4.7027268409729 7.312716007232666 -2.251117706298828
-4.849692344665527 7.214881896972656 -2.2508580684661865
-5.137425422668457 7.010319232940674 -2.250317096710205
-5.416476249694824 6.794205665588379 -2.2497479915618896
-5.553163528442383 6.682618141174316 -2.2496819496154785
-5.687655448913574 6.568403720855713 -2.2496602535247803
-5.819818496704102 6.451486110687256 -2.2496376037597656
-5.949623107910156 6.331947326660156 -2.249630928039551
-0.1843896508216858 7.956929683685303 -2.2531561851501465
-0.34593138098716736 7.951442718505859 -2.253127336502075
-0.5073193311691284 7.942655086517334 -2.2530903816223145
-0.8293883800506592 7.915154933929443 -2.2529914379119873
-1.1500377655029297 7.874488353729248 -2.252859354019165
-1.3096654415130615 7.849229335784912 -2.2527811527252197
-1.6271789073944092 7.788949966430664 -2.2525999546051025
-1.941933512687683 7.715722560882568 -2.2523868083953857
-2.0981078147888184 7.674299240112305 -2.252268075942993
-2.2533910274505615 7.629680633544922 -2.2521417140960693
-2.561022996902466 7.530964374542236 -2.2518651485443115
-3.3100156784057617 7.229904651641846 -2.2510387897491455
-3.4558677673339844 7.160607814788818 -2.2508511543273926
-3.600252628326416 7.08833646774292 -2.2506558895111084
-3.7431211471557617 7.013131141662598 -2.2504537105560303
-3.8844029903411865 6.935029029846191 -2.250244140625
-4.433192253112793 6.5952630043029785 -2.2496657371520996
-4.698898792266846 6.412990570068359 -2.2507829666137695
-4.82646369934082 6.312995910644531 -2.249630928039551
-5.186674118041992 6.241659641265869 -2.297426462173462
-5.399174213409424 6.2352294921875 -2.3349454402923584
-0.1695898473262787 7.318286418914795 -2.2515525817871094
-0.3181689381599426 7.3132476806640625 -2.25152587890625
-0.6148449778556824 7.294051170349121 -2.2514500617980957
-1.4966076612472534 7.163931846618652 -2.2510414123535156
-1.6417113542556763 7.1317644119262695 -2.2509469985961914
-1.7861205339431763 7.09663200378418 -2.250845193862915
-1.9297655820846558 7.058559894561768 -2.2507362365722656
-2.072603702545166 7.017552375793457 -2.250619888305664
-2.495603084564209 6.877138137817383 -2.250227689743042
-2.634577512741089 6.824599266052246 -2.2500827312469482
-2.7724292278289795 6.769235610961914 -2.2499308586120605
-2.9091174602508545 6.711068153381348 -2.249772071838379
-3.3121557235717773 6.52113676071167 -2.249652147293091
-3.4439024925231934 6.452494144439697 -2.2496390342712402
-3.574169874191284 6.381206035614014 -2.249630928039551
-3.8434038162231445 6.2520060539245605 -2.2572848796844482
-4.0139079093933105 6.241573333740234 -2.2824831008911133
-4.5626020431518555 6.2259368896484375 -2.374131679534912
-4.743215084075928 6.204060077667236 -2.4020309448242188
-4.86820125579834 6.106459140777588 -2.4020309448242188
-5.112135887145996 5.903743267059326 -2.4020309448242188
-5.230836868286133 5.798712730407715 -2.4020309448242188
-5.347723960876465 5.691288948059082 -2.4020309448242188
-0.1568273901939392 6.76753044128418 -2.250169277191162
-0.5685741901397705 6.745141983032227 -2.250074863433838
-0.8419616222381592 6.716198444366455 -2.249976873397827
-1.2492296695709229 6.651880741119385 -2.249777317047119
-1.6518077850341797 6.563135623931885 -2.2496609687805176
-1.9169360399246216 6.490609169006348 -2.2496469020843506
-2.178194522857666 6.407841682434082 -2.2497963905334473
-2.308697462081909 6.3618011474609375 -2.249630928039551
-2.437311887741089 6.313610553741455 -2.249630928039551
-3.1652703285217285 6.231927394866943 -2.3234143257141113
-3.4860589504241943 6.223847389221191 -2.3712635040283203
-3.6515660285949707 6.219421863555908 -2.397339344024658
-4.031235694885254 5.997264862060547 -2.4020309448242188
-4.388923168182373 5.740684509277344 -2.4020309448242188
-4.504552364349365 5.6503729820251465 -2.4020309448242188
-4.618373870849609 5.557732582092285 -2.4020309448242188
-0.14573974907398224 6.289097785949707 -2.249630928039551
-0.7835766673088074 6.24948787689209 -2.2523553371429443
-0.9120800495147705 6.245152473449707 -2.2570040225982666
-1.0411803722381592 6.2401123046875 -2.2623586654663086
-1.1713098287582397 6.237074375152588 -2.2694149017333984
-1.5686755180358887 6.232680320739746 -2.2983622550964355
-1.839663028717041 6.228851318359375 -2.3226022720336914
-1.9773461818695068 6.226654529571533 -2.336275815963745
-2.7960686683654785 6.107324600219727 -2.4020309448242188
-2.9195196628570557 6.049284934997559 -2.4020309448242188
-3.041759490966797 5.988754749298096 -2.4020309448242188
-3.1627519130706787 5.925744533538818 -2.4020309448242188
-3.28243088722229 5.860297679901123 -2.4020309448242188
-3.400691509246826 5.792431354522705 -2.4020309448242188
-3.633134126663208 5.649561405181885 -2.4020309448242188
-3.747142791748047 5.574621677398682 -2.4020309448242188
-4.079648971557617 5.336121559143066 -2.4020309448242188
-4.187267303466797 5.252173900604248 -2.4020309448242188
-4.599526405334473 4.89508581161499 -2.4020309448242188
-0.14399413764476776 6.213751316070557 -2.3818612098693848
-0.396881103515625 6.213597774505615 -2.3860156536102295
-0.5237402319908142 6.213264465332031 -2.389479875564575
-0.6510815024375916 6.212759971618652 -2.393876791000366
-0.9058117270469666 6.2022576332092285 -2.4020309448242188
-1.2817578315734863 6.13559627532959 -2.4020309448242188
-1.5298681259155273 6.078485488891602 -2.4020309448242188
-1.6529858112335205 6.046167373657227 -2.4020309448242188
-1.897133708000183 5.974057674407959 -2.4020309448242188
-2.0180554389953613 5.934304237365723 -2.4020309448242188
-2.1381492614746094 5.892098426818848 -2.4020309448242188
-2.375570058822632 5.800415992736816 -2.4020309448242188
-2.60919189453125 5.699168682098389 -2.4020309448242188
-2.7243456840515137 5.645007133483887 -2.4020309448242188
-2.83847713470459 5.5885210037231445 -2.4020309448242188
-2.951383590698242 5.529722690582275 -2.4020309448242188
-3.063063383102417 5.468649387359619 -2.4020309448242188
-3.1734869480133057 5.405319690704346 -2.4020309448242188
-3.282599925994873 5.339760780334473 -2.4020309448242188
-3.3903985023498535 5.271995544433594 -2.4020309448242188
-3.496713876724243 5.202064037322998 -2.4020309448242188
-3.601639986038208 5.129980564117432 -2.4020309448242188
-3.806971311569214 4.979504108428955 -2.4020309448242188
-4.0060343742370605 4.8208112716674805 -2.4020309448242188
-4.198479652404785 4.654163837432861 -2.4020309448242188
-4.292130470275879 4.567943572998047 -2.4020309448242188
-0.2550915479660034 5.863443851470947 -2.4020309448242188
-0.49297118186950684 5.8482513427734375 -2.4020309448242188
-0.61163330078125 5.837032794952393 -2.4020309448242188
-0.7300378084182739 5.8234100341796875 -2.4020309448242188
-1.0832347869873047 5.768154621124268 -2.4020309448242188
-1.2002453804016113 5.744967460632324 -2.4020309448242188
-1.31658935546875 5.7194108963012695 -2.4020309448242188
-1.4324877262115479 5.691493511199951 -2.4020309448242188
-1.547737956047058 5.661232948303223 -2.4020309448242188
-1.6623656749725342 5.628633975982666 -2.4020309448242188
-2.224390745162964 5.431128025054932 -2.4020309448242188
-2.334223508834839 5.384837627410889 -2.4020309448242188
-2.443091869354248 5.336325645446777 -2.4020309448242188
-2.868049144744873 5.120484352111816 -2.4020309448242188
-3.073613166809082 4.999797344207764 -2.4020309448242188
-3.2740917205810547 4.870869159698486 -2.4020309448242188
-3.372337579727173 4.803376197814941 -2.4020309448242188
-3.564592123031616 4.662480354309082 -2.4020309448242188
-3.6585443019866943 4.58912992477417 -2.4020309448242188
-3.7509801387786865 4.513888359069824 -2.4020309448242188
-3.8418760299682617 4.436784744262695 -2.4020309448242188
-3.931178569793701 4.357851982116699 -2.4020309448242188
-4.0188703536987305 4.277121543884277 -2.4020309448242188
-0.1276879906654358 5.5100812911987305 -2.4020309448242188
-0.23955565690994263 5.50635290145874 -2.4020309448242188
-0.4629479944705963 5.49208402633667 -2.4020309448242188
-0.6855810284614563 5.468756675720215 -2.4020309448242188
-1.0172911882400513 5.416865825653076 -2.4020309448242188
-1.2364087104797363 5.371089458465576 -2.4020309448242188
-1.4534863233566284 5.316454887390137 -2.4020309448242188
-1.9849181175231934 5.141732215881348 -2.4020309448242188
-2.088916063308716 5.10036563873291 -2.4020309448242188
-2.2943053245544434 5.011333465576172 -2.4020309448242188
-2.4958958625793457 4.914040565490723 -2.4020309448242188
-2.6933789253234863 4.808638095855713 -2.4020309448242188
-2.790476083755493 4.752951145172119 -2.4020309448242188
-2.886420726776123 4.6953043937683105 -2.4020309448242188
-3.0746965408325195 4.574225425720215 -2.4020309448242188
-3.347506046295166 4.3785271644592285 -2.4020309448242188
-3.4357354640960693 4.3096442222595215 -2.4020309448242188
-3.522542715072632 4.238986492156982 -2.4020309448242188
-3.691767454147339 4.092452526092529 -2.4020309448242188
-0.12021728605031967 5.187869548797607 -2.4020309448242188
-0.330780029296875 5.178709030151367 -2.4020309448242188
-0.4358776807785034 5.170924186706543 -2.4020309448242188
-0.6454846262931824 5.148960590362549 -2.4020309448242188
-0.7499157786369324 5.134790420532227 -2.4020309448242188
-0.9578039050102234 5.100105285644531 -2.4020309448242188
-1.0611693859100342 5.0796027183532715 -2.4020309448242188
-1.3684923648834229 5.0055670738220215 -2.4020309448242188
-1.4698607921600342 4.976744174957275 -2.4020309448242188
-1.570616364479065 4.945868968963623 -2.4020309448242188
-1.6707311868667603 4.912952899932861 -2.4020309448242188
-1.7701525688171387 4.878013610839844 -2.4020309448242188
-1.9667675495147705 4.80211067199707 -2.4020309448242188
-2.063883066177368 4.76118278503418 -2.4020309448242188
-2.1601414680480957 4.718287467956543 -2.4020309448242188
-2.3499510288238525 4.626682758331299 -2.4020309448242188
-2.4434239864349365 4.578007221221924 -2.4020309448242188
-2.6272997856140137 4.475012302398682 -2.4020309448242188
-2.717633008956909 4.4207353591918945 -2.4020309448242188
-2.8068432807922363 4.36463737487793 -2.4020309448242188
-2.8948967456817627 4.306740760803223 -2.4020309448242188
-2.9817614555358887 4.247062683105469 -2.4020309448242188
-3.151756525039673 4.1224846839904785 -2.4020309448242188
-3.396920680999756 3.922929525375366 -2.4020309448242188
-0.3121374547481537 4.8869147300720215 -2.4020309448242188
-0.4113134741783142 4.879569053649902 -2.4020309448242188
-0.5103198289871216 4.870209693908691 -2.4020309448242188
-0.8059118390083313 4.830101013183594 -2.4020309448242188
-0.9038329720497131 4.812738418579102 -2.4020309448242188
-1.001376986503601 4.793392181396484 -2.4020309448242188
-1.291378140449524 4.723526954650879 -2.4020309448242188
-1.3870348930358887 4.696328163146973 -2.4020309448242188
-1.48211669921875 4.667192459106445 -2.4020309448242188
-1.670408844947815 4.603161334991455 -2.4020309448242188
-1.9475878477096558 4.492912292480469 -2.4020309448242188
-2.305748224258423 4.3200578689575195 -2.4020309448242188
-2.479262590408325 4.222869873046875 -2.4020309448242188
-2.5645079612731934 4.171651363372803 -2.4020309448242188
-2.648696184158325 4.118710994720459 -2.4020309448242188
-2.894559144973755 3.949798583984375 -2.4020309448242188
-3.0525572299957275 3.829003095626831 -2.4020309448242188
-3.129683256149292 3.766225576400757 -2.4020309448242188
-3.2800352573394775 3.636033773422241 -2.4020309448242188
-3.353196859359741 3.5686748027801514 -2.4020309448242188
-0.20124877989292145 4.625784873962402 -2.4020309448242188
-0.48252928256988525 4.604948043823242 -2.4020309448242188
-0.5759387016296387 4.594198703765869 -2.4020309448242188
-0.9468408226966858 4.532313823699951 -2.4020309448242188
-1.0386828184127808 4.512152671813965 -2.4020309448242188
-1.2210460901260376 4.466254711151123 -2.4020309448242188
-1.311492919921875 4.440537452697754 -2.4020309448242188
-1.490721344947815 4.3836212158203125 -2.4020309448242188
-2.2626609802246094 4.039647102355957 -2.4020309448242188
-2.3442296981811523 3.992866039276123 -2.4020309448242188
-2.5044336318969727 3.894381046295166 -2.4020309448242188
-2.582998037338257 3.842722177505493 -2.4020309448242188
-2.886296272277832 3.6204521656036377 -2.4020309448242188
-2.959223508834839 3.56109356880188 -2.4020309448242188
-3.101384162902832 3.437993049621582 -2.4020309448242188
-3.1705615520477295 3.3743035793304443 -2.4020309448242188
-0.10160277783870697 4.384462833404541 -2.4020309448242188
-0.19062133133411407 4.381496429443359 -2.4020309448242188
-0.3683752417564392 4.370142936706543 -2.4020309448242188
-0.45704710483551025 4.36176061630249 -2.4020309448242188
-0.6337817311286926 4.339604377746582 -2.4020309448242188
-1.0704210996627808 4.253004550933838 -2.4020309448242188
-1.1565624475479126 4.230391979217529 -2.4020309448242188
-1.327388882637024 4.179938793182373 -2.4020309448242188
-1.411995768547058 4.1521220207214355 -2.4020309448242188
-1.4960229396820068 4.122591018676758 -2.4020309448242188
-1.5794323682785034 4.0913615226745605 -2.4020309448242188
-1.7442626953125 4.023852825164795 -2.4020309448242188
-1.9062169790267944 3.94970703125 -2.4020309448242188
-2.0650267601013184 3.8690452575683594 -2.4020309448242188
-2.143170118331909 3.8263134956359863 -2.4020309448242188
-2.296776056289673 3.736130952835083 -2.4020309448242188
-2.446589231491089 3.6397862434387207 -2.4020309448242188
-2.519998788833618 3.5893523693084717 -2.4020309448242188
-2.592369318008423 3.53743839263916 -2.4020309448242188
-2.663668155670166 3.4840667247772217 -2.4020309448242188
-2.7338695526123047 3.4292571544647217 -2.4020309448242188
-2.8029472827911377 3.3730309009552 -2.4020309448242188
-2.8708653450012207 3.315416097640991 -2.4020309448242188
-2.9376001358032227 3.25643253326416 -2.4020309448242188
-3.003124952316284 3.19610595703125 -2.4020309448242188
-0.18083129823207855 4.156507968902588 -2.4020309448242188
-0.26519775390625 4.151978492736816 -2.4020309448242188
-0.43357664346694946 4.137786388397217 -2.4020309448242188
-0.6847155690193176 4.103710174560547 -2.4020309448242188
-0.7679089307785034 4.088959693908691 -2.4020309448242188
-1.097171664237976 4.0131659507751465 -2.4020309448242188
-1.4983288049697876 3.8812718391418457 -2.4020309448242188
-1.6546947956085205 3.8172318935394287 -2.4020309448242188
-1.731871247291565 3.782839775085449 -2.4020309448242188
-1.8083312511444092 3.746891498565674 -2.4020309448242188
-1.958990454673767 3.6703715324401855 -2.4020309448242188
-2.106412410736084 3.587799549102783 -2.4020309448242188
-2.1788389682769775 3.5442826747894287 -2.4020309448242188
-2.320958137512207 3.4528868198394775 -2.4020309448242188
-2.390599250793457 3.4050419330596924 -2.4020309448242188
-2.459251642227173 3.355794668197632 -2.4020309448242188
-2.593485116958618 3.253166437149048 -2.4020309448242188
-2.659017324447632 3.1998283863067627 -2.4020309448242188
-2.786757707595825 3.0892174243927 -2.4020309448242188
-2.848914623260498 3.031986713409424 -2.4020309448242188
