ply
format ascii 1.0
element vertex 321
property float x
property float y
property float z
end_header
-22.616451263427734 -30.802446365356445 5.8541412353515625
-21.44957160949707 -34.818111419677734 -0.2302456647157669
-26.51165199279785 -20.29006004333496 -0.9400449991226196
-26.03584861755371 -20.77743148803711 -0.9379395842552185
-36.42863082885742 -31.574758529663086 -1.3574286699295044
-35.008872985839844 -31.6113338470459 -1.3281680345535278
-33.917720794677734 -34.599449157714844 -1.3642815351486206
-20.82155418395996 -26.06960678100586 -0.9394575357437134
-19.88721466064453 -27.085363388061523 -0.9461668133735657
-22.238271713256836 -34.50946807861328 -1.1559926271438599
-21.236469268798828 -34.472225189208984 -1.1400666236877441
-20.282670974731445 -34.4719352722168 -1.1262056827545166
-19.341224670410156 -34.45353317260742 -1.1125446557998657
-36.64308547973633 -23.592309951782227 -2.21018385887146
-28.42947769165039 -19.981653213500977 -1.7622771263122559
-26.187990188598633 -20.042348861694336 -1.6724238395690918
-25.065887451171875 -20.003368377685547 -1.6263662576675415
-24.469974517822266 -21.209518432617188 -1.6422525644302368
-30.594316482543945 -31.209251403808594 -2.2164106369018555
-29.319705963134766 -32.44465637207031 -2.2177281379699707
-28.663787841796875 -33.04327392578125 -2.2184062004089355
-21.41158676147461 -25.719778060913086 -1.697197437286377
-24.483972549438477 -36.35188674926758 -2.2227227687835693
-21.261878967285156 -34.51347351074219 -2.0558042526245117
-19.351078033447266 -34.47108459472656 -2.0047988891601562
-25.497089385986328 -16.416065216064453 -2.2234740257263184
-16.942947387695312 -12.429732322692871 -1.5407556295394897
-24.091283798217773 -18.437686920166016 -2.2243802547454834
-23.714412689208984 -18.924848556518555 -2.2246034145355225
-23.309247970581055 -19.388948440551758 -2.223067045211792
-22.110408782958984 -20.794816970825195 -2.2255349159240723
-21.25322151184082 -21.68040657043457 -2.226072311401367
-20.337520599365234 -22.505163192749023 -2.2240893840789795
-19.902206420898438 -22.94301986694336 -2.226966381072998
-18.960765838623047 -23.73979949951172 -2.227700710296631
-18.47963523864746 -24.12596321105957 -2.2282681465148926
-16.990068435668945 -25.225488662719727 -2.2299911975860596
-19.523189544677734 -12.569531440734863 -2.229151964187622
-16.94359016418457 -12.430204391479492 -2.0174591541290283
-18.45556640625 -14.124528884887695 -2.231182813644409
-18.166637420654297 -14.49754524230957 -2.231379747390747
-17.566505432128906 -15.225893020629883 -2.2318010330200195
-16.93745231628418 -15.929661750793457 -2.232257604598999
-12.67111587524414 -12.411441802978516 -1.702840805053711
-15.596171379089355 -17.25844383239746 -2.233215093612671
-10.76838207244873 -12.413667678833008 -1.5776907205581665
-14.15119457244873 -18.474992752075195 -2.234217882156372
-13.774909019470215 -18.760709762573242 -2.234489917755127
-13.005354881286621 -19.309329986572266 -2.2350590229034424
-7.989635467529297 -12.398358345031738 -1.4160451889038086
-11.40247631072998 -20.31182861328125 -2.236293077468872
-15.924172401428223 -10.252604484558105 -2.2497122287750244
-15.713204383850098 -10.574074745178223 -2.2497804164886475
-15.50097942352295 -10.89486026763916 -2.2506039142608643
-15.056777954101562 -11.523347854614258 -2.2522196769714355
-14.824959754943848 -11.830780982971191 -2.2530112266540527
-14.516737937927246 -12.07505989074707 -2.2429373264312744
-14.219099044799805 -12.324629783630371 -2.23520827293396
-13.970986366271973 -12.615684509277344 -2.236088752746582
-13.713924407958984 -12.897918701171875 -2.236292839050293
-12.906951904296875 -13.712438583374023 -2.23690128326416
-12.62714958190918 -13.972978591918945 -2.2371177673339844
-10.770059585571289 -12.415607452392578 -1.952359914779663
-12.052000045776367 -14.476956367492676 -2.2375710010528564
-14.253775596618652 -9.177273750305176 -2.4020309448242188
-13.723539352416992 -9.645587921142578 -2.3767213821411133
-13.16568660736084 -9.658636093139648 -2.313594341278076
-12.40994644165039 -9.903564453125 -2.2496438026428223
-12.206663131713867 -10.153661727905273 -2.2496914863586426
-11.787464141845703 -10.643525123596191 -2.2502713203430176
-10.662443161010742 -11.798871040344238 -2.2532665729522705
-10.394998550415039 -11.983495712280273 -2.247753143310547
-10.117226600646973 -12.152711868286133 -2.24049973487854
-9.86492919921875 -12.351117134094238 -2.2396891117095947
-9.35960578918457 -12.747306823730469 -2.240736246109009
-9.099782943725586 -12.935916900634766 -2.2409510612487793
-8.836169242858887 -13.119264602661133 -2.241170883178711
-8.568902015686035 -13.29726791381836 -2.2413957118988037
-8.29804801940918 -13.46985912322998 -2.2416257858276367
-12.25958251953125 -7.893215179443359 -2.4020309448242188
-12.096820831298828 -8.140457153320312 -2.4020309448242188
-11.929065704345703 -8.384345054626465 -2.4020309448242188
-11.756421089172363 -8.624768257141113 -2.4020309448242188
-11.578913688659668 -8.861645698547363 -2.4020309448242188
-11.396655082702637 -9.094871520996094 -2.4020309448242188
-11.209662437438965 -9.32435131072998 -2.4020309448242188
-11.018062591552734 -9.549982070922852 -2.4020309448242188
-10.691167831420898 -9.653654098510742 -2.3730175495147705
-10.275136947631836 -9.663790702819824 -2.3237462043762207
-9.155988693237305 -10.131879806518555 -2.2496860027313232
-8.948583602905273 -10.31582260131836 -2.249721050262451
-8.739004135131836 -10.49735164642334 -2.250149726867676
-8.525856971740723 -10.674787521362305 -2.25061297416687
-8.309065818786621 -10.847841262817383 -2.251065492630005
-7.8649420738220215 -11.18050479888916 -2.2519376277923584
-7.6377763748168945 -11.339971542358398 -2.252356767654419
-10.60232162475586 -7.134745121002197 -2.4020309448242188
-10.303967475891113 -7.559220790863037 -2.4020309448242188
-10.148393630981445 -7.7668328285217285 -2.4020309448242188
-9.988637924194336 -7.9712443351745605 -2.4020309448242188
-9.309733390808105 -8.75522232055664 -2.4020309448242188
-8.568238258361816 -9.481486320495605 -2.4020309448242188
-8.374014854431152 -9.653468132019043 -2.4020309448242188
-8.043500900268555 -9.66195011138916 -2.363016128540039
-7.723003387451172 -9.669575691223145 -2.3260509967803955
-7.412112712860107 -9.676801681518555 -2.2911148071289062
-7.113413333892822 -9.688124656677246 -2.2591347694396973
-6.686084270477295 -9.927009582519531 -2.249645709991455
-6.483254432678223 -10.060803413391113 -2.249671220779419
-6.277799606323242 -10.19045352935791 -2.2496957778930664
-9.55451774597168 -6.151586055755615 -2.4020309448242188
-9.427669525146484 -6.344275951385498 -2.4020309448242188
-9.29693603515625 -6.534350395202637 -2.4020309448242188
-9.162379264831543 -6.7217230796813965 -2.4020309448242188
-9.024039268493652 -6.906336307525635 -2.4020309448242188
-8.736266136169434 -7.266944408416748 -2.4020309448242188
-7.954917907714844 -8.11480712890625 -2.4020309448242188
-7.446249961853027 -8.583949089050293 -2.4020309448242188
-6.725377082824707 -9.159672737121582 -2.4020309448242188
-6.538173675537109 -9.294304847717285 -2.4020309448242188
-5.429437637329102 -9.671737670898438 -2.3445193767547607
-8.479256629943848 -5.706048011779785 -2.4020309448242188
-8.240650177001953 -6.0455241203308105 -2.4020309448242188
-8.116231918334961 -6.211564064025879 -2.4020309448242188
-7.857402324676514 -6.535898208618164 -2.4020309448242188
-7.445012092590332 -7.002031326293945 -2.4020309448242188
-7.005030155181885 -7.442198276519775 -2.4020309448242188
-6.852511405944824 -7.582865238189697 -2.4020309448242188
-6.539058685302734 -7.85477352142334 -2.4020309448242188
-6.378262996673584 -7.985896587371826 -2.4020309448242188
-6.048847675323486 -8.238215446472168 -2.4020309448242188
-5.536204814910889 -8.591111183166504 -2.4020309448242188
-5.182929992675781 -8.808753967285156 -2.4020309448242188
-7.80028772354126 -5.0221428871154785 -2.4020309448242188
-7.696732044219971 -5.1794538497924805 -2.4020309448242188
-7.480135917663574 -5.487599849700928 -2.4020309448242188
-7.367214202880859 -5.638317108154297 -2.4020309448242188
-7.251235008239746 -5.786708354949951 -2.4020309448242188
-7.132267951965332 -5.932717323303223 -2.4020309448242188
-7.01036262512207 -6.076283931732178 -2.4020309448242188
-6.2201104164123535 -6.883065700531006 -2.4020309448242188
-6.079100608825684 -7.007915019989014 -2.4020309448242188
-5.935586929321289 -7.129878997802734 -2.4020309448242188
-5.7896294593811035 -7.2489013671875 -2.4020309448242188
-5.6412835121154785 -7.364938259124756 -2.4020309448242188
-5.490612506866455 -7.477933883666992 -2.4020309448242188
-5.33768367767334 -7.58784818649292 -2.4020309448242188
-5.182554244995117 -7.694642543792725 -2.4020309448242188
-5.02528190612793 -7.798259735107422 -2.4020309448242188
-4.704599380493164 -7.995815277099609 -2.4020309448242188
-4.541313171386719 -8.089677810668945 -2.4020309448242188
-7.134164333343506 -4.593266487121582 -2.4020309448242188
-6.941843032836914 -4.879073143005371 -2.4020309448242188
-6.523183822631836 -5.426081657409668 -2.4020309448242188
-6.180840492248535 -5.8130717277526855 -2.4020309448242188
-5.939769268035889 -6.059165000915527 -2.4020309448242188
-5.815554141998291 -6.1784892082214355 -2.4020309448242188
-5.428715229034424 -6.52101469039917 -2.4020309448242188
-5.1595354080200195 -6.735999584197998 -2.4020309448242188
-5.021732807159424 -6.839343547821045 -2.4020309448242188
-4.596139907836914 -7.132315635681152 -2.4020309448242188
-4.450406551361084 -7.224147319793701 -2.4020309448242188
-4.302841663360596 -7.312999248504639 -2.4020309448242188
-4.15350341796875 -7.3988494873046875 -2.4020309448242188
-6.566236972808838 -4.2276105880737305 -2.4020309448242188
-6.389214515686035 -4.490660190582275 -2.4020309448242188
-6.296743869781494 -4.619430065155029 -2.4020309448242188
-6.2016730308532715 -4.74630069732666 -2.4020309448242188
-6.003900527954102 -4.994126319885254 -2.4020309448242188
-5.796232223510742 -5.233719348907471 -2.4020309448242188
-5.688789367675781 -5.350303649902344 -2.4020309448242188
-5.466936111450195 -5.57681131362915 -2.4020309448242188
-5.352509498596191 -5.686630725860596 -2.4020309448242188
-4.9965434074401855 -6.001890182495117 -2.4020309448242188
-4.873675346374512 -6.102081775665283 -2.4020309448242188
-4.7487945556640625 -6.199759483337402 -2.4020309448242188
-4.621974468231201 -6.2948808670043945 -2.4020309448242188
-4.362644672393799 -6.477304458618164 -2.4020309448242188
-4.230255603790283 -6.564531326293945 -2.4020309448242188
-3.9603021144866943 -6.730833053588867 -2.4020309448242188
-3.8228514194488525 -6.809842586517334 -2.4020309448242188
-5.82644510269165 -4.274409770965576 -2.4020309448242188
-5.738475799560547 -4.391806125640869 -2.4020309448242188
-5.648138999938965 -4.507392406463623 -2.4020309448242188
-5.55547571182251 -4.621120452880859 -2.4020309448242188
-5.4605231285095215 -4.732943534851074 -2.4020309448242188
-5.2639055252075195 -4.950695037841797 -2.4020309448242188
-5.1623215675354 -5.0565290451049805 -2.4020309448242188
-5.058607578277588 -5.16028356552124 -2.4020309448242188
-4.952815532684326 -5.261906623840332 -2.4020309448242188
-4.844977855682373 -5.361364841461182 -2.4020309448242188
-4.735140323638916 -5.458615779876709 -2.4020309448242188
-4.6232523918151855 -5.5536065101623535 -2.4020309448242188
-3.790179967880249 -6.152440547943115 -2.4020309448242188
-5.495372772216797 -3.8624215126037598 -2.4020309448242188
-5.415835857391357 -3.9731786251068115 -2.4020309448242188
-5.334065914154053 -4.082300186157227 -2.4020309448242188
-4.985349655151367 -4.501527786254883 -2.4020309448242188
-4.798517227172852 -4.700179576873779 -2.4020309448242188
-4.603775501251221 -4.891085147857666 -2.4020309448242188
-4.4014410972595215 -5.073929786682129 -2.4020309448242188
-4.297533988952637 -5.162233829498291 -2.4020309448242188
-4.191854953765869 -5.248408794403076 -2.4020309448242188
-4.084449768066406 -5.332422256469727 -2.4020309448242188
-3.752322196960449 -5.571138381958008 -2.4020309448242188
-3.5230674743652344 -5.718860149383545 -2.4020309448242188
-3.4062609672546387 -5.7891974449157715 -2.4020309448242188
-3.2880358695983887 -5.857152462005615 -2.4020309448242188
-5.200222492218018 -3.4994499683380127 -2.4020309448242188
-4.97758674621582 -3.809476137161255 -2.4020309448242188
-4.899229049682617 -3.9097378253936768 -2.4020309448242188
-4.736487865447998 -4.105383396148682 -2.4020309448242188
-4.565938472747803 -4.294262409210205 -2.4020309448242188
-4.3878679275512695 -4.476059913635254 -2.4020309448242188
-4.202564716339111 -4.6504807472229 -2.4020309448242188
-3.9117095470428467 -4.8976545333862305 -2.4020309448242188
-3.5015435218811035 -5.198817253112793 -2.4020309448242188
-3.395286798477173 -5.268825054168701 -2.4020309448242188
-3.2876336574554443 -5.336662292480469 -2.4020309448242188
-3.1786186695098877 -5.402300834655762 -2.4020309448242188
-4.9346604347229 -3.177135944366455 -2.4020309448242188
-4.869147777557373 -3.2766544818878174 -2.4020309448242188
-4.801631927490234 -3.374824047088623 -2.4020309448242188
-4.7321343421936035 -3.4715960025787354 -2.4020309448242188
-4.660683631896973 -3.566943883895874 -2.4020309448242188
-4.512055397033691 -3.7531895637512207 -2.4020309448242188
-4.35598611831665 -3.933246374130249 -2.4020309448242188
-4.192744731903076 -4.106820583343506 -2.4020309448242188
-4.022584915161133 -4.273625373840332 -2.4020309448242188
-3.7550041675567627 -4.510543346405029 -2.4020309448242188
-3.473504066467285 -4.730733394622803 -2.4020309448242188
-3.376756429672241 -4.800268650054932 -2.4020309448242188
-3.278616189956665 -4.867826461791992 -2.4020309448242188
-3.179124116897583 -4.933381080627441 -2.4020309448242188
-3.0783214569091797 -4.996898651123047 -2.4020309448242188
-2.9762492179870605 -5.0583600997924805 -2.4020309448242188
-4.572608470916748 -3.077101469039917 -2.4020309448242188
-4.509202003479004 -3.1692919731140137 -2.4020309448242188
-4.37684440612793 -3.3497118949890137 -2.4020309448242188
-4.307940483093262 -3.437870979309082 -2.4020309448242188
-4.237265586853027 -3.5246152877807617 -2.4020309448242188
-4.164843559265137 -3.6099040508270264 -2.4020309448242188
-4.090703010559082 -3.693707227706909 -2.4020309448242188
-4.014875888824463 -3.775986909866333 -2.4020309448242188
-3.937396764755249 -3.8567090034484863 -2.4020309448242188
-3.8583555221557617 -3.9358599185943604 -2.4020309448242188
-3.7776055335998535 -4.013354778289795 -2.4020309448242188
-3.69535756111145 -4.089213848114014 -2.4020309448242188
-3.4396049976348877 -4.306556224822998 -2.4020309448242188
-3.3514726161956787 -4.375492095947266 -2.4020309448242188
-3.171107769012451 -4.507925510406494 -2.4020309448242188
-2.9855101108551025 -4.632930278778076 -2.4020309448242188
-2.697984457015991 -4.806058406829834 -2.4020309448242188
-4.245518207550049 -2.983961343765259 -2.4020309448242188
-4.1840715408325195 -3.069525718688965 -2.4020309448242188
-4.120898246765137 -3.1538310050964355 -2.4020309448242188
-4.056024551391602 -3.236835241317749 -2.4020309448242188
-3.8514904975891113 -3.4777095317840576 -2.4020309448242188
-3.7801012992858887 -3.555178642272949 -2.4020309448242188
-3.7071533203125 -3.6311802864074707 -2.4020309448242188
-3.479292631149292 -3.85009765625 -2.4020309448242188
-3.4003875255584717 -3.919926166534424 -2.4020309448242188
-3.238468647003174 -4.054722309112549 -2.4020309448242188
-3.1554925441741943 -4.11962890625 -2.4020309448242188
-3.071214437484741 -4.182833194732666 -2.4020309448242188
-2.9856693744659424 -4.2443156242370605 -2.4020309448242188
-2.810925245285034 -4.362010478973389 -2.4020309448242188
-2.631551504135132 -4.4725141525268555 -2.4020309448242188
-2.5401830673217773 -4.5250020027160645 -2.4020309448242188
-3.948320150375366 -2.896574020385742 -2.4020309448242188
-3.8274896144866943 -3.0544557571411133 -2.4020309448242188
-3.700348377227783 -3.2073020935058594 -2.4020309448242188
-3.567110538482666 -3.354862689971924 -2.4020309448242188
-3.498271942138672 -3.426581382751465 -2.4020309448242188
-3.4279980659484863 -3.4968926906585693 -2.4020309448242188
-3.208791971206665 -3.6990573406219482 -2.4020309448242188
-2.977695941925049 -3.8875081539154053 -2.4020309448242188
-2.898160934448242 -3.947150230407715 -2.4020309448242188
-2.8174431324005127 -4.0051703453063965 -2.4020309448242188
-2.7355566024780273 -4.061539173126221 -2.4020309448242188
-2.6525464057922363 -4.116233825683594 -2.4020309448242188
-2.5684399604797363 -4.1692328453063965 -2.4020309448242188
-2.4832775592803955 -4.2205119132995605 -2.4020309448242188
-2.3970885276794434 -4.270053386688232 -2.4020309448242188
-3.893049955368042 -2.5065033435821533 -2.4020309448242188
-3.8413658142089844 -2.5850155353546143 -2.4020309448242188
-3.559647798538208 -2.960963726043701 -2.4020309448242188
-3.3077385425567627 -3.239949941635132 -2.4020309448242188
-3.241286039352417 -3.306429624557495 -2.4020309448242188
-3.1734955310821533 -3.3715434074401855 -2.4020309448242188
-3.1043994426727295 -3.4352715015411377 -2.4020309448242188
-2.9623961448669434 -3.5584545135498047 -2.4020309448242188
-2.889549493789673 -3.617856979370117 -2.4020309448242188
-2.8155810832977295 -3.6757872104644775 -2.4020309448242188
-2.740316152572632 -3.7321667671203613 -2.4020309448242188
-2.5865564346313477 -3.8403196334838867 -2.4020309448242188
-2.4285473823547363 -3.9421486854553223 -2.4020309448242188
-2.3480212688446045 -3.990635633468628 -2.4020309448242188
-3.687464475631714 -2.374134063720703 -2.4020309448242188
-3.6385154724121094 -2.448499917984009 -2.4020309448242188
-3.37166690826416 -2.804593801498413 -2.4020309448242188
-3.1330559253692627 -3.068847179412842 -2.4020309448242188
-3.0059001445770264 -3.193492889404297 -2.4020309448242188
-2.873797655105591 -3.3128762245178223 -2.4020309448242188
-2.8059496879577637 -3.3705317974090576 -2.4020309448242188
-2.300300359725952 -3.733964443206787 -2.4020309448242188
-2.2240233421325684 -3.779890775680542 -2.4020309448242188
-2.146832227706909 -3.8242604732513428 -2.4020309448242188
-3.4516687393188477 -2.3227732181549072 -2.4020309448242188
-3.403804302215576 -2.392362356185913 -2.4020309448242188
-3.354545831680298 -2.460963010787964 -2.4020309448242188
-3.3038909435272217 -2.528552770614624 -2.4020309448242188
-3.251878499984741 -2.5951027870178223 -2.4020309448242188
-3.1985294818878174 -2.660578966140747 -2.4020309448242188
-3.1438610553741455 -2.724961757659912 -2.4020309448242188
-2.912461996078491 -2.9709997177124023 -2.4020309448242188
-2.8515520095825195 -3.029508590698242 -2.4020309448242188
-2.726224422454834 -3.1427605152130127 -2.4020309448242188
-2.6618711948394775 -3.1974565982818604 -2.4020309448242188
-2.324160099029541 -3.4507317543029785 -2.4020309448242188
-2.1821751594543457 -3.5422253608703613 -2.4020309448242188
