ply
format ascii 1.0
element vertex 308
property float x
property float y
property float z
end_header
-17.518770217895508 20.80757713317871 4.796165466308594
-17.87362289428711 20.367250442504883 4.778074741363525
-17.246732711791992 16.676050186157227 4.230156898498535
-17.24673080444336 16.005661010742188 4.148859977722168
-17.246728897094727 15.360275268554688 4.072303295135498
-17.246726989746094 14.738012313842773 4.0001678466796875
-17.392406463623047 13.67068099975586 3.9007060527801514
-17.7320499420166 13.359235763549805 3.914675712585449
-19.96319580078125 13.199929237365723 4.219953536987305
-21.859437942504883 13.19992446899414 4.5026350021362305
-17.24673843383789 21.357545852661133 4.205445289611816
-17.873620986938477 20.36725616455078 4.151233196258545
-17.246736526489258 18.859283447265625 3.91507625579834
-17.246734619140625 18.100481033325195 3.8300957679748535
-17.246732711791992 16.676050186157227 3.6751983165740967
-17.246728897094727 15.360271453857422 3.538052797317505
-17.246728897094727 14.137173652648926 3.4163005352020264
-17.39240837097168 13.67068099975586 3.388967752456665
-19.963191986083984 13.199929237365723 3.6663334369659424
-21.859437942504883 13.19992446899414 3.911929130554199
-17.518762588500977 20.807592391967773 3.5420618057250977
-17.87362289428711 20.367252349853516 3.5286998748779297
-17.30567741394043 18.923730850219727 3.339329242706299
-17.3089542388916 16.06340217590332 3.075066566467285
-17.309696197509766 15.416352272033691 3.01845383644104
-17.307544708251953 14.187028884887695 2.9142205715179443
-17.440895080566406 13.708794593811035 2.8887779712677
-17.7871150970459 13.40072250366211 2.9000401496887207
-19.190509796142578 13.261828422546387 3.0376689434051514
-20.05747413635254 13.262269973754883 3.1312365531921387
-20.97994613647461 13.262741088867188 3.2321484088897705
-17.558164596557617 20.854366302490234 2.927398681640625
-17.873620986938477 20.36725616455078 2.90981125831604
-17.305675506591797 18.923730850219727 2.7536540031433105
-17.306547164916992 18.16325569152832 2.6940202713012695
-17.308183670043945 16.73546600341797 2.5853118896484375
-17.309694290161133 15.416352272033691 2.489055871963501
-17.78711700439453 13.400721549987793 2.3914084434509277
-18.373512268066406 13.2614107131958 2.4332120418548584
-20.057466506958008 13.262271881103516 2.5820562839508057
-17.55816078186035 20.8543701171875 2.3077659606933594
-17.246736526489258 18.859281539916992 2.1634085178375244
-17.246732711791992 16.676050186157227 2.030855178833008
-17.246728897094727 14.738019943237305 1.9204401969909668
-17.392398834228516 13.670690536499023 1.8726890087127686
-17.7320499420166 13.359235763549805 1.8793970346450806
-19.100934982299805 13.199930191040039 1.965483546257019
-21.859437942504883 13.19992446899414 2.1616694927215576
-17.246736526489258 21.357555389404297 1.702288269996643
-17.51877212524414 20.80757713317871 1.6867094039916992
-17.873619079589844 20.367258071899414 1.6803441047668457
-17.246734619140625 18.859281539916992 1.5847513675689697
-17.246734619140625 18.100482940673828 1.5503531694412231
-17.246732711791992 16.676050186157227 1.4876539707183838
-17.246728897094727 15.360275268554688 1.4321397542953491
-17.246728897094727 14.738020896911621 1.4067713022232056
-17.246726989746094 14.137182235717773 1.3828544616699219
-17.392398834228516 13.670690536499023 1.3717924356460571
-18.288333892822266 13.199931144714355 1.3986051082611084
-19.1009464263916 13.199930191040039 1.4397666454315186
-19.96319580078125 13.199929237365723 1.4840646982192993
-20.880573272705078 13.199926376342773 1.5318381786346436
-21.859437942504883 13.19992446899414 1.5834776163101196
-17.837160110473633 22.08870506286621 1.1195042133331299
-17.837158203125 21.185741424560547 1.0920323133468628
-17.837158203125 18.720130920410156 1.0195847749710083
-17.837156295776367 17.246929168701172 0.978350043296814
-17.978090286254883 16.68439292907715 0.9671293497085571
-18.356975555419922 16.349082946777344 0.9692903161048889
-19.646121978759766 15.44215202331543 0.9853254556655884
-20.109188079833984 15.15015983581543 0.9927738904953003
-20.540508270263672 14.825478553771973 0.9988633394241333
-21.38021469116211 14.775047302246094 1.0247623920440674
-23.42873764038086 14.810774803161621 1.0929322242736816
-17.837156295776367 17.968351364135742 0.4276737868785858
-17.97808837890625 16.68439483642578 0.41430678963661194
-19.895591735839844 15.638236999511719 0.42746108770370483
-25.32571792602539 15.293035507202148 0.4997422695159912
-17.837160110473633 22.088712692260742 -0.15984909236431122
-17.837160110473633 19.504907608032227 -0.14881300926208496
-17.837156295776367 17.246925354003906 -0.1396949738264084
-19.03516387939453 16.266300201416016 -0.14097076654434204
-19.895591735839844 15.638236045837402 -0.1424771100282669
-20.10918617248535 15.150157928466797 -0.14175444841384888
-23.059017181396484 15.246928215026855 -0.1556408703327179
-24.15390396118164 15.269198417663574 -0.1608857661485672
-25.325687408447266 15.293035507202148 -0.1665690541267395
-17.837158203125 21.185758590698242 -0.7798222303390503
-17.837156295776367 17.968351364135742 -0.7129119634628296
-17.837156295776367 17.246938705444336 -0.6986420750617981
-18.356977462768555 16.34908103942871 -0.6921724081039429
-19.89558982849121 15.63823413848877 -0.7125571966171265
-20.10918617248535 15.15015697479248 -0.7089419364929199
-21.37432289123535 14.77098274230957 -0.7315841317176819
-24.153905868530273 15.269198417663574 -0.8046223521232605
-17.837160110473633 22.08871078491211 -1.4398523569107056
-17.837158203125 21.185739517211914 -1.4045196771621704
-17.837158203125 18.720123291015625 -1.3113415241241455
-19.03516387939453 16.266300201416016 -1.2698105573654175
-19.463090896606445 15.953935623168945 -1.2762874364852905
-21.37433624267578 14.77098274230957 -1.3176383972167969
-24.15389633178711 15.269198417663574 -1.4491857290267944
-17.837160110473633 22.088712692260742 -2.0817229747772217
-17.873620986938477 20.36725616455078 -1.9868698120117188
-17.837156295776367 17.96834945678711 -1.8564058542251587
-19.035158157348633 16.26630401611328 -1.8358803987503052
-19.895586013793945 15.638236045837402 -1.8554818630218506
-20.10918426513672 15.150156021118164 -1.8460683822631836
-23.05902099609375 15.246928215026855 -2.0269126892089844
-24.564149856567383 14.833163261413574 -2.104001045227051
-14.588820457458496 18.066120147705078 -2.229337453842163
-17.003293991088867 15.779722213745117 -2.2270495891571045
-17.32066535949707 15.4260835647583 -2.2267513275146484
-17.630643844604492 15.066084861755371 -2.2264602184295654
-18.51567268371582 13.949617385864258 -2.225623607635498
-11.827168464660645 8.53647518157959 -1.4003384113311768
-19.067035675048828 13.176505088806152 -2.2251062393188477
-11.805005073547363 14.618770599365234 -2.2319955825805664
-12.100468635559082 14.372090339660645 -2.231715440750122
-7.35251522064209 8.378302574157715 -1.324104905128479
-12.955536842346191 13.596885681152344 -2.2309045791625977
-13.229804039001465 13.32711410522461 -2.230644941329956
-8.82756233215332 8.53547191619873 -1.4586124420166016
-9.129566192626953 8.472616195678711 -1.4795104265213013
-14.01872730255127 12.485321044921875 -2.2299087047576904
-10.40438461303711 8.890959739685059 -1.625678539276123
-10.78309154510498 8.47568130493164 -1.6291956901550293
-11.251126289367676 8.47654914855957 -1.6733202934265137
-15.434284210205078 10.666071891784668 -2.228567361831665
-7.1303229331970215 8.46890926361084 -1.5686230659484863
-7.352511405944824 8.378304481506348 -1.5794094800949097
-8.071114540100098 8.470654487609863 -1.65779447555542
-11.771485328674316 10.483695983886719 -2.2334394454956055
-10.3911714553833 8.879668235778809 -1.9366645812988281
-13.440500259399414 8.496582984924316 -2.2529895305633545
-7.352511882781982 8.378304481506348 -1.8363460302352905
-10.20804214477539 9.091482162475586 -2.2519261837005615
-10.377908706665039 8.868342399597168 -2.2488484382629395
-10.511082649230957 8.615955352783203 -2.2389843463897705
-10.922338485717773 8.228837966918945 -2.252842664718628
-11.085715293884277 8.001307487487793 -2.25225567817688
-11.244308471679688 7.7705078125 -2.2516608238220215
-11.398029327392578 7.5365471839904785 -2.251058578491211
-11.546903610229492 7.299528121948242 -2.2504489421844482
-11.690793991088867 7.059542655944824 -2.2498323917388916
-7.352514266967773 8.378302574157715 -2.0951974391937256
-8.268654823303223 8.677974700927734 -2.2530057430267334
-8.446036338806152 8.508162498474121 -2.2533698081970215
-8.61836051940918 8.333175659179688 -2.2533187866210938
-8.948651313781738 7.96986198425293 -2.2523751258850098
-9.108081817626953 7.783221244812012 -2.2518911361694336
-9.846545219421387 6.8045806884765625 -2.2497034072875977
-9.983710289001465 6.601354122161865 -2.249664306640625
-6.697484016418457 8.293862342834473 -2.2533984184265137
-6.864847183227539 8.153600692749023 -2.253030300140381
-7.029241561889648 8.009937286376953 -2.2526540756225586
-7.190606594085693 7.862934589385986 -2.2522695064544678
-7.503964900970459 7.559174537658691 -2.251477003097534
-7.655858993530273 7.402535438537598 -2.2510690689086914
-7.80443811416626 7.242834091186523 -2.2506539821624756
-7.949662208557129 7.0801262855529785 -2.2502315044403076
-8.091471672058105 6.914488792419434 -2.2498021125793457
-8.36734390258789 6.576868534088135 -2.2496604919433594
-8.673211097717285 6.260044574737549 -2.2610015869140625
-9.429557800292969 6.23492956161499 -2.389531373977661
-9.727622985839844 5.874058723449707 -2.4020309448242188
-6.168740749359131 7.326802730560303 -2.251016855239868
-6.461690902709961 7.06585168838501 -2.250333786010742
-6.881433486938477 6.653726100921631 -2.249675750732422
-7.016195297241211 6.511302471160889 -2.2496485710144043
-7.319521427154541 6.254917621612549 -2.262833595275879
-7.932004451751709 6.234688758850098 -2.371152400970459
-8.287261962890625 5.981478691101074 -2.4020309448242188
-8.407938957214355 5.810474872589111 -2.4020309448242188
-8.638964653015137 5.461234092712402 -2.4020309448242188
-5.458819389343262 6.7599687576293945 -2.249696969985962
-6.453315734863281 6.239782810211182 -2.3242130279541016
-6.714781284332275 6.231586933135986 -2.3719046115875244
-6.927938461303711 6.170125484466553 -2.4020309448242188
-7.052834987640381 6.026930809020996 -2.4020309448242188
-7.174807071685791 5.881202220916748 -2.4020309448242188
-7.2937517166137695 5.733010768890381 -2.4020309448242188
-7.522450923919678 5.4294610023498535 -2.4020309448242188
-7.738522052764893 5.116811275482178 -2.4020309448242188
-7.8416900634765625 4.957230091094971 -2.4020309448242188
-5.043694972991943 6.24589204788208 -2.272693157196045
-5.2534403800964355 6.239659786224365 -2.3091042041778564
-5.469916343688965 6.233050346374512 -2.3476402759552
-5.977746486663818 6.021717548370361 -2.4020309448242188
-6.099844455718994 5.898004055023193 -2.4020309448242188
-6.219478607177734 5.77182674407959 -2.4020309448242188
-6.670904159545898 5.243432521820068 -2.4020309448242188
-6.776906490325928 5.105689525604248 -2.4020309448242188
-6.980329513549805 4.8238444328308105 -2.4020309448242188
-7.077676773071289 4.679856300354004 -2.4020309448242188
-7.263407230377197 4.386042594909668 -2.4020309448242188
-4.906357765197754 6.0758233070373535 -2.4020309448242188
-5.270268440246582 5.763026714324951 -2.4020309448242188
-5.501859188079834 5.5423407554626465 -2.4020309448242188
-5.937036991119385 5.073434352874756 -2.4020309448242188
-6.139847278594971 4.826011657714844 -2.4020309448242188
-6.332354545593262 4.570491313934326 -2.4020309448242188
-6.424642086029053 4.439828872680664 -2.4020309448242188
-6.51423978805542 4.3073015213012695 -2.4020309448242188
-6.601097106933594 4.172966957092285 -2.4020309448242188
-4.876742362976074 5.332589626312256 -2.4020309448242188
-4.984829425811768 5.231588840484619 -2.4020309448242188
-5.2967209815979 4.915568828582764 -2.4020309448242188
-5.396293640136719 4.806044578552246 -2.4020309448242188
-6.0276923179626465 3.9855918884277344 -2.4020309448242188
-6.108061790466309 3.8612945079803467 -2.4020309448242188
-6.1858744621276855 3.7353696823120117 -2.4020309448242188
-4.21997594833374 5.225824356079102 -2.4020309448242188
-4.732166767120361 4.766974449157715 -2.4020309448242188
-4.923445224761963 4.569153308868408 -2.4020309448242188
-5.106453895568848 4.363668918609619 -2.4020309448242188
-5.194762229919434 4.258157253265381 -2.4020309448242188
-5.364811420440674 4.041818618774414 -2.4020309448242188
-5.446470737457275 3.9310858249664307 -2.4020309448242188
-5.525845050811768 3.8187029361724854 -2.4020309448242188
-5.602903366088867 3.7047154903411865 -2.4020309448242188
-4.037015914916992 4.794893264770508 -2.4020309448242188
-4.3238677978515625 4.537912368774414 -2.4020309448242188
-4.415910720825195 4.448394775390625 -2.4020309448242188
-4.594404697418213 4.263793468475342 -2.4020309448242188
-4.680781364440918 4.1687912940979 -2.4020309448242188
-4.765188694000244 4.072041034698486 -2.4020309448242188
-4.92796516418457 3.873455762863159 -2.4020309448242188
-5.156547546386719 3.563495397567749 -2.4020309448242188
-5.228456974029541 3.457127094268799 -2.4020309448242188
-5.365664958953857 3.240082263946533 -2.4020309448242188
-3.687237501144409 4.566107273101807 -2.4020309448242188
-3.7799949645996094 4.489619731903076 -2.4020309448242188
-4.048582553863525 4.249001502990723 -2.4020309448242188
-4.301899433135986 3.992335081100464 -2.4020309448242188
-4.461805820465088 3.8127899169921875 -2.4020309448242188
-4.614221572875977 3.626847982406616 -2.4020309448242188
-4.758894920349121 3.434818744659424 -2.4020309448242188
-4.9608588218688965 3.1360723972320557 -2.4020309448242188
-5.024055004119873 3.033799409866333 -2.4020309448242188
-3.549790620803833 4.216195106506348 -2.4020309448242188
-3.635406494140625 4.142600059509277 -2.4020309448242188
-3.7194981575012207 4.06726598739624 -2.4020309448242188
-3.80202317237854 3.9902312755584717 -2.4020309448242188
-3.882958173751831 3.9115166664123535 -2.4020309448242188
-3.962266206741333 3.8311572074890137 -2.4020309448242188
-4.0399065017700195 3.7491955757141113 -2.4020309448242188
-4.115853309631348 3.6656596660614014 -2.4020309448242188
-4.190074443817139 3.580585241317749 -2.4020309448242188
-4.262535095214844 3.4940080642700195 -2.4020309448242188
-4.333209037780762 3.4059672355651855 -2.4020309448242188
-4.469073295593262 3.2256317138671875 -2.4020309448242188
-4.534204483032227 3.1334173679351807 -2.4020309448242188
-4.658735275268555 2.9450809955596924 -2.4020309448242188
-3.260195255279541 4.037272930145264 -2.4020309448242188
-3.342210531234741 3.969644784927368 -2.4020309448242188
-3.4228198528289795 3.900352716445923 -2.4020309448242188
-3.5796923637390137 3.7568938732147217 -2.4020309448242188
-3.6558947563171387 3.68278431892395 -2.4020309448242188
-3.730565071105957 3.6071226596832275 -2.4020309448242188
-4.013276100158691 3.2896904945373535 -2.4020309448242188
-4.0798187255859375 3.206796169281006 -2.4020309448242188
-4.144646644592285 3.1225554943084717 -2.4020309448242188
-4.207734107971191 3.0370073318481445 -2.4020309448242188
-4.269057750701904 2.9501848220825195 -2.4020309448242188
-4.328592300415039 2.8621232509613037 -2.4020309448242188
-4.386306285858154 2.7728607654571533 -2.4020309448242188
-3.1538915634155273 3.7459752559661865 -2.4020309448242188
-3.2299609184265137 3.6805882453918457 -2.4020309448242188
-3.304671049118042 3.6136560440063477 -2.4020309448242188
-3.656824827194214 3.256840705871582 -2.4020309448242188
-3.7227659225463867 3.1812548637390137 -2.4020309448242188
-3.7871458530426025 3.104334592819214 -2.4020309448242188
-3.9111156463623047 2.9466161727905273 -2.4020309448242188
-4.028517246246338 2.7839574813842773 -2.4020309448242188
-4.0846967697143555 2.7008562088012695 -2.4020309448242188
-4.13916015625 2.6166253089904785 -2.4020309448242188
-4.191888332366943 2.5312929153442383 -2.4020309448242188
-2.9821128845214844 3.5419464111328125 -2.4020309448242188
-3.124681234359741 3.4168341159820557 -2.4020309448242188
-3.393850088119507 3.149630069732666 -2.4020309448242188
-3.5200035572052 3.0079846382141113 -2.4020309448242188
-3.580876350402832 2.935253143310547 -2.4020309448242188
-3.698094367980957 2.7861247062683105 -2.4020309448242188
-3.754384756088257 2.709794759750366 -2.4020309448242188
-3.8091015815734863 2.6323258876800537 -2.4020309448242188
-3.862220287322998 2.55375075340271 -2.4020309448242188
-3.9137182235717773 2.474107265472412 -2.4020309448242188
-3.963573455810547 2.393422842025757 -2.4020309448242188
-2.755312442779541 3.412051200866699 -2.4020309448242188
-2.824627637863159 3.35489559173584 -2.4020309448242188
-3.0253331661224365 3.175091505050659 -2.4020309448242188
-3.089733839035034 3.112457275390625 -2.4020309448242188
-3.152841091156006 3.048516273498535 -2.4020309448242188
-3.2146215438842773 2.98329758644104 -2.4020309448242188
-3.334111213684082 2.849130868911743 -2.4020309448242188
-3.391771078109741 2.780241012573242 -2.4020309448242188
-2.7442102432250977 3.127070188522339 -2.4020309448242188
-2.807689666748047 3.0702037811279297 -2.4020309448242188
-2.8699846267700195 3.012052536010742 -2.4020309448242188
-3.049550771713257 2.830106735229492 -2.4020309448242188
-3.106881618499756 2.76705002784729 -2.4020309448242188
-3.162907600402832 2.7028307914733887 -2.4020309448242188
-3.217604875564575 2.637479305267334 -2.4020309448242188
-3.3229289054870605 2.503478527069092 -2.4020309448242188
-3.4704065322875977 2.2946786880493164 -2.4020309448242188
-3.516679048538208 2.2231149673461914 -2.4020309448242188
-3.5614750385284424 2.1506147384643555 -2.4020309448242188
