ply
format ascii 1.0
element vertex 203
property float x
property float y
property float z
end_header
24.791898727416992 39.75961685180664 -2.3762571811676025
22.660356521606445 41.59109878540039 -2.4020156860351562
21.8425235748291 42.02635192871094 -2.4020156860351562
18.49069595336914 43.605224609375 -2.4020156860351562
17.634241104125977 43.95866775512695 -2.4020156860351562
15.025797843933105 44.91709518432617 -2.4020156860351562
14.144365310668945 45.202396392822266 -2.4020156860351562
13.257529258728027 45.47040939331055 -2.4020156860351562
12.36559772491455 45.72101974487305 -2.4020156860351562
11.468937873840332 45.95417404174805 -2.4020156860351562
17.333538055419922 27.798391342163086 -2.4020156860351562
16.233022689819336 28.455080032348633 -2.4020156860351562
15.67333698272705 28.767133712768555 -2.4020156860351562
15.107667922973633 29.068193435668945 -2.4020156860351562
14.536198616027832 29.35814666748047 -2.4020156860351562
13.95919418334961 29.6368465423584 -2.4020156860351562
13.376837730407715 29.90421485900879 -2.4020156860351562
12.19698715209961 30.40453338623047 -2.4020156860351562
11.59994888305664 30.637285232543945 -2.4020156860351562
10.998478889465332 30.858314514160156 -2.4020156860351562
10.392800331115723 31.067527770996094 -2.4020156860351562
9.783146858215332 31.264896392822266 -2.4020156860351562
8.587958335876465 29.454795837402344 -2.2496156692504883
8.01019287109375 29.61716651916504 -2.2496156692504883
7.429355144500732 29.768171310424805 -2.2496156692504883
12.82039737701416 21.48540687561035 -2.4020156860351562
11.970253944396973 21.97041130065918 -2.4020156860351562
11.10176944732666 22.421762466430664 -2.4020156860351562
10.661088943481445 22.634613037109375 -2.4020156860351562
10.216318130493164 22.838817596435547 -2.4020156860351562
8.730883598327637 21.764263153076172 -2.251336097717285
7.866957664489746 22.072229385375977 -2.2496156692504883
6.997651100158691 22.36300277709961 -2.2496156692504883
6.558382511138916 22.493812561035156 -2.2494373321533203
6.11600923538208 22.613569259643555 -2.2490170001983643
5.671459674835205 22.72459602355957 -2.2485945224761963
10.699350357055664 17.158916473388672 -2.4020156860351562
10.02004623413086 17.56426239013672 -2.4020156860351562
9.674572944641113 17.756887435913086 -2.4020156860351562
8.403373718261719 16.971935272216797 -2.2496156692504883
8.069804191589355 17.1330509185791 -2.2496156692504883
7.733141899108887 17.28761863708496 -2.2496156692504883
7.393520355224609 17.43556785583496 -2.2496156692504883
7.05106782913208 17.57684898376465 -2.2496156692504883
6.70580530166626 17.711090087890625 -2.249575614929199
5.653017520904541 18.06584930419922 -2.248575210571289
4.581667423248291 18.357982635498047 -2.2475571632385254
7.867377758026123 13.790817260742188 -2.2496156692504883
6.482386112213135 14.49152946472168 -2.2493631839752197
5.61927604675293 14.841357231140137 -2.2485427856445312
5.327248573303223 14.946578979492188 -2.248265266418457
3.839855909347534 15.385662078857422 -2.2468509674072266
6.997304439544678 11.7266206741333 -2.2496156692504883
6.057541370391846 12.234148979187012 -2.2489659786224365
5.573261737823486 12.45915412902832 -2.248505115509033
3.1669859886169434 8.364494323730469 -1.4734209775924683
2.988298177719116 8.384222030639648 -1.4663175344467163
3.5603833198547363 13.164286613464355 -2.2465906143188477
6.332690238952637 10.155951499938965 -2.249619960784912
6.135507583618164 10.282357215881348 -2.2506003379821777
5.519911766052246 10.620701789855957 -2.249795913696289
5.308289527893066 10.720629692077637 -2.248535633087158
5.096363544464111 10.820120811462402 -2.2480621337890625
2.988298177719116 8.384222984313965 -1.6730092763900757
3.792217969894409 11.336190223693848 -2.246821403503418
2.644357919692993 8.450790405273438 -1.6643650531768799
2.464047908782959 8.451125144958496 -1.654620885848999
3.1199474334716797 11.535809516906738 -2.2461822032928467
5.63109827041626 9.030787467956543 -2.2496278285980225
5.453391075134277 9.13920783996582 -2.249626636505127
5.098437309265137 9.357758522033691 -2.252577066421509
4.727578163146973 9.54808235168457 -2.252122640609741
4.158303260803223 9.806206703186035 -2.2515008449554443
2.988298177719116 8.384222030639648 -1.8814594745635986
2.9800829887390137 10.22103214263916 -2.2504804134368896
2.5777196884155273 10.32851791381836 -2.2502081394195557
4.904787540435791 8.21982479095459 -2.249630928039551
4.743070125579834 8.314188003540039 -2.249630928039551
4.579539775848389 8.405370712280273 -2.249630928039551
4.418306827545166 8.501131057739258 -2.251695156097412
4.086633205413818 8.676358222961426 -2.2540135383605957
3.9158201217651367 8.753907203674316 -2.253826856613159
3.743547201156616 8.828121185302734 -2.2536473274230957
3.56988525390625 8.898977279663086 -2.2534754276275635
3.1669836044311523 8.364493370056152 -2.102036237716675
3.041188955307007 9.091126441955566 -2.2530040740966797
2.502324104309082 9.252185821533203 -2.252601385116577
4.452138423919678 7.461236000061035 -2.249630928039551
4.310952186584473 7.5567169189453125 -2.252561092376709
4.162697792053223 7.640285015106201 -2.2527639865875244
3.8613133430480957 7.798531532287598 -2.253133773803711
3.708327531814575 7.873169898986816 -2.2533071041107178
3.398040771484375 8.013336181640625 -2.2536306381225586
3.2408690452575684 8.078804969787598 -2.2537806034088135
3.082422971725464 8.141164779663086 -2.253922700881958
2.9227733612060547 8.200387954711914 -2.254056692123413
2.6000866889953613 8.309322357177734 -2.254300594329834
4.206297397613525 6.74578332901001 -2.250519275665283
4.073898792266846 6.8273515701293945 -2.2507126331329346
3.8043699264526367 6.982607364654541 -2.251077651977539
3.3890380859375 7.195287704467773 -2.2515738010406494
3.1054296493530273 7.323295593261719 -2.2518692016601562
2.9617748260498047 7.38308572769165 -2.2520060539245605
2.8169591426849365 7.440032958984375 -2.252135753631592
2.3761279582977295 7.593600273132324 -2.2524807453155518
1.926918864250183 7.720848083496094 -2.2527589797973633
3.8857200145721436 6.231662273406982 -2.258816957473755
3.373220205307007 6.4903082847595215 -2.249800443649292
3.245842218399048 6.555491924285889 -2.2499523162841797
3.117199659347534 6.618151664733887 -2.2500979900360107
2.856311082839966 6.735820770263672 -2.2503693103790283
2.7241673469543457 6.790780067443848 -2.250495195388794
2.590956926345825 6.843127250671387 -2.2506144046783447
2.321556329727173 6.939902305603027 -2.2508327960968018
2.1854662895202637 6.984287738800049 -2.250931739807129
3.7001402378082275 6.200979709625244 -2.400308609008789
3.5404248237609863 6.206053256988525 -2.3750076293945312
3.230356454849243 6.215434551239014 -2.328425407409668
2.7858057022094727 6.227740287780762 -2.267812490463257
2.646214485168457 6.240367889404297 -2.2531278133392334
2.5197339057922363 6.281169891357422 -2.249630928039551
2.3963940143585205 6.32925271987915 -2.249630928039551
2.147052049636841 6.418148040771484 -2.2496349811553955
2.0210838317871094 6.45893669128418 -2.249642848968506
1.8943896293640137 6.497342586517334 -2.249680757522583
1.6389257907867432 6.566904067993164 -2.2498319149017334
3.5540099143981934 5.6996893882751465 -2.4020309448242188
3.441845655441284 5.768113136291504 -2.4020309448242188
3.213609457015991 5.898316383361816 -2.4020309448242188
2.9804539680480957 6.019495487213135 -2.4020309448242188
2.7427403926849365 6.1314592361450195 -2.4020309448242188
2.489431142807007 6.205634117126465 -2.3910841941833496
2.079193115234375 6.215400218963623 -2.3437397480010986
1.6831774711608887 6.223443508148193 -2.305508613586426
1.5537853240966797 6.225765705108643 -2.2946693897247314
3.211824893951416 5.382625579833984 -2.4020309448242188
3.1059277057647705 5.444418430328369 -2.4020309448242188
2.99884033203125 5.504128456115723 -2.4020309448242188
2.781268358230591 5.6172075271606445 -2.4020309448242188
2.6708667278289795 5.670534610748291 -2.4020309448242188
2.1043810844421387 5.904240608215332 -2.4020309448242188
1.988494873046875 5.944271087646484 -2.4020309448242188
1.754482388496399 6.017496585845947 -2.4020309448242188
3.1053466796875 4.98015022277832 -2.4020309448242188
2.8079235553741455 5.153703689575195 -2.4020309448242188
2.7065746784210205 5.207639217376709 -2.4020309448242188
2.6039745807647705 5.259583473205566 -2.4020309448242188
2.500823974609375 5.309513568878174 -2.4020309448242188
2.2912425994873047 5.40326452255249 -2.4020309448242188
2.18511962890625 5.447047233581543 -2.4020309448242188
2.078157901763916 5.488745212554932 -2.4020309448242188
1.7526732683181763 5.6011786460876465 -2.4020309448242188
1.4211316108703613 5.694329261779785 -2.4020309448242188
2.9162254333496094 4.676850318908691 -2.4020309448242188
2.8241918087005615 4.732995986938477 -2.4020309448242188
2.731074094772339 4.787332057952881 -2.4020309448242188
2.541743040084839 4.890486240386963 -2.4020309448242188
2.348520517349243 4.9861578941345215 -2.4020309448242188
2.2505481243133545 5.031139850616455 -2.4020309448242188
2.1517088413238525 5.074197292327881 -2.4020309448242188
2.0520458221435547 5.115313529968262 -2.4020309448242188
1.8504077196121216 5.191657543182373 -2.4020309448242188
1.74850332736969 5.226857662200928 -2.4020309448242188
1.6460180282592773 5.26005744934082 -2.4020309448242188
1.5427343845367432 5.291244983673096 -2.4020309448242188
2.482713460922241 4.556818008422852 -2.4020309448242188
2.3025877475738525 4.650434494018555 -2.4020309448242188
2.02587890625 4.777474880218506 -2.4020309448242188
1.9320446252822876 4.81618595123291 -2.4020309448242188
1.6462609767913818 4.921207904815674 -2.4020309448242188
1.4525268077850342 4.98183012008667 -2.4020309448242188
1.354805827140808 5.0092878341674805 -2.4020309448242188
2.5092175006866455 4.205140113830566 -2.4020309448242188
2.342824697494507 4.300062656402588 -2.4020309448242188
2.2582690715789795 4.345065116882324 -2.4020309448242188
1.9995458126068115 4.47003173828125 -2.4020309448242188
1.6440343856811523 4.612648963928223 -2.4020309448242188
1.5534985065460205 4.643922805786133 -2.4020309448242188
1.462368130683899 4.67341947555542 -2.4020309448242188
1.2784631252288818 4.727039813995361 -2.4020309448242188
1.1857579946517944 4.75114107131958 -2.4020309448242188
2.449866771697998 3.928934335708618 -2.4020309448242188
2.3725500106811523 3.9761009216308594 -2.4020309448242188
2.2152209281921387 4.065855503082275 -2.4020309448242188
2.1352672576904297 4.108405590057373 -2.4020309448242188
2.0545005798339844 4.149385929107666 -2.4020309448242188
1.9729479551315308 4.188777923583984 -2.4020309448242188
1.723883032798767 4.297280311584473 -2.4020309448242188
1.382717251777649 4.418875694274902 -2.4020309448242188
1.2088292837142944 4.469576358795166 -2.4020309448242188
1.8687560558319092 3.967568874359131 -2.4020309448242188
1.7907946109771729 4.00336217880249 -2.4020309448242188
1.6328442096710205 4.070339679718018 -2.4020309448242188
1.3913134336471558 4.159097194671631 -2.4020309448242188
1.3096972703933716 4.1855149269104 -2.4020309448242188
1.0619677305221558 4.255123138427734 -2.4020309448242188
2.2013330459594727 3.5303525924682617 -2.4020309448242188
2.131861448287964 3.5727360248565674 -2.4020309448242188
1.9904918670654297 3.653383731842041 -2.4020309448242188
1.9186511039733887 3.691617250442505 -2.4020309448242188
1.473175048828125 3.8908886909484863 -2.4020309448242188
1.3967907428741455 3.918959856033325 -2.4020309448242188
1.2424463033676147 3.970590829849243 -2.4020309448242188
