ply
format ascii 1.0
element vertex 368
property float x
property float y
property float z
end_header
-14.99658203125 6.2735595703125 2.866349697113037
-18.035259246826172 6.273507118225098 3.3669991493225098
-36.94424057006836 7.945667743682861 6.663225173950195
-36.9442024230957 4.826373100280762 6.569612979888916
-36.94417953491211 3.294281005859375 6.540098667144775
-36.944129943847656 0.25837767124176025 6.514410018920898
-36.94410705566406 -1.255739450454712 6.518001556396484
-36.944091796875 -2.014042615890503 6.523914813995361
-17.127256393432617 6.353841304779053 2.7985305786132812
-37.97419357299805 12.343205451965332 6.117027282714844
-38.32684326171875 11.595373153686523 6.134280681610107
-40.09792709350586 10.358988761901855 6.344454288482666
-36.9443359375 7.945681095123291 5.789083003997803
-36.94430923461914 6.375008583068848 5.743300437927246
-36.944305419921875 5.598283767700195 5.724266052246094
-36.94428253173828 4.0586137771606445 5.693706035614014
-36.944271087646484 3.294285774230957 5.682107925415039
-36.94425582885742 2.5327415466308594 5.672933101654053
-36.94422149658203 0.2583850026130676 5.659786224365234
-36.904052734375 -0.4979458451271057 5.654008865356445
-36.94419479370117 -1.2557406425476074 5.662909984588623
-36.944183349609375 -2.0140511989593506 5.668047904968262
-14.996615409851074 6.27357292175293 2.1168606281280518
-17.127260208129883 6.353848934173584 2.378854513168335
-36.94443893432617 8.741137504577637 4.943762302398682
-36.94440460205078 6.375022888183594 4.8820319175720215
-36.94438552856445 4.826394081115723 4.851805686950684
-36.9443359375 1.77334463596344 4.816464900970459
-36.9443244934082 1.0154461860656738 4.812735557556152
-36.94430923461914 0.2583721876144409 4.811036586761475
-36.904144287109375 -0.4979485869407654 4.806125164031982
-36.94429016113281 -1.2557553052902222 4.813690185546875
-14.996630668640137 6.273580074310303 1.745583415031433
-16.107603073120117 6.353874206542969 1.859369158744812
-17.12727928161621 6.353857517242432 1.9616339206695557
-18.035337448120117 6.273530006408691 2.050473928451538
-33.30694580078125 9.336404800415039 3.714411735534668
-33.30693435668945 8.604601860046387 3.693979024887085
-33.30692672729492 7.880502700805664 3.675297975540161
-36.384525299072266 6.278408050537109 3.964771270751953
-36.90432357788086 5.592230319976807 4.008087158203125
-36.90431594848633 4.821163177490234 3.9965217113494873
-36.904293060302734 3.290726900100708 3.9785702228546143
-36.90428161621094 2.5300097465515137 3.9721479415893555
-36.90424728393555 0.2580987513065338 3.962935447692871
-36.90421676635742 -1.2543917894363403 3.965120553970337
-12.457860946655273 4.914175987243652 1.1336742639541626
-16.910829544067383 6.273555755615234 1.5268819332122803
-18.03534698486328 6.273537635803223 1.6164711713790894
-33.30703353881836 10.076692581176758 2.9457435607910156
-33.307029724121094 9.336417198181152 2.928210735321045
-36.384613037109375 6.278421401977539 3.125581979751587
-14.996654510498047 6.273592472076416 1.008034586906433
-15.904062271118164 6.273579120635986 1.0601708889007568
-33.30712890625 10.826210975646973 2.1717529296875
-33.3071174621582 10.076716423034668 2.157837152481079
-33.30711364746094 9.336441040039062 2.1449944972991943
-33.307098388671875 8.604636192321777 2.1331918239593506
-33.30709457397461 7.880540370941162 2.1224114894866943
-33.30707550048828 6.45258903503418 2.103783130645752
-36.384700775146484 6.278443336486816 2.28957200050354
-41.55339813232422 6.296718597412109 2.6061525344848633
-18.035390853881836 6.27355432510376 0.7529495358467102
-33.307212829589844 10.8262300491333 1.3809746503829956
-33.30720520019531 10.076748847961426 1.372129201889038
-33.30719757080078 9.336471557617188 1.3639590740203857
-33.30718231201172 8.604667663574219 1.3564529418945312
-33.307151794433594 6.452613353729248 1.3377532958984375
-36.354740142822266 6.273273944854736 1.454689860343933
-41.39817428588867 6.273196697235107 1.651007056236267
-16.910879135131836 6.273576736450195 0.30467987060546875
-33.30729293823242 10.826255798339844 0.5915948152542114
-33.30727767944336 9.336495399475098 0.5843048095703125
-33.30726623535156 8.604679107666016 0.5810937285423279
-33.307254791259766 7.880582332611084 0.5781570076942444
-33.307247161865234 7.163444519042969 0.5754888653755188
-36.35481262207031 6.273288249969482 0.6231738328933716
-41.39826965332031 6.273212909698486 0.7072738409042358
-33.307373046875 10.076783180236816 -0.19591842591762543
-33.30734634399414 8.604694366455078 -0.19368086755275726
-33.30733871459961 7.880595684051514 -0.19270385801792145
-33.30732345581055 7.163459300994873 -0.191813662648201
-39.905235290527344 6.885937213897705 -0.22799330949783325
-42.14015579223633 6.385623455047607 -0.2399650514125824
-15.904135704040527 6.273604393005371 -0.4814152419567108
-17.740190505981445 6.581229209899902 -0.5327920317649841
-18.035472869873047 6.273575305938721 -0.5376872420310974
-33.30744552612305 9.336536407470703 -0.9740168452262878
-33.307411193847656 7.163471698760986 -0.9593104124069214
-33.307395935058594 6.452654838562012 -0.955301821231842
-39.90532684326172 6.885953426361084 -1.1402541399002075
-15.505292892456055 6.486371994018555 -0.8523719310760498
-15.904135704040527 6.273612976074219 -0.8670474290847778
-17.740234375 6.581241130828857 -0.9595948457717896
-33.30753707885742 10.076847076416016 -1.7647762298583984
-33.3074951171875 7.163493633270264 -1.7277846336364746
-39.90542221069336 6.885969161987305 -2.0536820888519287
-42.14035415649414 6.385659217834473 -2.161513566970825
-44.13142013549805 3.935157299041748 -2.24696946144104
-47.234619140625 -1.6055288314819336 -2.3968498706817627
-17.740278244018555 6.581258296966553 -1.3873791694641113
-18.035497665405273 6.273592472076416 -1.400124192237854
-29.13448143005371 9.469930648803711 -2.2462158203125
-29.32212257385254 8.871106147766113 -2.2462058067321777
-29.497690200805664 8.268603324890137 -2.24619722366333
-29.660688400268555 7.662615776062012 -2.246190309524536
-29.811429977416992 7.05345344543457 -2.2461845874786377
-29.94963836669922 6.441303730010986 -2.246180772781372
-30.119863510131836 5.835131645202637 -2.2495133876800537
-30.24760627746582 5.219444274902344 -2.2505950927734375
-30.40608787536621 3.9722392559051514 -2.2483839988708496
-30.46607780456543 3.346935272216797 -2.24727725982666
-32.63291931152344 2.237185001373291 -2.3983311653137207
-32.7071418762207 -0.44131436944007874 -2.3983705043792725
-32.661922454833984 -1.7805999517440796 -2.3983988761901855
-15.904170036315918 6.273626804351807 -1.6413817405700684
-18.0355167388916 6.273598670959473 -1.8332515954971313
-22.258792877197266 7.235030174255371 -2.247004270553589
-22.68577003479004 5.860698223114014 -2.249450445175171
-22.920589447021484 4.929570198059082 -2.250804901123047
-23.008188247680664 4.457382678985596 -2.249965190887451
-24.891138076782227 2.2195215225219727 -2.3991527557373047
-24.931425094604492 1.7091954946517944 -2.3991575241088867
-24.987987518310547 -0.3371643126010895 -2.3991875648498535
-24.975961685180664 -0.8489453196525574 -2.399198055267334
-17.74036979675293 6.581296443939209 -2.2476420402526855
-17.88602066040039 6.221589088439941 -2.249474287033081
-18.0091552734375 5.853724002838135 -2.249406576156616
-18.148319244384766 5.490579605102539 -2.2522616386413574
-18.3470401763916 4.739819049835205 -2.250920534133911
-18.434736251831055 4.361700534820557 -2.250246286392212
-18.65096664428711 3.218357563018799 -2.2482123374938965
-19.674360275268555 2.57025146484375 -2.35689640045166
-20.08075714111328 2.2060179710388184 -2.3996634483337402
-20.121767044067383 1.7942382097244263 -2.3996663093566895
-20.154321670532227 1.381697416305542 -2.399670124053955
-20.17843246459961 0.9685735702514648 -2.399674892425537
-20.201297760009766 0.14127685129642487 -2.3996870517730713
-14.905879020690918 5.529757976531982 -2.2526493072509766
-15.012348175048828 5.221988201141357 -2.2520971298217773
-15.1124267578125 4.912165641784668 -2.25154185295105
-15.293330192565918 4.286932468414307 -2.2504234313964844
-15.374086380004883 3.9717814922332764 -2.2498607635498047
-15.516063690185547 3.3370659351348877 -2.2487294673919678
-15.577220916748047 3.017784357070923 -2.2481613159179688
-15.6327486038208 2.6975433826446533 -2.2477264404296875
-16.747377395629883 2.537776470184326 -2.4000113010406494
-16.79584503173828 2.194204092025757 -2.400012254714966
-16.871654510498047 1.5044286251068115 -2.4000163078308105
-16.898935317993164 1.1585253477096558 -2.400019407272339
-16.919170379638672 0.8121240139007568 -2.4000234603881836
-16.932279586791992 0.46539610624313354 -2.4000282287597656
-16.929046630859375 -0.5754266381263733 -2.4000468254089355
-12.716293334960938 5.016111850738525 -2.251960515975952
-12.90562915802002 4.489182472229004 -2.251014232635498
-12.992118835449219 4.222985744476318 -2.250537157058716
-13.148564338684082 3.6857268810272217 -2.2495760917663574
-13.21847152709961 3.4148919582366943 -2.2490923404693604
-13.495893478393555 2.614560604095459 -2.264636278152466
-14.357905387878418 2.4775590896606445 -2.400265693664551
-14.447338104248047 1.8873968124389648 -2.400266647338867
-14.482963562011719 1.5910638570785522 -2.400268077850342
-14.512568473815918 1.2940703630447388 -2.4002702236175537
-14.56893539428711 -0.19657836854457855 -2.4002907276153564
-14.561899185180664 -0.4949621558189392 -2.400296688079834
-14.54872989654541 -0.7931399345397949 -2.400303363800049
-11.050244331359863 4.622681140899658 -2.251431465148926
-11.140595436096191 4.394567966461182 -2.251021146774292
-11.3070650100708 3.9331278800964355 -2.250192403793335
-11.454413414001465 3.4654107093811035 -2.249354600906372
-11.520834922790527 3.229451894760132 -2.2489328384399414
-11.582382202148438 2.992222309112549 -2.248509168624878
-11.63936996459961 2.75390625 -2.2481493949890137
-12.127123832702637 2.608203172683716 -2.331545352935791
-12.537943840026855 2.428980588912964 -2.4004597663879395
-12.585067749023438 2.1716437339782715 -2.4004592895507812
-12.626909255981445 1.9133923053741455 -2.4004592895507812
-12.663461685180664 1.65434992313385 -2.4004600048065186
-12.74120044708252 0.8734862804412842 -2.400465726852417
-12.770849227905273 0.08931457251310349 -2.4004762172698975
-12.763833045959473 -0.4338458180427551 -2.4004862308502197
-12.752304077148438 -0.6952081322669983 -2.4004921913146973
-10.051459312438965 3.496366500854492 -2.249547004699707
-10.119306564331055 3.2891979217529297 -2.249175786972046
-10.182861328125 3.080713987350464 -2.248802423477173
-10.999408721923828 2.602487087249756 -2.389246940612793
-11.102978706359863 2.387937545776367 -2.4006128311157227
-11.261176109313965 1.4711560010910034 -2.4006121158599854
-11.288949966430664 1.2401769161224365 -2.400613307952881
-11.311991691589355 1.008681058883667 -2.4006149768829346
-11.343842506408691 0.5445092916488647 -2.4006195068359375
-11.35262680053711 0.3120361268520355 -2.400622844696045
-11.35665512084961 0.07942687720060349 -2.4006264209747314
-11.350424766540527 -0.3858056664466858 -2.400635242462158
-11.340161323547363 -0.6182199120521545 -2.4006407260894775
-8.83193302154541 3.694688558578491 -2.250016212463379
-8.904467582702637 3.5124926567077637 -2.249688148498535
-9.099349975585938 2.9576690196990967 -2.248692512512207
-9.156879425048828 2.7703185081481934 -2.2484123706817627
-9.37618637084961 2.628283739089966 -2.2885653972625732
-9.94045352935791 2.3519346714019775 -2.4007365703582764
-9.986533164978027 2.1478240489959717 -2.400735378265381
-10.066137313842773 1.7369805574417114 -2.4007341861724854
-10.153813362121582 1.115472435951233 -2.400735855102539
-10.211073875427246 0.2806561291217804 -2.400744676589966
-10.214696884155273 0.07143920660018921 -2.400747776031494
-10.209096908569336 -0.34701108932495117 -2.4007558822631836
-10.199857711791992 -0.5560570955276489 -2.4007604122161865
-8.0809326171875 3.1876378059387207 -2.249197244644165
-8.202528953552246 2.853220224380493 -2.248596668243408
-8.9778413772583 2.319354295730591 -2.400839328765869
-9.023456573486328 2.1349730491638184 -2.4008378982543945
-9.065298080444336 1.9496886730194092 -2.40083646774292
-9.167914390563965 1.389241337776184 -2.4008357524871826
-9.1944580078125 1.201160192489624 -2.400836229324341
-9.235941886901855 0.8235583305358887 -2.4008383750915527
-9.267313957214355 -0.3149999976158142 -2.400855302810669
-9.258925437927246 -0.5047619342803955 -2.4008593559265137
-7.389492034912109 2.91489315032959 -2.2487852573394775
-7.447011470794678 2.7626824378967285 -2.248594045639038
-7.586386680603027 2.6388914585113525 -2.2738656997680664
-8.043754577636719 2.614556312561035 -2.394402027130127
-8.117694854736328 2.455920934677124 -2.400928020477295
-8.16628360748291 2.2891223430633545 -2.400926113128662
-8.291449546813965 1.7832555770874023 -2.400921583175659
-8.357523918151855 1.4421520233154297 -2.4009206295013428
-8.385321617126465 1.2706512212753296 -2.4009206295013428
-8.461186408996582 0.5800665020942688 -2.4009249210357666
-8.480864524841309 0.05931396409869194 -2.4009318351745605
-7.557997703552246 1.9525487422943115 -2.400996446609497
-7.596396446228027 1.7973241806030273 -2.4009950160980225
-7.663632869720459 1.4846770763397217 -2.4009933471679688
-7.718007564544678 1.169531226158142 -2.4009933471679688
-7.740341663360596 1.0111956596374512 -2.400993824005127
-7.759443283081055 0.8524340391159058 -2.4009945392608643
-7.775282859802246 0.6933130025863647 -2.4009954929351807
-7.787861347198486 0.5339007377624512 -2.4009971618652344
-7.797158241271973 0.3742663562297821 -2.400998830795288
-7.803203105926514 0.21447692811489105 -2.4010009765625
-7.805976390838623 0.05459289252758026 -2.40100359916687
-7.801679611206055 -0.26518309116363525 -2.4010097980499268
-6.869579792022705 2.2328808307647705 -2.40106463432312
-6.913808345794678 2.0916974544525146 -2.401062488555908
-6.955204963684082 1.9496368169784546 -2.4010603427886963
-7.029218673706055 1.6631280183792114 -2.401057720184326
-7.09142541885376 1.373822569847107 -2.4010560512542725
-7.118085861206055 1.228277564048767 -2.4010558128356934
-7.141757488250732 1.0822075605392456 -2.4010560512542725
-7.162412166595459 0.9356945753097534 -2.4010565280914307
-7.194736003875732 0.6415466070175171 -2.4010581970214844
-7.206367015838623 0.4940386712551117 -2.401059627532959
-7.214990139007568 0.3463208079338074 -2.4010612964630127
-7.220566272735596 0.19846251606941223 -2.4010632038116455
-7.223124980926514 0.050516966730356216 -2.4010655879974365
-6.246035099029541 2.4638397693634033 -2.4011266231536865
-6.341699123382568 2.205941677093506 -2.401120901107788
-6.385546684265137 2.0755717754364014 -2.401118755340576
-6.426718711853027 1.944334626197815 -2.4011166095733643
-6.465195178985596 1.8122844696044922 -2.4011149406433105
-6.500946998596191 1.67947256565094 -2.401113271713257
-6.533984184265137 1.545958161354065 -2.4011123180389404
-6.616601467132568 1.1417425870895386 -2.4011106491088867
-6.638593673706055 1.005964994430542 -2.401110887527466
-6.674228191375732 0.7332140803337097 -2.401111602783203
-6.687851428985596 0.5963500738143921 -2.4011127948760986
-6.698671817779541 0.4592333734035492 -2.401113986968994
-6.706679344177246 0.3219220042228699 -2.4011154174804688
-6.714247703552246 0.04695678502321243 -2.4011197090148926
-6.710546493530273 -0.22809508442878723 -2.4011247158050537
-6.704482078552246 -0.3655029237270355 -2.401128053665161
-5.780409812927246 2.418135404586792 -2.401176929473877
-5.82873010635376 2.2992236614227295 -2.4011738300323486
-5.87462854385376 2.179346799850464 -2.4011709690093994
-5.958915710449219 1.9368938207626343 -2.4011664390563965
-5.997334003448486 1.8144292831420898 -2.4011645317077637
-6.066601276397705 1.5672625303268433 -2.4011614322662354
-6.151415824890137 1.191713809967041 -2.4011590480804443
-6.195058345794678 0.9387542605400085 -2.4011590480804443
-6.258584022521973 0.3004138171672821 -2.401163339614868
-6.265244007110596 -0.08453552424907684 -2.401169538497925
-6.262197017669678 -0.21285399794578552 -2.401172161102295
-6.256533145904541 -0.3410821557044983 -2.401175022125244
-5.412489891052246 2.2642228603363037 -2.4012184143066406
-5.500673770904541 2.040630340576172 -2.4012131690979004
-5.541318416595459 1.9275274276733398 -2.4012107849121094
-5.579638481140137 1.8136132955551147 -2.4012086391448975
-5.680478572845459 1.467507243156433 -2.4012041091918945
-5.70934534072876 1.350842833518982 -2.401203155517578
-5.735810279846191 1.2336101531982422 -2.401202440261841
-5.781513690948486 0.9976446032524109 -2.4012017250061035
-5.84377908706665 0.5210852026939392 -2.4012036323547363
-5.866455078125 -0.07915649563074112 -2.401211738586426
-5.863613128662109 -0.19930724799633026 -2.401214122772217
-5.858300685882568 -0.3193701207637787 -2.401216983795166
-5.125429630279541 2.021796226501465 -2.4012532234191895
-5.239912033081055 1.7031896114349365 -2.4012467861175537
-5.273701190948486 1.595499873161316 -2.4012451171875
-5.334619045257568 1.3781554698944092 -2.40124249458313
-5.409169673919678 1.0479204654693604 -2.401240587234497
-5.429502010345459 0.9369012117385864 -2.401240110397339
-5.476806640625 0.6016674637794495 -2.4012410640716553
-5.49685525894165 0.37684202194213867 -2.401242971420288
-5.503427505493164 0.26416686177253723 -2.4012444019317627
-5.509638786315918 0.038533322513103485 -2.40124773979187
-5.506591796875 -0.18717162311077118 -2.401252031326294
-4.933564186096191 1.603615641593933 -2.4012811183929443
-4.965371131896973 1.5022209882736206 -2.4012794494628906
-5.02273416519165 1.2975841760635376 -2.4012770652770996
-5.048261642456055 1.194427490234375 -2.401276111602783
-5.071669578552246 1.0907684564590454 -2.401275396347046
-5.092939376831055 0.9866576790809631 -2.401275157928467
-5.112080097198486 0.882127046585083 -2.4012749195098877
-5.143925666809082 0.6719988584518433 -2.401275157928467
-5.167128562927246 0.4607476592063904 -2.4012765884399414
-5.175487995147705 0.35481077432632446 -2.4012773036956787
-5.181679725646973 0.24872252345085144 -2.4012787342071533
-5.187519550323486 0.036280516535043716 -2.4012818336486816
-5.179970741271973 -0.28239133954048157 -2.4012882709503174
-4.553925514221191 1.7963604927062988 -2.401318073272705
-4.589775085449219 1.702703833580017 -2.401315927505493
-4.623681545257568 1.6083288192749023 -2.4013137817382812
-4.713720798492432 1.3213176727294922 -2.4013092517852783
-4.739794731140137 1.2244867086410522 -2.401308298110962
-4.806044578552246 0.931075394153595 -2.401306390762329
-4.854159832000732 0.6341436505317688 -2.401306629180908
-4.866122722625732 0.5345800518989563 -2.4013071060180664
-4.883935451507568 0.3348223865032196 -2.40130877494812
-4.889784812927246 0.2347119152545929 -2.4013099670410156
-4.893564224243164 0.1345025599002838 -2.4013113975524902
-4.895302772521973 0.034236449748277664 -2.401312828063965
-4.888173580169678 -0.26648375391960144 -2.4013190269470215
-4.270253658294678 1.7863848209381104 -2.401348114013672
-4.305956840515137 1.6985387802124023 -2.40134596824646
-4.402119159698486 1.4308733940124512 -2.4013404846191406
-4.430507659912109 1.3404009342193604 -2.401339054107666
-4.45703125 1.249365210533142 -2.4013378620147705
-4.589824199676514 0.5996105670928955 -2.4013352394104004
-4.601132869720459 0.5054699778556824 -2.4013357162475586
-4.627089977264404 0.12717895209789276 -2.4013397693634033
-4.628730297088623 0.03237060457468033 -2.401341199874878
-4.628407955169678 -0.06245177984237671 -2.4013428688049316
-4.044804573059082 1.6920629739761353 -2.401373863220215
-4.141054630279541 1.4404528141021729 -2.4013681411743164
-4.221699237823486 1.1834008693695068 -2.4013640880584717
-4.266621112823486 1.009493350982666 -2.401362180709839
-4.304394245147705 0.833890974521637 -2.4013614654541016
-4.334931373596191 0.6568847298622131 -2.4013612270355225
-4.347490310668945 0.5679522752761841 -2.4013614654541016
-4.367089748382568 0.3894091844558716 -2.401362657546997
-4.379384517669678 0.21021239459514618 -2.40136456489563
-4.382782936096191 0.12046264111995697 -2.4013657569885254
-4.384325981140137 0.03066162019968033 -2.4013671875
-4.384033203125 -0.059154052287340164 -2.4013686180114746
-4.381914138793945 -0.1489434838294983 -2.4013705253601074
-3.8691892623901367 1.5262572765350342 -2.401395320892334
-3.8996386528015137 1.4466832876205444 -2.401393413543701
-3.928457021713257 1.366499662399292 -2.4013917446136475
-4.004961013793945 1.1226446628570557 -2.401387929916382
-4.047568321228027 0.9576665759086609 -2.4013864994049072
-4.083407878875732 0.7910791039466858 -2.401385545730591
-4.098750114440918 0.7072692513465881 -2.401385545730591
-2.230644464492798 0.19890257716178894 -1.2929704189300537
-2.2289745807647705 0.15280821919441223 -1.2899163961410522
-2.225468635559082 0.10682250559329987 -1.2863490581512451
-2.2201366424560547 0.0610211156308651 -1.282279372215271
-2.213017463684082 0.015477905049920082 -1.2777189016342163
-2.215468645095825 -0.029893187806010246 -1.2792184352874756
-2.2267773151397705 -0.12139526009559631 -1.2875356674194336
