ply
format ascii 1.0
element vertex 290
property float x
property float y
property float z
end_header
-17.345684051513672 31.235668182373047 6.299931526184082
-17.310516357421875 22.94476318359375 5.068029880523682
-17.309450149536133 22.01721954345703 4.9383368492126465
-17.8892822265625 30.754974365234375 5.450566291809082
-15.927560806274414 31.58363914489746 4.606235027313232
-17.055999755859375 32.20918273925781 4.746079444885254
-17.266246795654297 31.092613220214844 4.631311893463135
-18.42057991027832 30.264938354492188 4.613722324371338
-17.246746063232422 22.86023712158203 3.7290518283843994
-17.246746063232422 21.93745231628418 3.633842945098877
-16.616374969482422 31.378986358642578 3.812800407409668
-17.06545639038086 30.731037139892578 3.7746284008026123
-17.325481414794922 31.19928550720215 3.0210108757019043
-17.309450149536133 22.017215728759766 2.3708465099334717
-16.106178283691406 30.41550636291504 2.13419246673584
-16.75137710571289 30.165456771850586 2.1396377086639404
-17.559112548828125 30.187355041503906 2.1655709743499756
-17.246746063232422 22.860240936279297 1.7757488489151
-17.246746063232422 21.937448501586914 1.7304116487503052
-12.80164623260498 35.33599853515625 1.4819527864456177
-16.0711669921875 30.349374771118164 1.3541359901428223
-18.05908966064453 29.67101287841797 1.3696242570877075
-19.2337646484375 30.228511810302734 1.4127639532089233
-17.84870719909668 22.70313835144043 1.1387372016906738
-17.2879581451416 29.72119140625 0.5807977318763733
-18.306028366088867 30.076730728149414 0.5947536826133728
-19.14057731628418 30.08207893371582 0.6022793650627136
-17.732147216796875 30.484838485717773 -0.19855956733226776
-18.632068634033203 30.61241340637207 -0.2017681896686554
-7.281686305999756 28.758657455444336 -0.835333526134491
-11.785021781921387 28.8826847076416 -0.878367006778717
-12.437891960144043 28.827604293823242 -0.8840509057044983
-13.757498741149902 28.687728881835938 -0.8958656191825867
-15.2745361328125 28.845043182373047 -0.9190552830696106
-16.014028549194336 28.837684631347656 -0.9288044571876526
-16.838865280151367 28.949119567871094 -0.9430099129676819
-19.315439224243164 29.062257766723633 -0.9825814366340637
-20.103254318237305 28.978586196899414 -0.9930952191352844
-20.94124984741211 28.93846321105957 -1.0058174133300781
-22.69366455078125 28.865821838378906 -1.0339044332504272
-7.277276039123535 28.74124526977539 -1.5035885572433472
-11.19994831085205 29.092172622680664 -1.5809459686279297
-13.907798767089844 29.00113868713379 -1.631150484085083
-14.586753845214844 28.92489242553711 -1.6428779363632202
-15.346165657043457 28.98029899597168 -1.663057804107666
-16.030454635620117 28.867271423339844 -1.674564003944397
-17.578895568847656 28.882055282592773 -1.7147045135498047
-18.351905822753906 28.842567443847656 -1.733721137046814
-19.29839515686035 29.036611557006836 -1.7681407928466797
-20.9312744140625 28.9246768951416 -1.8106884956359863
-22.776464462280273 28.971149444580078 -1.8689382076263428
-7.334288597106934 28.96640396118164 -2.190901756286621
-7.95786714553833 28.989913940429688 -2.204233407974243
-9.674840927124023 28.46296501159668 -2.204233407974243
-10.80069351196289 28.05508804321289 -2.204233407974243
-11.357314109802246 27.834407806396484 -2.204233407974243
-12.456778526306152 27.36003303527832 -2.204233407974243
-13.536497116088867 26.84225082397461 -2.204233407974243
-14.594759941101074 26.2818603515625 -2.204233407974243
-15.115304946899414 25.985973358154297 -2.204233407974243
-16.3259220123291 25.65846061706543 -2.2298760414123535
-18.77643394470215 23.883182525634766 -2.227546453475952
-5.7268242835998535 22.617816925048828 -2.239948272705078
-7.063271522521973 22.222848892211914 -2.238677978515625
-7.93972110748291 21.915771484375 -2.237844705581665
-9.229235649108887 21.390804290771484 -2.236618995666504
-9.651690483093262 21.19894790649414 -2.236217498779297
-10.894657135009766 20.57386016845703 -2.2350358963012695
-12.489011764526367 19.628217697143555 -2.233520269393921
-14.367146492004395 18.274677276611328 -2.2317349910736084
-4.630679130554199 18.288639068603516 -2.2409884929656982
-6.0678019523620605 17.851207733154297 -2.2396223545074463
-6.421173095703125 17.724151611328125 -2.239286422729492
-7.119810581207275 17.44920539855957 -2.2386224269866943
-7.464829444885254 17.301403045654297 -2.2382943630218506
-7.806789398193359 17.14681625366211 -2.237969398498535
-8.481026649475098 16.817495346069336 -2.23732852935791
-8.8130521774292 16.642892837524414 -2.2370128631591797
-9.141495704650879 16.461767196655273 -2.2367007732391357
-9.466238975524902 16.274194717407227 -2.23639178276062
-9.787150382995605 16.080238342285156 -2.236086845397949
-11.030034065246582 15.242258071899414 -2.234905242919922
-4.187531471252441 15.254860877990723 -2.241408348083496
-4.489936828613281 15.16649341583252 -2.2411210536956787
-4.790497779846191 15.07214069366455 -2.240835189819336
-7.114230632781982 14.107199668884277 -2.238626480102539
-7.668607234954834 13.809428215026855 -2.2380995750427246
-7.941197395324707 13.652379989624023 -2.237840414047241
-8.476702690124512 13.322272300720215 -2.2373321056365967
-8.73935317993164 13.149340629577637 -2.2370831966400146
-8.998539924621582 12.97125244140625 -2.236837148666382
-9.505885124206543 12.599897384643555 -2.2363574504852295
-3.86270809173584 13.04790210723877 -2.241716146469116
-4.121394157409668 12.966964721679688 -2.2414708137512207
-4.633523464202881 12.789772987365723 -2.2409846782684326
-5.138088703155518 12.592409133911133 -2.2405059337615967
-5.387286186218262 12.4862642288208 -2.240269899368286
-5.634298801422119 12.375202178955078 -2.2400362491607666
-6.121464729309082 12.138510704040527 -2.2395758628845215
-6.361308574676514 12.012961387634277 -2.239349126815796
-6.598677635192871 11.882695198059082 -2.2391247749328613
-6.833319664001465 11.747754096984863 -2.2389023303985596
-7.065256118774414 11.608185768127441 -2.238682270050049
-7.963649749755859 11.00487995147705 -2.237830400466919
-8.180500030517578 10.843097686767578 -2.2376246452331543
-3.1580352783203125 11.504528999328613 -2.2423932552337646
-3.838308095932007 11.29216480255127 -2.2417476177215576
-4.062070369720459 11.212409019470215 -2.241535186767578
-4.504510879516602 11.039679527282715 -2.2411153316497803
-4.939690589904785 10.849533081054688 -2.2407023906707764
-5.154327392578125 10.748029708862305 -2.2404987812042236
-5.366880893707275 10.642285346984863 -2.2402970790863037
-6.594021320343018 9.921384811401367 -2.239135503768921
-6.789705276489258 9.787277221679688 -2.2389519214630127
-4.301884651184082 5.4719061851501465 -1.3082921504974365
-2.6044750213623047 10.286250114440918 -2.2429211139678955
-2.8085789680480957 10.23145580291748 -2.242727518081665
-3.213263988494873 10.10975456237793 -2.2423431873321533
-3.4136810302734375 10.042902946472168 -2.2421531677246094
-3.8102879524230957 9.897330284118652 -2.2417783737182617
-4.200727462768555 9.736139297485352 -2.241410255432129
-4.77350378036499 9.465630531311035 -2.240870475769043
-2.895740270614624 5.4684343338012695 -1.3079798221588135
-3.004077672958374 5.409677028656006 -1.3079798221588135
-5.5099945068359375 9.052881240844727 -2.2401745319366455
-6.211160182952881 8.583110809326172 -2.239511728286743
-6.380402088165283 8.457104682922363 -2.239351987838745
-4.29539680480957 5.463654041290283 -1.4690816402435303
-2.708958625793457 9.150470733642578 -2.2428321838378906
-2.89041805267334 9.094008445739746 -2.2426602840423584
-3.070742130279541 9.033950805664062 -2.2424895763397217
-3.427560329437256 8.903152465820312 -2.2421517372131348
-3.952225923538208 8.680659294128418 -2.241655111312866
-4.124028205871582 8.599599838256836 -2.241492509841919
-2.844752788543701 5.372145175933838 -1.4286718368530273
-2.9797539710998535 5.365877151489258 -1.4425039291381836
-4.794000625610352 8.241774559020996 -2.240858793258667
-4.956857204437256 8.144099235534668 -2.2407047748565674
-5.117726802825928 8.043218612670898 -2.2405526638031006
-5.276548385620117 7.9391655921936035 -2.2404026985168457
-5.587900161743164 7.721704483032227 -2.240105152130127
-4.301884651184082 5.471904754638672 -1.6358691453933716
-1.3580834865570068 5.363707542419434 -1.4325841665267944
-2.6239733695983887 8.255693435668945 -2.2429182529449463
-3.1116533279418945 8.082599639892578 -2.2424561977386475
-3.27178692817688 8.01848316192627 -2.242304563522339
-3.588043689727783 7.880773067474365 -2.2420053482055664
-2.6186559200286865 5.460546016693115 -1.5680019855499268
-3.898513078689575 7.730611801147461 -2.241708993911743
-2.8447515964508057 5.372145175933838 -1.5739246606826782
-3.324320077896118 5.461854934692383 -1.655513882637024
-5.239801406860352 6.945245742797852 -2.252612352371216
-1.4713391065597534 5.359994411468506 -1.5735058784484863
-2.2504429817199707 7.6017985343933105 -2.2443387508392334
-1.7350438833236694 5.4589080810546875 -1.6215565204620361
-2.1018359661102295 5.459588050842285 -1.6561483144760132
-2.2277684211730957 5.459822177886963 -1.6693511009216309
-3.582606792449951 7.1041436195373535 -2.2523930072784424
-2.8447508811950684 5.3721466064453125 -1.7208815813064575
-4.137803077697754 6.798402786254883 -2.2530293464660645
-4.405960559844971 6.629268169403076 -2.253384590148926
-1.4713391065597534 5.3599958419799805 -1.7096048593521118
-2.357236385345459 6.9348602294921875 -2.2528700828552246
-2.631779670715332 6.83608341217041 -2.253067970275879
-2.844752788543701 5.372145175933838 -1.869726538658142
-2.9797563552856445 5.365878105163574 -1.887830138206482
-3.810476541519165 6.260597229003906 -2.2542548179626465
-4.297932147979736 5.9392619132995605 -2.2549314498901367
-2.0539183616638184 6.462162494659424 -2.253948211669922
-2.182291269302368 6.4202117919921875 -2.2540314197540283
-2.436444044113159 6.328721046447754 -2.2542147636413574
-3.4111828804016113 5.8644537925720215 -2.2551703453063965
-3.527531623840332 5.79572057723999 -2.2553141117095947
-3.7560484409332275 5.651400566101074 -2.255617141723633
-3.8681323528289795 5.575865745544434 -2.2557764053344727
-3.978703022003174 5.498124122619629 -2.2559409141540527
-4.194473743438721 5.335266590118408 -2.25592041015625
-1.3580846786499023 5.363707542419434 -1.9786295890808105
-1.4713391065597534 5.3599958419799805 -1.987679362297058
-1.789915680885315 6.0461297035217285 -2.254897117614746
-2.265744686126709 5.88533353805542 -2.2552168369293213
-2.3826048374176025 5.8392839431762695 -2.25531005859375
-2.4985363483428955 5.790925979614258 -2.255408525466919
-2.6134960651397705 5.7402801513671875 -2.255511999130249
-2.8403074741363525 5.632201194763184 -2.255734443664551
-2.979754686355591 5.365877151489258 -2.1948959827423096
-3.172100067138672 5.453429222106934 -2.256105899810791
-3.2801318168640137 5.389253616333008 -2.256140947341919
-3.4916064739227295 5.253508567810059 -2.2557802200317383
-3.8972740173339844 4.957245349884033 -2.254997730255127
-1.3580846786499023 5.363707542419434 -2.1203341484069824
-1.6709630489349365 5.644327640533447 -2.2558023929595947
-1.894537329673767 5.573648929595947 -2.255941867828369
-2.0052380561828613 5.534999370574951 -2.256018877029419
-2.115152597427368 5.494165420532227 -2.256101131439209
-2.2242393493652344 5.451159954071045 -2.256188154220581
-2.3324620723724365 5.405980587005615 -2.2562711238861084
-2.6506359577178955 5.256100177764893 -2.2558648586273193
-2.7546191215515137 5.20192813873291 -2.255718946456909
-2.8574798107147217 5.145689010620117 -2.255568027496338
-2.959192991256714 5.08740758895874 -2.2554121017456055
-3.353691339492798 4.834315776824951 -2.254739284515381
-3.44903564453125 4.766185760498047 -2.254559278488159
-3.6355090141296387 4.62428092956543 -2.254185199737549
-1.4592162370681763 5.3158488273620605 -2.2561256885528564
-1.5647411346435547 5.2855329513549805 -2.256039619445801
-2.0820250511169434 5.1026225090026855 -2.2555317878723145
-2.283348321914673 5.0151286125183105 -2.255293130874634
-2.38262939453125 4.968379497528076 -2.255166530609131
-2.5783069133758545 4.8689703941345215 -2.2548985481262207
-2.769814968109131 4.761821746826172 -2.2546112537384033
-2.86391282081604 4.705397605895996 -2.2544608116149902
-2.956854820251465 4.6471076011657715 -2.254305601119995
-3.048604726791382 4.586971282958984 -2.254146099090576
-3.139127016067505 4.525015354156494 -2.253981828689575
-3.228384256362915 4.461264133453369 -2.2538135051727295
-3.316340208053589 4.395745277404785 -2.253640651702881
-1.3698607683181763 4.99031400680542 -2.2553155422210693
-1.4689306020736694 4.9618635177612305 -2.255234956741333
-1.6652355194091797 4.899044513702393 -2.255058765411377
-1.7624011039733887 4.8647027015686035 -2.2549633979797363
-2.049471378326416 4.750115394592285 -2.2546489238739014
-2.5109057426452637 4.521574020385742 -2.2540314197540283
-2.862065315246582 4.306303024291992 -2.25345778465271
-3.0308728218078613 4.188325881958008 -2.253145694732666
-1.1955773830413818 4.721871376037598 -2.254657030105591
-1.3825842142105103 4.67020845413208 -2.254509925842285
-1.5673595666885376 4.61110258102417 -2.2543442249298096
-1.749609351158142 4.544654369354248 -2.254160165786743
-2.0176000595092773 4.431456089019775 -2.2538506984710693
-2.192258358001709 4.347150802612305 -2.2536227703094482
-2.278284788131714 4.302396774291992 -2.253502368927002
-2.3633885383605957 4.2559309005737305 -2.253377676010132
-2.4475438594818115 4.207777500152588 -2.253248691558838
-2.852874755859375 3.9423539638519287 -2.2525441646575928
-2.9306254386901855 3.884489059448242 -2.2523913383483887
-1.3043017387390137 4.40578031539917 -2.253852605819702
-1.6505614519119263 4.2873735427856445 -2.2535226345062256
-1.7355493307113647 4.253475666046143 -2.253429651260376
-1.9861888885498047 4.141682147979736 -2.2531254291534424
-2.068178653717041 4.101105690002441 -2.2530157566070557
-2.309035539627075 3.969658613204956 -2.2526631355285645
-2.5415356159210205 3.8240275382995605 -2.2522754669189453
-2.6170337200164795 3.7724194526672363 -2.25213885307312
-2.764847993850708 3.6647613048553467 -2.2518653869628906
-2.8372764587402344 3.6089532375335693 -2.251854658126831
-1.0661609172821045 4.210749626159668 -2.253384590148926
-1.1497814655303955 4.188560485839844 -2.2533209323883057
-1.232934594154358 4.164706707000732 -2.253253221511841
-1.3155920505523682 4.139194011688232 -2.2531814575195312
-1.3977209329605103 4.112032413482666 -2.253105640411377
-1.4792883396148682 4.083234786987305 -2.253025531768799
-1.5602599382400513 4.052811622619629 -2.252941608428955
-2.0317821502685547 3.8368918895721436 -2.2523550987243652
-2.182753801345825 3.7525553703308105 -2.252129077911377
-2.2569408416748047 3.708143949508667 -2.2520105838775635
-2.402651309967041 3.6150736808776855 -2.2518560886383057
-2.5446910858154297 3.5164897441864014 -2.2518370151519775
-2.614211320877075 3.4650981426239014 -2.2518272399902344
-2.682695150375366 3.41232967376709 -2.251817226409912
-1.0096081495285034 3.9873950481414795 -2.252828359603882
-1.0887951850891113 3.966390371322632 -2.2527682781219482
-1.1675366163253784 3.9438085556030273 -2.25270414352417
-1.3235888481140137 3.8939404487609863 -2.2525644302368164
-1.4775134325027466 3.8378758430480957 -2.252408981323242
-1.553597331047058 3.807546854019165 -2.2523257732391357
-1.62905752658844 3.7757036685943604 -2.2522387504577637
-1.8513903617858887 3.671222448348999 -2.251955509185791
-1.9240550994873047 3.633465528488159 -2.2518599033355713
-1.9960180521011353 3.5944128036499023 -2.25185227394104
-2.067209482192993 3.553934335708618 -2.251844644546509
-2.1375889778137207 3.5120458602905273 -2.2518365383148193
-2.207087278366089 3.4687626361846924 -2.251828193664551
-2.275731086730957 3.424105644226074 -2.251819610595703
-2.476149797439575 3.282090425491333 -2.251816511154175
-0.9575463533401489 3.7817845344543457 -2.252316474914551
-1.1815807819366455 3.7175543308258057 -2.252134084701538
-1.255346655845642 3.693171977996826 -2.252065896987915
-1.3286083936691284 3.667320489883423 -2.2519943714141846
-1.4735205173492432 3.6112773418426514 -2.2518556118011475
-1.5451452732086182 3.581207752227783 -2.251849889755249
-1.6161547899246216 3.549711227416992 -2.2518439292907715
-1.6865234375 3.5168120861053467 -2.2518374919891357
-1.7562193870544434 3.4825170040130615 -2.2518310546875
-1.8935179710388184 3.4097869396209717 -2.251816987991333
-1.9609801769256592 3.371399402618408 -2.251816511154175
-2.0937559604644775 3.2906267642974854 -2.251816511154175
-2.340136766433716 3.233804941177368 -2.3046138286590576
-2.435666561126709 3.2284300327301025 -2.3348960876464844
-2.5336596965789795 3.2227556705474854 -2.3668246269226074
