ply
format ascii 1.0
element vertex 242
property float x
property float y
property float z
end_header
5.999150276184082 -24.084257125854492 4.37646484375
6.984203815460205 -23.873205184936523 4.385932922363281
7.5784912109375 -24.084228515625 4.451977252960205
8.1178560256958 -24.084218978881836 4.4814453125
8.596664428710938 -23.895280838012695 4.477756977081299
9.219438552856445 -24.084196090698242 4.547205448150635
10.26498031616211 -23.873146057128906 4.58211612701416
10.938608169555664 -24.084163665771484 4.664172172546387
11.532309532165527 -24.08415412902832 4.708427429199219
5.435776233673096 -23.87323760986328 3.7508504390716553
5.946581840515137 -23.873226165771484 3.768995523452759
6.462548732757568 -23.873214721679688 3.788877248764038
8.046723365783691 -23.87318229675293 3.859398365020752
8.588706016540527 -23.873170852661133 3.886713981628418
9.138651847839355 -23.8731632232666 3.916038990020752
11.431249618530273 -23.87312126159668 4.0548787117004395
8.142202377319336 -35.75944900512695 4.775813102722168
9.627299308776855 -35.5640754699707 4.797870635986328
15.497343063354492 -45.9777717590332 6.318222522735596
15.497241020202637 -43.07607650756836 5.961368083953857
9.138656616210938 -23.8731632232666 3.3287770748138428
10.264989852905273 -23.873146057128906 3.3839755058288574
11.431259155273438 -23.87312126159668 3.4467928409576416
12.643671989440918 -23.873098373413086 3.5178604125976562
13.269340515136719 -23.873085021972656 3.5567219257354736
8.088940620422363 -35.5255012512207 3.912426471710205
9.56655216217041 -35.339656829833984 3.9314181804656982
15.285849571228027 -37.63166809082031 4.361599922180176
8.79335880279541 -35.3018684387207 3.0797152519226074
9.453954696655273 -34.9236946105957 3.062793254852295
15.265429496765137 -45.28977584838867 4.045830249786377
15.285820007324219 -42.488407135009766 3.822439193725586
14.759897232055664 -38.557674407958984 3.4949886798858643
14.679515838623047 -36.138938903808594 3.3020057678222656
14.759779930114746 -34.32660675048828 3.1630756855010986
14.75973129272461 -32.49732971191406 3.0214333534240723
14.679360389709473 -30.65647315979004 2.877323865890503
14.747353553771973 -29.262495040893555 2.773949146270752
14.759604454040527 -27.868289947509766 2.669567108154297
8.787704467773438 -35.279212951660156 2.2545223236083984
8.556020736694336 -31.606674194335938 2.03048038482666
14.73348617553711 -46.82256317138672 3.0438344478607178
14.75973129272461 -38.5572395324707 2.560138463973999
14.679354667663574 -36.13856506347656 2.418780565261841
14.759628295898438 -34.32624053955078 2.3170125484466553
14.759589195251465 -32.49701690673828 2.2132558822631836
14.67922306060791 -30.656198501586914 2.107696533203125
14.759477615356445 -27.868038177490234 1.9555089473724365
8.747265815734863 -35.11688995361328 1.4270086288452148
14.733470916748047 -46.82256317138672 1.9355132579803467
15.265429496765137 -45.28977966308594 1.884540319442749
16.29363250732422 -45.289764404296875 1.8978756666183472
14.679243087768555 -38.34700393676758 1.6190639734268188
14.67919921875 -36.138179779052734 1.5380382537841797
14.679125785827637 -32.31986618041992 1.3996926546096802
14.679091453552246 -30.655927658081055 1.3402273654937744
14.679033279418945 -27.716144561767578 1.236688256263733
8.127455711364746 -35.694705963134766 0.6183847188949585
14.679252624511719 -46.65021896362305 0.8260989189147949
14.67904281616211 -36.13780212402344 0.6588714718818665
14.678950309753418 -30.6556453704834 0.5741366744041443
14.678930282592773 -29.126731872558594 0.5509551763534546
14.678905487060547 -27.715919494628906 0.5297787189483643
14.678881645202637 -26.409019470214844 0.5103753805160522
15.264955520629883 -45.28839874267578 -0.2690739333629608
14.693861961364746 -38.38518142700195 -0.2314082235097885
15.307802200317383 -37.68570327758789 -0.2290121465921402
14.757407188415527 -34.32112121582031 -0.2103382796049118
15.30770492553711 -30.3743839263916 -0.19150328636169434
15.307684898376465 -28.903133392333984 -0.1841396987438202
16.29314422607422 -45.28838348388672 -1.3552407026290894
14.693866729736328 -38.38518524169922 -1.1573339700698853
14.757421493530273 -34.32112121582031 -1.0519534349441528
15.307601928710938 -33.70360565185547 -1.0423202514648438
15.307567596435547 -30.37409782409668 -0.9577430486679077
7.186532974243164 -31.56229591369629 -1.6416258811950684
9.124541282653809 -31.18914031982422 -1.6480315923690796
14.199052810668945 -42.12603759765625 -2.2544822692871094
14.75741195678711 -34.32112121582031 -1.8946453332901
15.307451248168945 -33.703277587890625 -1.8772670030593872
15.307440757751465 -31.968162536621094 -1.797518253326416
15.307426452636719 -28.90262794494629 -1.6586540937423706
15.307416915893555 -27.539813995361328 -1.5979070663452148
6.829379558563232 -29.99361801147461 -2.255483627319336
8.038515090942383 -29.695112228393555 -2.2556722164154053
8.638407707214355 -29.52753257751465 -2.2557687759399414
14.405678749084473 -27.20003890991211 -2.256807804107666
5.679013729095459 -22.799015045166016 -2.255699872970581
7.053144454956055 -22.41472816467285 -2.2559452056884766
7.50573205947876 -22.268157958984375 -2.256026029586792
8.401552200317383 -21.947612762451172 -2.256186008453369
10.578237533569336 -20.98990249633789 -2.256575345993042
11.001352310180664 -20.77215003967285 -2.256650924682617
4.215434551239014 -18.51363754272461 -2.2554473876953125
4.589492321014404 -18.4250431060791 -2.255514144897461
4.961694240570068 -18.328908920288086 -2.2555806636810303
6.42882776260376 -17.869558334350586 -2.255842447280884
7.147309303283691 -17.595685958862305 -2.2559709548950195
7.502260684967041 -17.44790267944336 -2.2560346126556396
8.202826499938965 -17.130849838256836 -2.256159782409668
4.155434608459473 -15.35049057006836 -2.2532835006713867
4.465136528015137 -15.262551307678223 -2.2531847953796387
4.772944450378418 -15.168292045593262 -2.2530744075775146
5.982836723327637 -14.728859901428223 -2.25251841545105
7.437465667724609 -14.042978286743164 -2.251569986343384
4.212446212768555 -13.387775421142578 -2.3121016025543213
4.813520431518555 -13.37954330444336 -2.342437744140625
5.119975566864014 -13.375082969665527 -2.3593215942382812
5.430893421173096 -13.370383262634277 -2.377401113510132
5.746757507324219 -13.36543083190918 -2.396721363067627
6.031533241271973 -13.28018569946289 -2.402843952178955
6.299282073974609 -13.15562629699707 -2.4028916358947754
6.564521312713623 -13.025673866271973 -2.4029388427734375
6.826923847198486 -12.890356063842773 -2.4029858112335205
7.086586952209473 -12.74974536895752 -2.403032064437866
2.838076114654541 -12.46176528930664 -2.4022765159606934
3.088984251022339 -12.402009010314941 -2.4023211002349854
3.3397068977355957 -12.337160110473633 -2.4023659229278564
3.5888328552246094 -12.267248153686523 -2.4024102687835693
3.836498975753784 -12.192317008972168 -2.402454376220703
4.327050685882568 -12.02745246887207 -2.4025416374206543
5.286171913146973 -11.638860702514648 -2.4027130603790283
5.753261566162109 -11.415724754333496 -2.4027962684631348
2.523022413253784 -11.080866813659668 -2.4022216796875
2.746879816055298 -11.027697563171387 -2.40226149559021
2.9695897102355957 -10.970011711120605 -2.40230131149292
3.190790891647339 -10.90786361694336 -2.402340888977051
3.8478710651397705 -10.694502830505371 -2.4024579524993896
4.063291072845459 -10.614633560180664 -2.402496337890625
5.115517616271973 -10.150497436523438 -2.402684211730957
5.320024490356445 -10.04500675201416 -2.4027206897735596
5.522377967834473 -9.935394287109375 -2.402756690979004
2.4704980850219727 -9.91812515258789 -2.4022135734558105
2.6708104610443115 -9.866225242614746 -2.402249336242676
3.2649316787719727 -9.686341285705566 -2.402355194091797
3.654409170150757 -9.546526908874512 -2.4024248123168945
3.846977472305298 -9.470725059509277 -2.402459144592285
4.0379638671875 -9.391042709350586 -2.4024932384490967
4.414931774139404 -9.2201509475708 -2.4025604724884033
4.966625690460205 -8.93554401397705 -2.4026589393615723
2.605117082595825 -8.90474796295166 -2.402238607406616
3.4918506145477295 -8.596480369567871 -2.4023966789245605
3.6652050018310547 -8.524137496948242 -2.4024276733398438
3.8370702266693115 -8.448304176330566 -2.402458429336548
4.176015377044678 -8.286266326904297 -2.4025187492370605
4.508115291595459 -8.110634803771973 -2.402578115463257
1.8838084936141968 -8.273482322692871 -2.402111053466797
2.0509471893310547 -8.233749389648438 -2.4021408557891846
2.217236280441284 -8.190648078918457 -2.402170419692993
2.5470311641693115 -8.094375610351562 -2.4022293090820312
2.710405111312866 -8.041255950927734 -2.4022583961486816
3.819291830062866 -7.578446865081787 -2.402456045150757
3.9719724655151367 -7.4996657371521 -2.4024834632873535
2.040698289871216 -7.538511753082275 -2.402139663696289
2.192919969558716 -7.4957404136657715 -2.4021668434143066
2.494584798812866 -7.400996685028076 -2.4022204875946045
2.9393064975738525 -7.236175537109375 -2.4022998809814453
3.2298779487609863 -7.1114182472229 -2.4023518562316895
3.3732080459594727 -7.044652462005615 -2.4023773670196533
3.5151758193969727 -6.974992752075195 -2.402402639389038
3.6556835174560547 -6.902475833892822 -2.4024276733398438
3.7947216033935547 -6.827129364013672 -2.4024527072906494
2.308237314224243 -6.8481340408325195 -2.4021880626678467
2.854746103286743 -6.639242172241211 -2.402285575866699
2.988593578338623 -6.580158710479736 -2.4023094177246094
3.1212158203125 -6.518372535705566 -2.4023330211639404
3.252558469772339 -6.453915119171143 -2.4023566246032715
3.511225461959839 -6.317086219787598 -2.402402639389038
2.401494026184082 -6.273503303527832 -2.402205228805542
2.6535301208496094 -6.171263694763184 -2.402250051498413
2.9012060165405273 -6.058906078338623 -2.402294397354126
3.0232908725738525 -5.998989105224609 -2.4023163318634033
3.2637109756469727 -5.8717942237854 -2.4023590087890625
1.5150293111801147 -6.082244873046875 -2.402047634124756
1.637856364250183 -6.050382614135742 -2.402069568634033
1.7600146532058716 -6.0160441398620605 -2.4020912647247314
2.1219921112060547 -5.898282527923584 -2.402155876159668
2.240976572036743 -5.854165077209473 -2.402177095413208
2.3590478897094727 -5.807652950286865 -2.402198076248169
2.476152181625366 -5.758758544921875 -2.40221905708313
2.5922508239746094 -5.707498073577881 -2.4022397994995117
2.8212108612060547 -5.597986221313477 -2.402280569076538
3.045478343963623 -5.479288101196289 -2.402320623397827
1.3029736280441284 -5.722473621368408 -2.402010202407837
2.2088232040405273 -5.437840938568115 -2.4021718502044678
2.318315267562866 -5.392059803009033 -2.402191400527954
2.427182674407959 -5.344062328338623 -2.4022107124328613
2.641552686691284 -5.241514682769775 -2.4022490978240967
2.747138500213623 -5.187005519866943 -2.4022679328918457
2.8516016006469727 -5.130370140075684 -2.4022865295410156
1.223608374595642 -5.373938083648682 -2.401996612548828
1.3321533203125 -5.348108291625977 -2.4020159244537354
1.547524333000183 -5.289887428283691 -2.4020543098449707
1.760463833808899 -5.222988128662109 -2.402092218399048
1.8658496141433716 -5.1863203048706055 -2.402111053466797
1.9704784154891968 -5.14752721786499 -2.402129650115967
2.074287176132202 -5.106621742248535 -2.4021482467651367
2.480649471282959 -4.922242164611816 -2.4022207260131836
2.5797996520996094 -4.871050834655762 -2.402238368988037
2.677910089492798 -4.817863464355469 -2.4022560119628906
1.1520507335662842 -5.059659004211426 -2.401984214782715
1.2542577981948853 -5.035339832305908 -2.4020023345947266
1.6575047969818115 -4.917525768280029 -2.4020743370056152
1.8552294969558716 -4.8464741706848145 -2.402109384536743
2.5212743282318115 -4.53607702255249 -2.402228355407715
1.087133765220642 -4.7745513916015625 -2.401973009109497
1.374965786933899 -4.699860572814941 -2.402024269104004
1.5640966892242432 -4.640417575836182 -2.4020578861236572
1.7506884336471558 -4.573366165161133 -2.4020912647247314
1.9344042539596558 -4.498813152313232 -2.4021239280700684
2.025092840194702 -4.458760738372803 -2.4021401405334473
2.1149511337280273 -4.4168829917907715 -2.402156114578247
2.2039451599121094 -4.373190879821777 -2.402172088623047
2.2920312881469727 -4.327706813812256 -2.4021878242492676
2.3791894912719727 -4.280447483062744 -2.4022035598754883
1.0279150009155273 -4.514479160308838 -2.4019627571105957
1.3897705078125 -4.416654109954834 -2.402027130126953
1.5674266815185547 -4.356835842132568 -2.4020588397979736
1.6553270816802979 -4.324240684509277 -2.4020745754241943
1.7425243854522705 -4.289873123168945 -2.402090072631836
1.9147753715515137 -4.215876579284668 -2.40212082862854
1.9997460842132568 -4.176275730133057 -2.4021360874176025
2.167187452316284 -4.091958045959473 -2.4021658897399902
2.249575138092041 -4.047267436981201 -2.4021806716918945
0.9736230373382568 -4.276053428649902 -2.4019532203674316
1.059999942779541 -4.255496025085449 -2.4019687175750732
1.145937442779541 -4.233191967010498 -2.4019839763641357
1.231411099433899 -4.2091546058654785 -2.4019992351531982
1.3163671493530273 -4.183387756347656 -2.4020144939422607
1.400795817375183 -4.155909538269043 -2.402029275894165
1.5678906440734863 -4.095853328704834 -2.402059316635132
1.6504980325698853 -4.063297748565674 -2.402073860168457
1.973818302154541 -3.916563034057617 -2.4021315574645996
2.052680730819702 -3.875822067260742 -2.4021458625793457
2.1307225227355957 -3.833491802215576 -2.4021596908569336
1.0055761337280273 -4.036962032318115 -2.401959180831909
1.3288525342941284 -3.9424846172332764 -2.4020168781280518
1.4084081649780273 -3.914799690246582 -2.4020309448242188
1.4873583316802979 -3.8855056762695312 -2.4020450115203857
1.6435009241104126 -3.8221678733825684 -2.4020729064941406
1.7968212366104126 -3.7525405883789062 -2.4021003246307373
1.8724511861801147 -3.7154228687286377 -2.402113676071167
