ply
format ascii 1.0
element vertex 161
property float x
property float y
property float z
end_header
-16.91626739501953 -40.89391326904297 -2.2443442344665527
-16.096609115600586 -41.243953704833984 -2.2453057765960693
-15.269706726074219 -41.57752990722656 -2.2462785243988037
-13.595786094665527 -42.19565963745117 -2.248255968093872
-8.040212631225586 -46.61875915527344 -2.399139642715454
-6.158759593963623 -46.91632843017578 -2.3997349739074707
-10.307543754577637 -29.91361427307129 -2.319894552230835
-10.032206535339355 -31.13582420349121 -2.3985254764556885
-8.136701583862305 -31.692514419555664 -2.399125099182129
-7.49773645401001 -31.85250473022461 -2.399327278137207
-6.855627059936523 -31.999732971191406 -2.3995301723480225
-6.21060037612915 -32.133968353271484 -2.3997344970703125
-5.562971115112305 -32.2552490234375 -2.3999392986297607
-4.9129638671875 -32.363433837890625 -2.4001450538635254
-4.260876178741455 -32.458553314208984 -2.4003512859344482
-9.550498008728027 -23.087675094604492 -2.398686408996582
-9.084364891052246 -23.276662826538086 -2.398833751678467
-8.141108512878418 -23.626380920410156 -2.399132251739502
-7.184423446655273 -23.937944412231445 -2.399434804916382
-6.215871334075928 -24.210824966430664 -2.3997411727905273
-4.249374866485596 -24.638750076293945 -2.4003632068634033
-3.7527759075164795 -24.720924377441406 -2.4005203247070312
-3.2546043395996094 -24.793058395385742 -2.4006781578063965
-6.96392822265625 -18.961931228637695 -2.399509906768799
-6.581161975860596 -19.099239349365234 -2.3996310234069824
-6.195676326751709 -19.22881507873535 -2.3997528553009033
-5.417238712310791 -19.464622497558594 -2.3999991416931152
-5.024580001831055 -19.570728302001953 -2.400123119354248
-4.629853248596191 -19.668926239013672 -2.4002482891082764
-4.233202934265137 -19.759193420410156 -2.400373697280884
-3.8348021507263184 -19.84143829345703 -2.4004995822906494
-3.4347996711730957 -19.9156494140625 -2.4006264209747314
-3.0333616733551025 -19.9818172454834 -2.4007532596588135
-2.6306614875793457 -20.039897918701172 -2.4008805751800537
-6.157724380493164 -15.777803421020508 -2.399768829345703
-4.869572639465332 -16.224740982055664 -2.4001758098602295
-3.2151684761047363 -16.635568618774414 -2.4006991386413574
-2.879814386367798 -16.697633743286133 -2.4008054733276367
-2.543212890625 -16.75298309326172 -2.400912046432495
-2.2055931091308594 -16.801517486572266 -2.4010188579559326
-5.022685527801514 -13.676154136657715 -2.4001355171203613
-4.746547698974609 -13.77499771118164 -2.4002227783203125
-4.468464374542236 -13.86825180053711 -2.400310516357422
-3.6236815452575684 -14.114250183105469 -2.4005773067474365
-3.3389525413513184 -14.184844970703125 -2.400667428970337
-2.477001905441284 -14.36214542388916 -2.4009392261505127
-2.187255859375 -14.409655570983887 -2.4010305404663086
-1.8974437713623047 -14.451297760009766 -2.4011218547821045
-4.881154537200928 -11.79986572265625 -2.4001822471618652
-4.402522087097168 -11.987528800964355 -2.4003334045410156
-3.424453020095825 -12.304388999938965 -2.4006423950195312
-3.1761815547943115 -12.371237754821777 -2.4007208347320557
-2.6758227348327637 -12.48988151550293 -2.40087890625
-2.1710619926452637 -12.588295936584473 -2.401038408279419
-1.662722110748291 -12.666321754455566 -2.4011991024017334
-3.9150145053863525 -10.660099983215332 -2.400489091873169
-3.2647509574890137 -10.87789249420166 -2.4006943702697754
-3.0452051162719727 -10.941728591918945 -2.400763750076294
-2.824416399002075 -11.00112247467041 -2.4008336067199707
-2.379453182220459 -11.106546401977539 -2.4009740352630615
-1.7049145698547363 -11.230908393859863 -2.4011874198913574
-3.7135448455810547 -9.515141487121582 -2.4005539417266846
-3.5213499069213867 -9.588200569152832 -2.4006147384643555
-2.9364476203918457 -9.784013748168945 -2.400799512863159
-2.7389769554138184 -9.841397285461426 -2.4008617401123047
-2.5403833389282227 -9.894795417785645 -2.4009246826171875
-2.340749502182007 -9.944185256958008 -2.4009876251220703
-1.3298290967941284 -10.130414009094238 -2.4013071060180664
-3.370988607406616 -8.637411117553711 -2.400663137435913
-2.8437206745147705 -8.825728416442871 -2.400829792022705
-2.6655492782592773 -8.881391525268555 -2.400886058807373
-2.3060107231140137 -8.981916427612305 -2.4009997844696045
-2.1247875690460205 -9.026721954345703 -2.401057004928589
-1.7598143815994263 -9.105374336242676 -2.401172161102295
-1.576208472251892 -9.139174461364746 -2.4012303352355957
-3.241567373275757 -7.836275577545166 -2.400705099105835
-2.600959300994873 -8.072308540344238 -2.400907278060913
-2.2740330696105957 -8.170808792114258 -2.401010751724243
-1.943386197090149 -8.25607681274414 -2.4011151790618896
-1.6095629930496216 -8.32797622680664 -2.4012205600738525
-1.2731029987335205 -8.386388778686523 -2.401326894760132
-2.9836180210113525 -7.2126970291137695 -2.400787353515625
-2.837883234024048 -7.271437644958496 -2.4008333683013916
-2.5429980754852295 -7.380055904388428 -2.400926351547241
-2.243967294692993 -7.476729393005371 -2.4010210037231445
-2.0930516719818115 -7.520532608032227 -2.401068687438965
-1.4814574718475342 -7.665142059326172 -2.401261806488037
-1.3268847465515137 -7.693565368652344 -2.401310682296753
-1.016176700592041 -7.741060733795166 -2.4014089107513428
-2.760854482650757 -6.674186706542969 -2.4008584022521973
-2.6259961128234863 -6.728529930114746 -2.4009010791778564
-2.490063428878784 -6.780147552490234 -2.4009437561035156
-2.3531224727630615 -6.829019546508789 -2.400987148284912
-1.7963207960128784 -6.996682643890381 -2.40116286277771
-1.6551464796066284 -7.031554222106934 -2.401207685470581
-1.370825171470642 -7.0927414894104 -2.4012975692749023
-1.084265112876892 -7.142445087432861 -2.401387929916382
-2.566357374191284 -6.203995704650879 -2.4009203910827637
-2.440993547439575 -6.254499435424805 -2.4009599685668945
-2.31463623046875 -6.30247688293457 -2.4009997844696045
-1.8003076314926147 -6.4686737060546875 -2.4011623859405518
-1.6697583198547363 -6.5037150382995605 -2.4012036323547363
-1.4066674709320068 -6.565885066986084 -2.4012866020202637
-1.0078661441802979 -6.639161109924316 -2.4014127254486084
-2.394899845123291 -5.78950834274292 -2.400974988937378
-2.277907609939575 -5.836633205413818 -2.4010119438171387
-2.159990072250366 -5.881394386291504 -2.4010493755340576
-2.041193723678589 -5.923774242401123 -2.4010868072509766
-1.9215673208236694 -5.96375846862793 -2.4011244773864746
-1.680019497871399 -6.036463260650635 -2.401200771331787
-1.558190941810608 -6.069155216217041 -2.4012393951416016
-1.0650194883346558 -6.175223350524902 -2.401395320892334
-0.9405175447463989 -6.195515155792236 -2.4014346599578857
-0.8156201243400574 -6.21329402923584 -2.4014739990234375
-2.132927179336548 -5.465144634246826 -2.4010581970214844
-2.022509813308716 -5.507051467895508 -2.401093006134033
-1.9112743139266968 -5.546724796295166 -2.4011282920837402
-1.7992602586746216 -5.584158420562744 -2.4011635780334473
-0.9972265362739563 -5.782127380371094 -2.4014170169830322
-0.7637011408805847 -5.817758560180664 -2.4014909267425537
-2.1059422492980957 -5.090969085693359 -2.4010679721832275
-1.2624804973602295 -5.363375186920166 -2.4013335704803467
-0.827014148235321 -5.447861194610596 -2.4014711380004883
-0.7171972393989563 -5.4634833335876465 -2.401505947113037
-1.8859374523162842 -4.832326889038086 -2.401137590408325
-1.7883226871490479 -4.869390964508057 -2.40116810798645
-1.6899657249450684 -4.9044671058654785 -2.4011988639831543
-1.5909154415130615 -4.937556266784668 -2.4012303352355957
-1.4912256002426147 -4.968647480010986 -2.401261806488037
-1.1886645555496216 -5.049793243408203 -2.401357412338257
-1.0867871046066284 -5.072768211364746 -2.4013895988464355
-0.9844653010368347 -5.093683242797852 -2.4014220237731934
-1.8712207078933716 -4.523417949676514 -2.401142120361328
-1.7796947956085205 -4.5601091384887695 -2.4011712074279785
-1.4072191715240479 -4.688742160797119 -2.4012885093688965
-1.3125659227371216 -4.716174602508545 -2.4013185501098633
-1.2173779010772705 -4.741702079772949 -2.40134859085083
-1.1217015981674194 -4.76530647277832 -2.401378870010376
-0.929003894329071 -4.8067169189453125 -2.401439666748047
-0.734790027141571 -4.840338706970215 -2.401501178741455
-1.7692431211471558 -4.2770185470581055 -2.401174783706665
-1.6828149557113647 -4.311823844909668 -2.4012019634246826
-1.5957080125808716 -4.344881057739258 -2.4012293815612793
-1.4195433855056763 -4.405673503875732 -2.4012856483459473
-1.2410839796066284 -4.459346771240234 -2.401341438293457
-0.9697094559669495 -4.5262861251831055 -2.4014270305633545
-1.6758276224136353 -4.051198959350586 -2.4012045860290527
-1.5939550399780273 -4.084158420562744 -2.4012303352355957
-1.5114648342132568 -4.115487098693848 -2.4012560844421387
-1.3446019887924194 -4.173061847686768 -2.4013092517852783
-1.2603613138198853 -4.199348449707031 -2.4013359546661377
-1.0903027057647705 -4.246742248535156 -2.4013893604278564
-0.918505847454071 -4.2872843742370605 -2.4014434814453125
-0.5706982016563416 -4.347470760345459 -2.4015533924102783
-1.5897948741912842 -3.843217611312866 -2.4012320041656494
-1.2755712270736694 -3.9588193893432617 -2.4013311862945557
-1.195595622062683 -3.9836955070495605 -2.4013564586639404
-0.8713476657867432 -4.067159175872803 -2.401458740234375
-0.789306640625 -4.083918571472168 -2.401484727859497
-0.6242968440055847 -4.1124701499938965 -2.401536703109741
-0.5413916110992432 -4.124248027801514 -2.4015631675720215
