ply
format ascii 1.0
element vertex 237
property float x
property float y
property float z
end_header
-20.080106735229492 -1.5077786445617676 3.5506298542022705
-19.956249237060547 -2.6877236366271973 3.550593137741089
-19.83513069152832 -3.469414710998535 3.5505645275115967
-19.763042449951172 -3.8583195209503174 3.550548553466797
-19.683374404907227 -4.245731353759766 3.5505316257476807
-19.50123405456543 -5.015480041503906 3.550494909286499
-19.288984298706055 -5.777456760406494 3.550455331802368
-19.171669006347656 -6.155168533325195 3.550433874130249
-19.04695701599121 -6.530496597290039 3.5504112243652344
-18.914892196655273 -6.9032883644104 3.5503880977630615
-18.775522232055664 -7.273420333862305 3.5503642559051514
-38.15104293823242 -2.8646860122680664 5.860976219177246
-38.19118881225586 -3.623314142227173 5.87694787979126
-38.19117736816406 -4.381772994995117 5.889053821563721
-38.191162109375 -5.1436285972595215 5.903497219085693
-38.19112777709961 -5.909531116485596 5.920294761657715
-38.191078186035156 -8.237874984741211 5.9852166175842285
-38.19104766845703 -9.822272300720215 6.041053771972656
-38.15079879760742 -13.92375373840332 6.221568584442139
-38.190940856933594 -14.794744491577148 6.274300575256348
-38.15115737915039 -2.864689350128174 4.982057571411133
-38.19130325317383 -3.6233339309692383 4.995631694793701
-38.191287994384766 -4.38178014755249 5.005929946899414
-38.19123458862305 -5.909534931182861 5.032477378845215
-38.19122314453125 -6.680132865905762 5.048796653747559
-38.19121170043945 -7.456033706665039 5.0671844482421875
-38.19118881225586 -8.237897872924805 5.087671279907227
-38.19118118286133 -9.026416778564453 5.110298156738281
-38.19111251831055 -12.261454582214355 5.2233099937438965
-38.150936126708984 -13.080551147460938 5.251947402954102
-38.150917053222656 -13.92380142211914 5.288583278656006
-38.19105911254883 -14.79478931427002 5.333401203155518
-38.15122604370117 -5.13824462890625 4.133728981018066
-38.15119171142578 -5.903351783752441 4.145492076873779
-38.15116500854492 -7.448205471038818 4.17407751083374
-38.15114974975586 -8.22925853729248 4.190955638885498
-38.15110397338867 -10.615107536315918 4.252353191375732
-38.15107345581055 -12.248604774475098 4.302688121795654
-38.15105438232422 -13.080597877502441 4.330832004547119
-38.15103530883789 -13.923834800720215 4.361040115356445
-42.53037643432617 -16.475793838500977 3.861023426055908
-45.349403381347656 -16.550994873046875 2.9935693740844727
-42.53063201904297 -16.47588348388672 1.7984696626663208
-42.516971588134766 -16.470590591430664 0.7701966762542725
-47.03468322753906 -4.462332248687744 -2.39603853225708
-46.824241638183594 -6.306339740753174 -2.396097421646118
-46.18772506713867 -9.962773323059082 -2.3962416648864746
-45.76240158081055 -11.769537925720215 -2.396326780319214
-42.13777160644531 -13.528517723083496 -2.244412899017334
-41.88968276977539 -14.362433433532715 -2.245802164077759
-41.34930419921875 -16.018259048461914 -2.248847484588623
-32.610652923583984 -2.448674201965332 -2.3978137969970703
-32.55647277832031 -3.088740825653076 -2.397831916809082
-32.48979568481445 -3.7276365756988525 -2.3978514671325684
-32.31895446777344 -5.00090217590332 -2.397895336151123
-31.828115463256836 -7.522524833679199 -2.3980014324188232
-31.331064224243164 -9.384307861328125 -2.3980963230133057
-30.939231872558594 -10.607922554016113 -2.398167133331299
-30.725454330444336 -11.21374225616455 -2.3982045650482178
-30.49972152709961 -11.815238952636719 -2.3982436656951904
-24.915756225585938 -1.8708813190460205 -2.3987696170806885
-24.823368072509766 -2.8480453491210938 -2.3987984657287598
-24.762826919555664 -3.335083484649658 -2.3988146781921387
-24.613100051879883 -4.305140972137451 -2.398850440979004
-24.523944854736328 -4.787785053253174 -2.3988699913024902
-24.31743049621582 -5.7473907470703125 -2.3989129066467285
-24.20012092590332 -6.223972797393799 -2.3989360332489014
-23.93747901916504 -7.169775009155273 -2.3989856243133545
-23.474491119384766 -8.567401885986328 -2.3990683555603027
-20.067607879638672 -2.3024020195007324 -2.399385690689087
-20.018583297729492 -2.6961255073547363 -2.3993988037109375
-19.825458526611328 -3.870500087738037 -2.3994438648223877
-19.658422470092773 -4.646234035491943 -2.3994784355163574
-19.10890007019043 -6.551738739013672 -2.399580955505371
-18.837202072143555 -7.297320365905762 -2.399628162384033
-16.889307022094727 -1.2681878805160522 -2.399766445159912
-16.86117172241211 -1.5996737480163574 -2.399775981903076
-16.826547622680664 -1.9305483102798462 -2.3997859954833984
-16.785507202148438 -2.2606918811798096 -2.399796962738037
-16.483388900756836 -3.8958263397216797 -2.3998637199401855
-16.403783798217773 -4.218850135803223 -2.3998794555664062
-16.225664138793945 -4.859920024871826 -2.3999130725860596
-16.12721061706543 -5.177726745605469 -2.399930953979492
-15.79466724395752 -6.118674278259277 -2.399989366531372
-14.527958869934082 -1.0908770561218262 -2.400059938430786
-14.473994255065918 -1.6606380939483643 -2.4000766277313232
-14.2992525100708 -2.79162859916687 -2.400118589401245
-14.241727828979492 -3.0719635486602783 -2.4001305103302
-14.110248565673828 -3.628983736038208 -2.4001569747924805
-14.036333084106445 -3.9054510593414307 -2.4001710414886475
-13.872299194335938 -4.453770160675049 -2.4002013206481934
-13.686845779418945 -4.995234489440918 -2.4002342224121094
-13.586200714111328 -5.2631378173828125 -2.4002513885498047
-12.713086128234863 -1.206132173538208 -2.40028977394104
-12.655985832214355 -1.7045226097106934 -2.4003055095672607
-12.620101928710938 -1.9527779817581177 -2.4003143310546875
-12.428110122680664 -2.937365770339966 -2.400355815887451
-12.368085861206055 -3.180919647216797 -2.4003677368164062
-12.303285598754883 -3.4232518672943115 -2.4003801345825195
-12.1594820022583 -3.9038665294647217 -2.4004065990448
-11.996909141540527 -4.378469467163086 -2.400435447692871
-11.305399894714355 -1.0725808143615723 -2.4004640579223633
-11.222700119018555 -1.7365539073944092 -2.4004859924316406
-11.186469078063965 -1.956653118133545 -2.4004945755004883
-11.101088523864746 -2.394521713256836 -2.400512933731079
-11.051953315734863 -2.612109661102295 -2.4005229473114014
-10.998563766479492 -2.8286962509155273 -2.400533437728882
-10.940932273864746 -3.0441927909851074 -2.4005446434020996
-10.879072189331055 -3.258512496948242 -2.4005560874938965
-10.813041687011719 -3.471583127975464 -2.4005680084228516
-10.74282169342041 -3.683316230773926 -2.400580644607544
-10.668471336364746 -3.893632650375366 -2.4005937576293945
-10.589984893798828 -4.10244083404541 -2.400607109069824
-10.185644149780273 -0.7648211717605591 -2.400599241256714
-10.168685913085938 -0.9647344946861267 -2.400604724884033
-10.14779281616211 -1.164280652999878 -2.40061092376709
-10.094301223754883 -1.5619481801986694 -2.4006247520446777
-10.0617036819458 -1.7599190473556519 -2.400632381439209
-9.984882354736328 -2.1537554264068604 -2.400648832321167
-9.840825080871582 -2.7381012439727783 -2.40067720413208
-9.78519058227539 -2.9308714866638184 -2.4006874561309814
-9.725781440734863 -3.122514486312866 -2.40069842338562
-9.662616729736328 -3.312955856323242 -2.400709629058838
-9.525151252746582 -3.6899333000183105 -2.400733470916748
-9.246088981628418 -0.6942721605300903 -2.4007158279418945
-9.230688095092773 -0.8757461309432983 -2.4007210731506348
-9.211723327636719 -1.0568835735321045 -2.400726556777954
-9.189208984375 -1.2376128435134888 -2.4007325172424316
-9.133563995361328 -1.5975759029388428 -2.4007458686828613
-9.023711204528809 -2.132739782333374 -2.4007692337036133
-8.82861328125 -2.834472894668579 -2.400805950164795
-8.710556030273438 -3.1790599822998047 -2.400826930999756
-8.646474838256836 -3.349544048309326 -2.4008378982543945
-8.425419807434082 -0.9666696190834045 -2.4008238315582275
-8.380995750427246 -1.2968401908874512 -2.4008350372314453
-8.32364273071289 -1.6250125169754028 -2.400847911834717
-8.290145874023438 -1.788196086883545 -2.400855302810669
-8.253457069396973 -1.9506899118423462 -2.400862455368042
-8.170507431030273 -2.2733538150787354 -2.400878667831421
-8.074980735778809 -2.5925145149230957 -2.4008963108062744
-7.908388614654541 -3.06361722946167 -2.400925636291504
-7.783896446228027 -0.5844802856445312 -2.40089750289917
-7.770927429199219 -0.7372540235519409 -2.4009017944335938
-7.754960536956787 -0.889746367931366 -2.400906562805176
-7.661259651184082 -1.495703101158142 -2.4009289741516113
-7.630439281463623 -1.6458953619003296 -2.400935411453247
-7.559960842132568 -1.9443283081054688 -2.400949478149414
-7.520331859588623 -2.0924489498138428 -2.4009571075439453
-7.432392597198486 -2.386209726333618 -2.400973320007324
-7.332997798919678 -2.676295042037964 -2.4009909629821777
-7.202744007110596 -0.540840744972229 -2.4009697437286377
-7.158427715301514 -0.9641042947769165 -2.4009828567504883
-7.138124942779541 -1.1045238971710205 -2.4009876251220703
-7.089267253875732 -1.3840285539627075 -2.400998830795288
-7.029472351074219 -1.661405324935913 -2.4010112285614014
-6.995507717132568 -1.7991589307785034 -2.401017904281616
-6.877460956573486 -2.208048105239868 -2.4010398387908936
-6.785488128662109 -2.4764742851257324 -2.4010560512542725
-6.695322036743164 -0.5027392506599426 -2.4010326862335205
-6.670429706573486 -0.7653155326843262 -2.401040554046631
-6.654120922088623 -0.8961825370788574 -2.4010448455810547
-6.635243892669678 -1.0267099142074585 -2.4010493755340576
-6.613818168640137 -1.1568398475646973 -2.4010543823242188
-6.589833736419678 -1.286525845527649 -2.401059865951538
-6.563310623168945 -1.415716528892517 -2.4010653495788574
-6.502675533294678 -1.6724086999893188 -2.4010775089263916
-6.261034965515137 -2.4254534244537354 -2.401120901107788
-6.247997760772705 -0.46914947032928467 -2.401088237762451
-6.209560394287109 -0.8363106846809387 -2.401099443435669
-6.191943168640137 -0.958115816116333 -2.401103973388672
-6.149569988250732 -1.2005736827850342 -2.401113510131836
-6.124814510345459 -1.3211309909820557 -2.401118755340576
-6.068212985992432 -1.560673475265503 -2.401129961013794
-6.036416053771973 -1.6795654296875 -2.4011361598968506
-6.002275466918945 -1.797807216644287 -2.4011425971984863
-5.965829849243164 -1.9153600931167603 -2.401149034500122
-5.927070140838623 -2.032172203063965 -2.401156187057495
-5.886025428771973 -2.148203134536743 -2.401163339614868
-5.842714786529541 -2.2634031772613525 -2.4011707305908203
-5.840585708618164 -0.5541155934333801 -2.4011409282684326
-5.797861099243164 -0.897135317325592 -2.4011523723602295
-5.779111385345459 -1.0108413696289062 -2.4011566638946533
-5.73498010635376 -1.2370437383651733 -2.4011662006378174
-5.549824237823486 -1.9028292894363403 -2.401201009750366
-5.511386394500732 -2.0114736557006836 -2.40120792388916
-5.473720550537109 -0.6280139088630676 -2.401188373565674
-5.460341453552246 -0.7354043126106262 -2.4011917114257812
-5.44485330581665 -0.8425124883651733 -2.401195526123047
-5.407577991485596 -1.0557165145874023 -2.4012041091918945
-5.385810375213623 -1.1617281436920166 -2.4012086391448975
-5.361972332000732 -1.2672921419143677 -2.4012134075164795
-5.336054801940918 -1.3723666667938232 -2.4012186527252197
-5.308075904846191 -1.4769134521484375 -2.40122389793396
-5.278046607971191 -1.580888032913208 -2.4012296199798584
-5.245995998382568 -1.6842553615570068 -2.401235342025757
-5.16433572769165 -0.48995816707611084 -2.4012246131896973
-5.153720378875732 -0.5913000106811523 -2.4012277126312256
-5.141122817993164 -0.6924117803573608 -2.401231288909912
-5.109980583190918 -0.8938000202178955 -2.4012386798858643
-5.048495769500732 -1.193203091621399 -2.4012515544891357
-5.024091720581055 -1.2921346426010132 -2.4012563228607178
-4.997753620147705 -1.3905702829360962 -2.401261329650879
-4.969482421875 -1.4884661436080933 -2.4012668132781982
-4.907216548919678 -1.682503581047058 -2.401277780532837
-4.873241901397705 -1.778566598892212 -2.4012837409973145
-4.837372779846191 -1.8739452362060547 -2.40129017829895
-4.851513385772705 -0.6534066796302795 -2.4012668132781982
-4.822128772735596 -0.8434503078460693 -2.4012739658355713
-4.785292625427246 -1.0321950912475586 -2.4012818336486816
-4.764101505279541 -1.125989317893982 -2.4012861251831055
-4.661064147949219 -1.496458649635315 -2.4013054370880127
-4.630781173706055 -1.5877243280410767 -2.401310920715332
-4.615742206573486 -0.3465869128704071 -2.4012908935546875
-4.608047008514404 -0.4371807873249054 -2.4012935161590576
-4.598574161529541 -0.5276064872741699 -2.401296377182007
-4.587333679199219 -0.6178280711174011 -2.401299476623535
-4.559540748596191 -0.797522246837616 -2.401305913925171
-4.48291015625 -1.152948260307312 -2.4013218879699707
-4.459414005279541 -1.2407790422439575 -2.4013264179229736
-4.40725564956665 -1.4149715900421143 -2.4013359546661377
-4.316298961639404 -1.6720831394195557 -2.4013519287109375
-4.372050762176514 -0.3282879590988159 -2.4013214111328125
-4.364755630493164 -0.41409727931022644 -2.4013235569000244
-4.345126628875732 -0.585206925868988 -2.4013290405273438
-4.318798542022705 -0.755413830280304 -2.4013354778289795
-4.303144454956055 -0.8400982618331909 -2.401338815689087
-4.285820007324219 -0.9244573712348938 -2.4013426303863525
-4.223955154418945 -1.1752691268920898 -2.4013547897338867
-4.147441387176514 -1.4220006465911865 -2.4013686180114746
-4.088398456573486 -1.5837997198104858 -2.401379108428955
-2.2297070026397705 -0.1674243062734604 -1.2909432649612427
-4.110361099243164 -0.6360204815864563 -2.4013595581054688
-4.082226276397705 -0.7969677448272705 -2.4013659954071045
-4.028213024139404 -1.0360088348388672 -2.401376962661743
-3.98443341255188 -1.193422555923462 -2.4013850688934326
-3.9602344036102295 -1.2714529037475586 -2.4013895988464355
-3.934511661529541 -1.3489956855773926 -2.4013941287994385
