ply
format ascii 1.0
element vertex 324
property float x
property float y
property float z
end_header
0.7803027033805847 16.308570861816406 2.878931760787964
-0.8493859767913818 16.367902755737305 2.889986515045166
-1.533079743385315 16.66984748840332 2.9517486095428467
-1.8820043802261353 16.787662506103516 2.9786601066589355
-2.3480749130249023 15.379714012145996 2.743283748626709
0.13078978657722473 16.457252502441406 2.521239995956421
-0.1928137093782425 16.08888816833496 2.4649040699005127
-0.4975683391094208 15.584638595581055 2.388695478439331
-0.8637402057647705 16.644433975219727 2.553262710571289
-1.8208800554275513 16.242389678955078 2.503830909729004
0.48567259311676025 17.416818618774414 2.2689132690429688
-0.8390759229660034 16.169248580932617 2.108407974243164
-1.162631869316101 16.16980743408203 2.111081600189209
-1.4941515922546387 16.24653434753418 2.1245667934417725
-1.8268896341323853 16.29599380493164 2.1353719234466553
0.4160705506801605 14.920768737792969 1.6028416156768799
-0.48964232206344604 15.336535453796387 1.6477034091949463
-0.7990393042564392 15.397753715515137 1.6556622982025146
-2.304525136947632 15.094465255737305 1.6396522521972656
2.001314640045166 18.527191162109375 1.5775026082992554
-0.5242895483970642 16.421852111816406 1.3908634185791016
-1.5434545278549194 16.782594680786133 1.4266904592514038
-2.2096824645996094 16.697492599487305 1.4258140325546265
-2.885591983795166 16.66680145263672 1.4318803548812866
-0.1979406625032425 16.51634407043457 1.0242588520050049
-0.5248620510101318 16.43975830078125 1.019953727722168
-1.793676733970642 15.999748229980469 0.9983652830123901
-2.7029967308044434 17.70443344116211 1.1105778217315674
0.6975939869880676 14.579923629760742 0.5755589008331299
-1.4818981885910034 46.41621017456055 1.8311725854873657
-2.542027473449707 19.208845138549805 0.7640290856361389
-2.857551097869873 16.504840850830078 0.6604856848716736
-1.515316128730774 47.46297836303711 0.8021448850631714
-0.9110070466995239 17.555397033691406 0.29694196581840515
-3.5726780891418457 49.68855285644531 0.8414967060089111
-0.91078120470047 17.551042556762695 -0.09894759953022003
-0.34693601727485657 28.949188232421875 -0.8152055144309998
-0.9105578660964966 17.54673957824707 -0.4947427213191986
-2.0910840034484863 29.08269500732422 -0.8210195899009705
-3.222773313522339 28.74744987487793 -0.8145376443862915
-4.37835693359375 28.677988052368164 -0.8168667554855347
-5.008421421051025 28.92797088623047 -0.8266682028770447
12.535805702209473 45.819847106933594 -2.4091203212738037
7.90582275390625 46.78599548339844 -2.406348466873169
6.97020959854126 46.92337417602539 -2.4057881832122803
5.649418830871582 44.05662155151367 -2.252593994140625
4.769136905670166 44.15028762817383 -2.2520670890808105
3.871624708175659 44.04717254638672 -2.242427349090576
1.973604679107666 29.090009689331055 -1.47866690158844
-2.656996965408325 28.890687942504883 -1.471352219581604
-3.258478879928589 29.065919876098633 -1.4832873344421387
-3.8249058723449707 28.902915954589844 -1.4785690307617188
-4.41021728515625 28.886648178100586 -1.4819351434707642
8.6621675491333 31.661230087280273 -2.406785488128662
8.028166770935059 31.822607040405273 -2.4064056873321533
6.323017597198486 30.069583892822266 -2.2529828548431396
5.7215576171875 30.184764862060547 -2.252622604370117
4.512635231018066 30.37900733947754 -2.251898765563965
2.686009407043457 30.558544158935547 -2.2492599487304688
1.9782482385635376 29.158458709716797 -2.1428751945495605
1.3892871141433716 29.036359786987305 -2.131443500518799
-0.9101110696792603 17.538122177124023 -1.2876646518707275
-2.1033384799957275 29.253097534179688 -2.15043568611145
-5.020438194274902 28.99740219116211 -2.1577811241149902
5.739555358886719 22.750804901123047 -2.2526254653930664
5.284348011016846 22.857921600341797 -2.2523529529571533
4.115315914154053 19.570697784423828 -1.9199731349945068
3.9068541526794434 23.12041664123535 -2.251140594482422
3.4441978931427 23.186298370361328 -2.2504239082336426
2.9804625511169434 23.242944717407227 -2.2497055530548096
2.050483465194702 23.32825469970703 -2.248264789581299
0.6921496391296387 14.465995788574219 -1.3903909921646118
0.3838745057582855 13.766266822814941 -1.3221405744552612
-0.7137170433998108 13.75350284576416 -1.3221805095672607
-1.4886547327041626 20.704143524169922 -1.992830514907837
-1.5407836437225342 13.743884086608887 -1.327750563621521
-2.722226619720459 20.57054901123047 -1.9920915365219116
-2.0973424911499023 13.737411499023438 -1.3341505527496338
4.269658088684082 18.46879768371582 -2.2516961097717285
3.899739980697632 18.545495986938477 -2.2511231899261475
3.528456926345825 18.614784240722656 -2.2505478858947754
3.1559484004974365 18.67662811279297 -2.2499709129333496
2.782383918762207 18.730993270874023 -2.24939227104187
0.93440181016922 13.77267074584961 -1.639762282371521
0.6921460032463074 14.465995788574219 -1.720323085784912
0.3838745057582855 13.76626968383789 -1.6358764171600342
-0.16490599513053894 13.7598876953125 -1.6345982551574707
-0.5354968309402466 16.772863388061523 -1.9933969974517822
-0.9886706471443176 13.750307083129883 -1.6375620365142822
-1.264290690422058 13.747101783752441 -1.6398550271987915
-2.2004942893981934 16.628063201904297 -1.9923996925354004
-2.097341299057007 13.737414360046387 -1.650729775428772
3.8863353729248047 15.404913902282715 -2.2510979175567627
3.26794171333313 15.540937423706055 -2.2501399517059326
2.9569311141967773 15.599626541137695 -2.2496581077575684
2.331897020339966 15.698320388793945 -2.248689889907837
1.3887219429016113 15.799345016479492 -2.2472288608551025
0.3838745057582855 13.766271591186523 -1.9512908458709717
-0.16490599513053894 13.759889602661133 -1.9497681856155396
-0.4489453136920929 14.061979293823242 -1.9934459924697876
-0.7137182354927063 13.75350570678711 -1.9513479471206665
-2.097338914871216 13.737414360046387 -1.9689987897872925
-2.377855062484741 13.734152793884277 -1.9749315977096558
3.341310977935791 13.244508743286133 -2.2502501010894775
3.0761168003082275 13.306036949157715 -2.2498395442962646
2.8098058700561523 13.362245559692383 -2.249427080154419
2.0051708221435547 13.498796463012695 -2.248180389404297
1.7354198694229126 13.533561706542969 -2.247762680053711
1.4650781154632568 13.56292724609375 -2.2473437786102295
1.1942492723464966 13.586894035339355 -2.2469241619110107
0.379974365234375 13.626322746276855 -2.2456626892089844
0.10831054300069809 13.62863540649414 -2.24524188041687
-0.16329467296600342 13.625529289245605 -2.244821071624756
-0.4347473084926605 13.617023468017578 -2.2444005012512207
-0.7059118747711182 13.603105545043945 -2.2439804077148438
-1.2469946146011353 13.559096336364746 -2.2431421279907227
-1.516695499420166 13.529027938842773 -2.2427241802215576
-1.7856957912445068 13.493608474731445 -2.242307424545288
3.1588804721832275 11.5460786819458 -2.249966859817505
2.9276721477508545 11.604904174804688 -2.2496087551116943
2.6953723430633545 11.659079551696777 -2.24924898147583
1.9928783178329468 11.79360294342041 -2.2481610774993896
1.7571349143981934 11.829057693481445 -2.247795820236206
1.5208020210266113 11.859797477722168 -2.247429847717285
1.283913493156433 11.885815620422363 -2.247062921524048
1.0465991497039795 11.907084465026855 -2.2466952800750732
0.8089550733566284 11.923629760742188 -2.2463274002075195
-0.38104248046875 11.935148239135742 -2.2444844245910645
-0.6187182664871216 11.923230171203613 -2.2441163063049316
-0.8561156988143921 11.90657901763916 -2.243748903274536
-1.5653332471847534 11.828349113464355 -2.2426505088806152
-2.0348010063171387 11.752768516540527 -2.2419235706329346
2.8082287311553955 10.264404296875 -2.249424695968628
2.396252393722534 10.365214347839355 -2.248786687850952
1.980711579322815 10.44948959350586 -2.248143196105957
1.7718029022216797 10.48538589477539 -2.247819662094116
1.562252163887024 10.517094612121582 -2.247495174407959
0.9305712580680847 10.587042808532715 -2.246516704559326
0.5077733993530273 10.612627029418945 -2.2458620071411133
-0.12726439535617828 10.61935043334961 -2.2448785305023193
-0.3388427793979645 10.613154411315918 -2.244550943374634
-0.5502123832702637 10.60274887084961 -2.2442235946655273
-1.3920642137527466 10.519135475158691 -2.242919921875
-1.6012060642242432 10.487783432006836 -2.24259614944458
-1.8096460103988647 10.452287673950195 -2.2422733306884766
2.1548376083374023 9.320950508117676 -2.2484164237976074
1.5933654308319092 9.429415702819824 -2.247546911239624
0.7066613435745239 5.510807514190674 -1.3057711124420166
0.836883544921875 9.52139663696289 -2.246375322341919
0.6468774080276489 9.53493595123291 -2.2460811138153076
0.4566735625267029 9.54468059539795 -2.245786666870117
0.26631835103034973 9.55063533782959 -2.2454919815063477
-0.49489378929138184 9.53650951385498 -2.2443137168884277
-0.68475341796875 9.523500442504883 -2.2440199851989746
-0.8743273615837097 9.506711959838867 -2.2437264919281006
-1.2521495819091797 9.461851119995117 -2.2431418895721436
-0.8379272222518921 5.488402366638184 -1.304846167564392
-0.9470946788787842 5.470337390899658 -1.3047807216644287
2.2918224334716797 8.376887321472168 -2.2486329078674316
2.124166250228882 8.419920921325684 -2.24837327003479
1.7865148782730103 8.495909690856934 -2.247850179672241
1.6166479587554932 8.528828620910645 -2.247586965560913
1.4461767673492432 8.558344841003418 -2.2473230361938477
1.275173306465149 8.584458351135254 -2.247058153152466
0.579071044921875 5.3607072830200195 -1.3960556983947754
0.7596300840377808 8.64224624633789 -2.246259927749634
0.4145227074623108 8.663596153259277 -2.245725631713867
0.24173949658870697 8.669100761413574 -2.2454581260681152
-0.10390258580446243 8.669781684875488 -2.2449231147766113
-0.2766430675983429 8.664958953857422 -2.2446556091308594
-0.4492236375808716 8.656693458557129 -2.2443885803222656
-0.9653857350349426 8.61131763458252 -2.2435896396636963
-1.1366808414459229 8.589346885681152 -2.2433247566223145
-0.8161975145339966 5.346072196960449 -1.400231957435608
-0.9291149973869324 5.366487503051758 -1.4101494550704956
2.0977697372436523 7.66748571395874 -2.2503814697265625
1.7884668111801147 7.736300468444824 -2.2478554248809814
1.6338024139404297 7.769582748413086 -2.247617244720459
1.478456974029541 7.799769878387451 -2.2473766803741455
1.166192650794983 7.850802421569824 -2.2468931674957275
0.6852185130119324 5.343583106994629 -1.525116205215454
0.5790661573410034 5.3606767654418945 -1.5263971090316772
0.2210961878299713 7.928691864013672 -2.245429754257202
-0.09502929449081421 7.92948055267334 -2.2449402809143066
-0.253021240234375 7.925144672393799 -2.2446959018707275
-0.5685253739356995 7.907046318054199 -2.2442076206207275
-0.7259252667427063 7.89328670501709 -2.2439639568328857
-1.0396838188171387 7.856388568878174 -2.243478298187256
-0.8162024021148682 5.346101760864258 -1.5309796333312988
1.64864981174469 7.13138484954834 -2.251312494277954
1.2192858457565308 7.215622901916504 -2.2508327960968018
0.640594482421875 7.2880096435546875 -2.2502777576446533
0.49519652128219604 7.298928737640381 -2.250154733657837
0.15150146186351776 5.4328179359436035 -1.671665906906128
-0.1740429699420929 5.451509475708008 -1.677620530128479
-0.9593774080276489 7.249645233154297 -2.249274969100952
-0.8162060379981995 5.346132278442383 -1.6634063720703125
-0.9291052222251892 5.366418838500977 -1.675150752067566
1.7884044647216797 6.536832809448242 -2.252732276916504
1.6576464176177979 6.5706939697265625 -2.252567768096924
1.2617772817611694 6.656651020050049 -2.2521071434020996
0.6852258443832397 5.3436503410339355 -1.7908005714416504
0.5790600180625916 5.3606133460998535 -1.7922621965408325
0.5930578708648682 6.747188091278076 -2.251450538635254
0.45844969153404236 6.75732946395874 -2.2513363361358643
0.05381469428539276 6.771722793579102 -2.2510290145874023
-0.0811486765742302 6.771178245544434 -2.2509384155273438
-0.21607787907123566 6.767960548400879 -2.2508537769317627
-0.35090696811676025 6.7620720863342285 -2.2507753372192383
-0.6200708150863647 6.742297649383545 -2.250636339187622
-0.7543017268180847 6.728423118591309 -2.2505757808685303
-0.8882262706756592 6.711892604827881 -2.250521421432495
-0.8162096738815308 5.346161365509033 -1.7976858615875244
-0.9290978908538818 5.3663835525512695 -1.810353398323059
1.5414769649505615 6.11020565032959 -2.2535147666931152
1.2965795993804932 6.165984153747559 -2.2532238960266113
1.173364281654358 6.190223693847656 -2.2530860900878906
1.0496972799301147 6.212013244628906 -2.25295352935791
0.9256322979927063 6.23134708404541 -2.252825975418091
0.6852319240570068 5.343684673309326 -1.9265851974487305
0.5515161156654358 6.2745490074157715 -2.2524755001068115
0.3009997606277466 6.290966033935547 -2.2522683143615723
-0.07546508312225342 6.29695987701416 -2.2519989013671875
-0.20094482600688934 6.293981075286865 -2.251920223236084
-0.45158445835113525 6.280581474304199 -2.251779556274414
-0.8162145614624023 5.346191883087158 -1.9339889287948608
-0.9290905594825745 5.366346836090088 -1.947593331336975
1.3249462842941284 5.73116397857666 -2.2542121410369873
1.21038818359375 5.756086826324463 -2.2540786266326904
0.8641088604927063 5.817174434661865 -2.25370717048645
0.5148632526397705 5.8575639724731445 -2.2533795833587646
0.3980053663253784 5.866404056549072 -2.2532804012298584
0.28099730610847473 5.872923851013184 -2.2531862258911133
0.16388548910617828 5.877127170562744 -2.2530972957611084
0.04672485217452049 5.879009246826172 -2.2530133724212646
-0.07045166194438934 5.878568649291992 -2.252934455871582
-0.42158201336860657 5.863314628601074 -2.252729654312134
-0.8162194490432739 5.346223831176758 -2.0725090503692627
-0.9290844798088074 5.366310119628906 -2.0870602130889893
1.3476781845092773 5.342008590698242 -2.254852771759033
1.1337047815322876 5.391418933868408 -2.254829168319702
1.0259814262390137 5.412674903869629 -2.254718542098999
0.9178540110588074 5.43176794052124 -2.2546021938323975
0.7005907893180847 5.463500022888184 -2.2543838024139404
0.04376464709639549 5.50673770904541 -2.253840684890747
-0.06599120795726776 5.506335735321045 -2.2537667751312256
-0.39488646388053894 5.4920830726623535 -2.253574848175049
-0.5042566061019897 5.4829888343811035 -2.2535207271575928
-0.6134191751480103 5.471731662750244 -2.253471612930298
-0.722332775592804 5.458308696746826 -2.253427505493164
-0.9392553567886353 5.425012588500977 -2.253354072570801
1.364803433418274 4.9885125160217285 -2.2539758682250977
0.8616881966590881 5.099392414093018 -2.253906488418579
0.657763659954071 5.129532814025879 -2.2538411617279053
0.041093748062849045 5.17063045501709 -2.2535181045532227
-0.06196410953998566 5.170255661010742 -2.253445863723755
-0.16499023139476776 5.167815208435059 -2.253368377685547
-0.37077635526657104 5.156745910644531 -2.2531981468200684
-0.47346067428588867 5.1481218338012695 -2.253105401992798
-0.88178950548172 5.093109607696533 -2.2526848316192627
1.284539818763733 4.69514799118042 -2.2531826496124268
1.1907092332839966 4.71981143951416 -2.2531797885894775
1.0964038372039795 4.742587089538574 -2.253171682357788
1.0016613006591797 4.763467311859131 -2.2531585693359375
0.9065209627151489 4.782445430755615 -2.253140449523926
0.4261767566204071 4.848552703857422 -2.252974510192871
0.32945311069488525 4.85598087310791 -2.2529263496398926
0.2326037585735321 4.861466407775879 -2.252873182296753
0.13566406071186066 4.8650102615356445 -2.252815008163452
0.038676757365465164 4.866611957550049 -2.2527518272399902
-0.25218749046325684 4.8597540855407715 -2.252533435821533
-0.4456237554550171 4.8454790115356445 -2.252363681793213
-0.542083740234375 4.8354387283325195 -2.252271890640259
-0.6383190751075745 4.823464870452881 -2.2521750926971436
-0.8299621343612671 4.793753147125244 -2.2519679069519043
1.2117773294448853 4.429186820983887 -2.2524635791778564
0.9449218511581421 4.493639945983887 -2.252440929412842
0.8551709055900574 4.511544227600098 -2.2524237632751465
0.76507568359375 4.527649879455566 -2.2524020671844482
0.5840173363685608 4.554424285888672 -2.2523441314697266
0.3107934594154358 4.580935955047607 -2.2522218227386475
0.12797974050045013 4.5894694328308105 -2.2521169185638428
0.03648437559604645 4.5909881591796875 -2.2520573139190674
-0.055015869438648224 4.590670585632324 -2.251993179321289
-0.14649535715579987 4.588522911071777 -2.251924514770508
-0.23790526390075684 4.584543228149414 -2.2518513202667236
-0.6021764874458313 4.550350189208984 -2.2515132427215576
0.9776769876480103 4.229030609130859 -2.251798152923584
0.8083569407463074 4.264579772949219 -2.251770496368408
0.3800292909145355 4.3235626220703125 -2.2516226768493652
0.29378050565719604 4.330194473266602 -2.251579523086548
0.1209741160273552 4.3382720947265625 -2.2514803409576416
0.03448852524161339 4.339712619781494 -2.2514240741729736
-0.05200439319014549 4.339419841766357 -2.251363515853882
-0.13847778737545013 4.337394714355469 -2.251298666000366
-0.2248876839876175 4.333644390106201 -2.2512295246124268
-0.31120115518569946 4.328157901763916 -2.2511558532714844
-0.39738523960113525 4.320949077606201 -2.2510781288146973
-0.483405739068985 4.312012195587158 -2.2509961128234863
-0.569226086139679 4.301356315612793 -2.2509100437164307
-0.6548132300376892 4.288986682891846 -2.2508199214935303
-0.7401317954063416 4.274905204772949 -2.250725269317627
1.0846606492996216 3.9645683765411377 -2.251207113265991
1.0054296255111694 3.985393524169922 -2.2512047290802
0.9257982969284058 4.0046281814575195 -2.2511980533599854
0.8457995653152466 4.022265434265137 -2.2511870861053467
0.6848205327987671 4.052714824676514 -2.251152276992798
0.3598657250404358 4.094161510467529 -2.2510316371917725
0.1964123547077179 4.105093479156494 -2.250946044921875
0.11455444246530533 4.1081037521362305 -2.250897169113159
0.032658692449331284 4.10947322845459 -2.2508440017700195
-0.1311315894126892 4.107292175292969 -2.250725269317627
-0.21295775473117828 4.103744983673096 -2.250659704208374
-0.3763061463832855 4.091737747192383 -2.250516414642334
0.9535681009292603 3.779818058013916 -2.2506520748138428
0.8780444264411926 3.798060178756714 -2.250645637512207
0.802172839641571 3.814786195755005 -2.2506353855133057
0.5727587938308716 3.8558104038238525 -2.250579595565796
0.3413037061691284 3.882988691329956 -2.250488042831421
0.26384520530700684 3.888953685760498 -2.2504494190216064
0.10864868015050888 3.896223783493042 -2.2503602504730225
0.030974119901657104 3.8975279331207275 -2.250309944152832
-0.04670654237270355 3.8972766399383545 -2.2502553462982178
-0.12436767667531967 3.8954710960388184 -2.250197172164917
