ply
format ascii 1.0
element vertex 203
property float x
property float y
property float z
end_header
-38.27317810058594 -20.515371322631836 -2.202258586883545
-37.862342834472656 -21.27867889404297 -2.2026190757751465
-36.07038497924805 -24.24797248840332 -2.204190254211426
-31.51863670349121 -23.066322326660156 -1.9807671308517456
-30.121410369873047 -22.980798721313477 -1.9214028120040894
-29.717079162597656 -23.62538719177246 -1.9253166913986206
-31.82915496826172 -29.743148803710938 -2.2092702388763428
-27.21510124206543 -13.89599323272705 -2.2405388355255127
-26.626272201538086 -14.963985443115234 -2.2394802570343018
-26.101198196411133 -15.362318992614746 -2.220674753189087
-23.97056770324707 -15.428417205810547 -2.0901637077331543
-24.093246459960938 -18.38167953491211 -2.221997022628784
-17.8958683013916 -15.432229042053223 -1.732657790184021
-22.56626319885254 -20.25890350341797 -2.2235608100891113
-22.161235809326172 -20.708837509155273 -2.2239418029785156
-21.747392654418945 -21.150793075561523 -2.224337339401245
-22.43172836303711 -10.894750595092773 -2.3941214084625244
-21.74168586730957 -12.218846321105957 -2.3943557739257812
-19.69164276123047 -12.674328804016113 -2.248237371444702
-19.387737274169922 -13.033231735229492 -2.2427978515625
-18.86085319519043 -13.802961349487305 -2.2438337802886963
-18.59047508239746 -14.183398246765137 -2.244904041290283
-18.011882781982422 -14.915910720825195 -2.245185136795044
-17.609472274780273 -15.185260772705078 -2.2323684692382812
-16.988536834716797 -15.87514591217041 -2.232255458831787
-16.34654426574707 -16.545673370361328 -2.232952356338501
-18.140758514404297 -8.8107271194458 -2.39559006690979
-17.775663375854492 -9.528203964233398 -2.395714282989502
-17.582456588745117 -9.88135814666748 -2.395779848098755
-17.382221221923828 -10.230605125427246 -2.395847797393799
-17.17505645751953 -10.575806617736816 -2.395918369293213
-15.284439086914062 -12.65725040435791 -2.357290506362915
-14.127297401428223 -12.682819366455078 -2.255166530609131
-13.284616470336914 -13.446412086486816 -2.245293140411377
-5.91142463684082 -2.871088743209839 -0.9311482310295105
-5.842225074768066 -2.983030080795288 -0.9294434785842896
-5.783669471740723 -3.1001923084259033 -0.9297878742218018
-5.725478172302246 -3.217724561691284 -0.9305744767189026
-14.224960327148438 -9.155757904052734 -2.396928310394287
-14.03976821899414 -9.438100814819336 -2.39699125289917
-13.84898567199707 -9.716703414916992 -2.3970561027526855
-13.652676582336426 -9.991449356079102 -2.397122859954834
-13.03142261505127 -10.791525840759277 -2.397334337234497
-12.591131210327148 -11.303715705871582 -2.397484302520752
-5.255696773529053 -2.683551788330078 -0.9721537828445435
-5.216984748840332 -2.7964329719543457 -0.9751246571540833
-5.071040153503418 -3.2639241218566895 -0.993482768535614
-5.051300048828125 -3.5440855026245117 -1.0165371894836426
-11.745619773864746 -8.595816612243652 -2.3977761268615723
-11.39377498626709 -9.058172225952148 -2.3978958129882812
-11.211004257202148 -9.284010887145996 -2.397958278656006
-11.023752212524414 -9.506171226501465 -2.398021697998047
-10.63617992401123 -9.939106941223145 -2.3981540203094482
-10.43599796295166 -10.149698257446289 -2.398221969604492
-4.946844577789307 -2.5258517265319824 -1.044007420539856
-4.906320571899414 -2.6299116611480713 -1.04632568359375
-4.848877906799316 -2.853893756866455 -1.0575424432754517
-4.784420013427734 -3.2162816524505615 -1.0835927724838257
-4.764315128326416 -3.486673593521118 -1.109694242477417
-9.988143920898438 -7.940673828125 -2.3983774185180664
-9.323904037475586 -8.712820053100586 -2.398603677749634
-9.148351669311523 -8.897387504577637 -2.3986635208129883
-4.744969367980957 -2.422774314880371 -1.126172661781311
-4.553351879119873 -3.0609495639801025 -1.159749984741211
-4.505185604095459 -3.437178611755371 -1.197816014289856
-4.503493785858154 -3.580322742462158 -1.2161270380020142
-8.13597583770752 -7.91277551651001 -2.39901065826416
-4.560075759887695 -2.3283674716949463 -1.2033452987670898
-4.486753940582275 -2.521559000015259 -1.2096092700958252
-4.449313640594482 -2.6187210083007812 -1.2133680582046509
-4.393111705780029 -2.827582836151123 -1.2278618812561035
-4.363528728485107 -2.933340311050415 -1.2357136011123657
-4.334382057189941 -3.0410821437835693 -1.2444040775299072
-7.596292495727539 -6.819584846496582 -2.399196147918701
-7.458819389343262 -6.969976425170898 -2.399242877960205
-7.318362712860107 -7.117591857910156 -2.3992908000946045
-7.174991130828857 -7.262394428253174 -2.3993396759033203
-4.550015926361084 -2.2098751068115234 -1.309679388999939
-4.409577369689941 -2.251523017883301 -1.2819368839263916
-4.337267875671387 -2.4375481605529785 -1.2881925106048584
-4.30073356628418 -2.5312728881835938 -1.292092204093933
-4.236685752868652 -2.726900577545166 -1.3045318126678467
-4.126306056976318 -3.0197575092315674 -1.3239116668701172
-4.09336519241333 -3.3897807598114014 -1.3760762214660645
-6.64361572265625 -6.4613542556762695 -2.399522304534912
-4.453053951263428 -2.162781238555908 -1.401447057723999
-4.315145015716553 -2.2033069133758545 -1.3716155290603638
-4.160472393035889 -2.448718547821045 -1.3666605949401855
-4.124265193939209 -2.5395774841308594 -1.3711477518081665
-4.089365005493164 -2.6320788860321045 -1.3767386674880981
-4.015643119812012 -2.817448616027832 -1.3886972665786743
-3.9204211235046387 -3.1167728900909424 -1.4178403615951538
-3.8347387313842773 -3.4426450729370117 -1.4588778018951416
-3.740999698638916 -3.6383702754974365 -1.4773226976394653
-4.117491245269775 -2.2070772647857666 -1.436919927597046
-3.9532713890075684 -2.5444841384887695 -1.446035385131836
-3.9066162109375 -2.6261849403381348 -1.447858214378357
-3.8572118282318115 -2.7062904834747314 -1.449281930923462
-3.707697629928589 -2.94765567779541 -1.4568867683410645
-3.6628575325012207 -3.033270835876465 -1.4627697467803955
-3.5485057830810547 -3.3159446716308594 -1.4938111305236816
-3.475703001022339 -3.518045663833618 -1.5211035013198853
-4.315450191497803 -2.0959503650665283 -1.5947191715240479
-4.131587028503418 -2.1095802783966064 -1.5420293807983398
-3.983497142791748 -2.135254144668579 -1.5023691654205322
-3.8186535835266113 -2.247534990310669 -1.4728800058364868
-3.777419328689575 -2.326002359390259 -1.4745913743972778
-3.7345969676971436 -2.403735399246216 -1.4763134717941284
-3.644803285598755 -2.5572588443756104 -1.480013132095337
-3.561525821685791 -2.7172253131866455 -1.4890791177749634
-3.3999950885772705 -3.0523533821105957 -1.5187994241714478
-3.3656201362609863 -3.1450438499450684 -1.5311846733093262
-3.3297691345214844 -3.23842191696167 -1.5439773797988892
-3.750938653945923 -2.1080310344696045 -1.538681149482727
-3.664022207260132 -2.1565237045288086 -1.5203841924667358
-3.605400323867798 -2.220079183578491 -1.5141478776931763
-3.4449145793914795 -2.521094799041748 -1.5265825986862183
-3.406163215637207 -2.59869384765625 -1.532094120979309
-3.2536303997039795 -2.920952796936035 -1.5636096000671387
-3.2179601192474365 -3.007063627243042 -1.5750024318695068
-3.188539981842041 -3.1010661125183105 -1.5905840396881104
-3.8218834400177 -2.0486252307891846 -1.6617553234100342
-3.4744627475738525 -2.1394526958465576 -1.563659429550171
-3.4248645305633545 -2.204380512237549 -1.5608315467834473
-3.379376173019409 -2.2717528343200684 -1.5604571104049683
-3.340967893600464 -2.3440818786621094 -1.5640172958374023
-3.306899309158325 -2.420090675354004 -1.5703725814819336
-3.2396349906921387 -2.575543165206909 -1.5860161781311035
-3.136000871658325 -2.815352201461792 -1.6150137186050415
-3.100299119949341 -2.897113084793091 -1.6260879039764404
-3.0663561820983887 -2.9822356700897217 -1.6391820907592773
-3.8153014183044434 -2.0450973510742188 -1.771689534187317
-3.332064151763916 -2.144648790359497 -1.6217923164367676
-3.1848485469818115 -2.3307721614837646 -1.6152498722076416
-3.1299986839294434 -2.4883806705474854 -1.6365339756011963
-3.1019201278686523 -2.568748712539673 -1.6483358144760132
-3.0667834281921387 -2.6445953845977783 -1.657389521598816
-3.0351953506469727 -2.7248544692993164 -1.6693824529647827
-3.002847909927368 -2.8060481548309326 -1.682065486907959
-2.9417357444763184 -2.977574348449707 -1.7130862474441528
-4.305793285369873 -2.0912585258483887 -2.0861566066741943
-3.3491172790527344 -2.062268018722534 -1.7141250371932983
-3.1274473667144775 -2.2887632846832275 -1.6890004873275757
-3.0453197956085205 -2.421060085296631 -1.6955184936523438
-2.961557626724243 -2.6587443351745605 -1.7345155477523804
-2.932335138320923 -2.74015736579895 -1.7490887641906738
-2.872095823287964 -2.9070849418640137 -1.780996322631836
-3.8153038024902344 -2.045097589492798 -2.003760576248169
-3.6389575004577637 -2.0450966358184814 -1.932201623916626
-3.238445997238159 -2.0843942165374756 -1.7826917171478271
-3.126113176345825 -2.1933374404907227 -1.767669439315796
-3.082974672317505 -2.256216049194336 -1.7683929204940796
-3.0394909381866455 -2.318946123123169 -1.7696502208709717
-2.96464467048645 -2.455068588256836 -1.7817448377609253
-2.932206869125366 -2.5285449028015137 -1.7922289371490479
-2.892714738845825 -2.7031328678131104 -1.8326219320297241
-2.872255802154541 -2.907245397567749 -1.8917179107666016
-4.401642799377441 -2.1378121376037598 -2.4002928733825684
-3.6389575004577637 -2.0450971126556396 -2.0475714206695557
-3.4747045040130615 -2.0450961589813232 -1.9777261018753052
-3.238100528717041 -2.084172010421753 -1.8889334201812744
-3.1576061248779297 -2.1226701736450195 -1.8663238286972046
-3.060877561569214 -2.240046262741089 -1.8605499267578125
-3.014993906021118 -2.300255298614502 -1.8602006435394287
-2.979712963104248 -2.368903398513794 -1.8672382831573486
-2.9199278354644775 -2.517956256866455 -1.89128839969635
-2.89208984375 -2.7025485038757324 -1.941627025604248
-2.8745250701904297 -2.909541606903076 -2.006253719329834
-4.162043571472168 -2.021442413330078 -2.4003748893737793
-4.120893478393555 -2.104121685028076 -2.4003889560699463
-3.81530499458313 -2.045097827911377 -2.2457191944122314
-3.3212218284606934 -2.045095443725586 -2.0234341621398926
-3.153057813644409 -2.119611978530884 -1.9709882736206055
-3.0583250522613525 -2.238176107406616 -1.9660835266113281
-3.0165038108825684 -2.3014094829559326 -1.9683403968811035
-2.982351064682007 -2.3709988594055176 -1.9765461683273315
-2.951664924621582 -2.4443211555480957 -1.9881528615951538
-2.9211766719818115 -2.5190320014953613 -2.0010898113250732
-2.9042248725891113 -2.6072747707366943 -2.024728536605835
-2.8809399604797363 -2.916036367416382 -2.1265578269958496
-3.6389575004577637 -2.0450971126556396 -2.2862560749053955
-3.3212268352508545 -2.045095443725586 -2.13625168800354
-3.2991466522216797 -2.123464584350586 -2.148888349533081
-3.175307512283325 -2.134570598602295 -2.095562696456909
-3.1038975715637207 -2.1777517795562744 -2.0767123699188232
-3.0621092319488525 -2.24094820022583 -2.078270673751831
-2.9583325386047363 -2.449843406677246 -2.1037423610687256
-2.912783145904541 -2.6149566173553467 -2.143913745880127
-3.2025694847106934 -2.9926788806915283 -2.4007017612457275
-3.0806310176849365 -3.118162155151367 -2.400743246078491
-3.740037679672241 -1.816480040550232 -2.400519609451294
-3.703058958053589 -1.89077627658844 -2.4005320072174072
-3.664602041244507 -1.9643203020095825 -2.4005448818206787
-3.4747021198272705 -2.0450963973999023 -2.3277993202209473
-3.5405430793762207 -2.180145025253296 -2.400587320327759
-3.496345043182373 -2.250389337539673 -2.400602102279663
-3.4507555961608887 -2.319737434387207 -2.400617837905884
-3.2548460960388184 -2.587634801864624 -2.400684356689453
-3.1490259170532227 -2.7155141830444336 -2.4007203578948975
-3.094226121902466 -2.7778468132019043 -2.4007391929626465
-3.038189649581909 -2.8390724658966064 -2.4007582664489746
-2.9809460639953613 -2.899167776107788 -2.400777578353882
-2.9225096702575684 -2.9581146240234375 -2.4007976055145264
