ply
format ascii 1.0
element vertex 336
property float x
property float y
property float z
end_header
-6.390087604522705 12.12690544128418 2.4169998168945312
-6.396914005279541 11.583771705627441 2.3332808017730713
-6.396914005279541 10.581789016723633 2.180292844772339
-6.396914005279541 9.701836585998535 2.049084424972534
-6.396914005279541 9.300132751464844 1.990332007408142
-6.396909236907959 8.220498085021973 1.8366549015045166
-6.396909236907959 7.896327972412109 1.7918877601623535
-6.396909236907959 7.292633056640625 1.7104895114898682
-6.396909236907959 7.010695457458496 1.6734371185302734
-6.396909236907959 6.740603923797607 1.638572096824646
-6.396903991699219 6.481446266174316 1.6057324409484863
-5.794975280761719 12.126912117004395 2.058990716934204
-6.089604377746582 12.126907348632812 2.078848123550415
-6.390087604522705 12.126904487609863 2.099909543991089
-6.396943092346191 11.58381462097168 2.0271823406219482
-6.396933555603027 8.920707702636719 1.6816506385803223
-6.396933555603027 8.220528602600098 1.5957067012786865
-6.396933555603027 7.896353721618652 1.5568130016326904
-6.396933555603027 7.587497234344482 1.5203396081924438
-6.396928787231445 7.010715007781982 1.453900694847107
-6.396928787231445 6.740631103515625 1.4236098527908325
-6.396923542022705 6.481470584869385 1.395078420639038
-6.439370155334473 6.27374267578125 1.3772618770599365
-5.794975280761719 12.126911163330078 1.7502171993255615
-6.089604377746582 12.126907348632812 1.7670986652374268
-6.39697265625 11.065896034240723 1.6644600629806519
-6.39696741104126 10.581873893737793 1.610201358795166
-6.396962642669678 9.300206184387207 1.4699081182479858
-6.396957874298096 8.920745849609375 1.4294707775115967
-6.396957874298096 7.587522983551025 1.292348861694336
-6.396953105926514 7.292685508728027 1.2632375955581665
-6.396948337554932 7.010740756988525 1.2358733415603638
-6.396943092346191 6.48149299621582 1.1858724355697632
-6.439374923706055 6.273743629455566 1.1707229614257812
-5.794980525970459 12.126911163330078 1.4432519674301147
-6.396992206573486 10.581914901733398 1.3277959823608398
-6.396992206573486 10.128289222717285 1.2863576412200928
-6.396986961364746 9.701956748962402 1.2478902339935303
-6.396977424621582 8.220589637756348 1.1185201406478882
-6.396977424621582 7.896407127380371 1.0912554264068604
-6.396977424621582 7.587544918060303 1.0656887292861938
-6.39697265625 7.292703628540039 1.0416845083236694
-6.39696741104126 6.740673542022705 0.9978872537612915
-5.794975280761719 12.126911163330078 1.137764573097229
-6.089599609375 12.126907348632812 1.1487377882003784
-6.397026062011719 11.065985679626465 1.0820260047912598
-6.397021293640137 10.581963539123535 1.0467523336410522
-6.397011756896973 9.300271034240723 0.9555517435073853
-6.397006511688232 8.920812606811523 0.9292635917663574
-6.39700174331665 8.220612525939941 0.88177090883255
-6.396996974945068 7.587570667266846 0.8401223421096802
-6.396996974945068 7.292730331420898 0.8211984038352966
-6.396986961364746 6.740693092346191 0.7866708040237427
-6.089599609375 12.126906394958496 0.841479480266571
-6.397045612335205 10.12837028503418 0.7428454160690308
-6.397040843963623 9.702031135559082 0.7206326127052307
-6.397036075592041 9.300312042236328 0.6999685764312744
-6.397026062011719 8.561563491821289 0.6627340316772461
-6.397021293640137 8.220643997192383 0.6459219455718994
-6.397021293640137 7.58759880065918 0.6154137849807739
-6.397011756896973 7.01080322265625 0.5885204672813416
-6.39700174331665 6.481550216674805 0.5647103786468506
-6.439374923706055 6.273741245269775 0.5574908256530762
-6.089604377746582 12.126906394958496 0.5350781083106995
-6.397084712982178 11.58408260345459 0.5217922925949097
-6.397050857543945 8.920877456665039 0.4328518509864807
-6.397050857543945 8.56159496307373 0.4214193522930145
-6.397045612335205 8.22066879272461 0.4107299745082855
-6.397040843963623 7.896481990814209 0.4007171392440796
-6.397031307220459 7.010829925537109 0.3742288053035736
-6.397026062011719 6.740734577178955 0.3664330840110779
-5.794975280761719 12.126910209655762 0.22703246772289276
-6.390082836151123 12.126901626586914 0.23154418170452118
-6.397109031677246 11.066129684448242 0.21591369807720184
-6.397099494934082 10.582094192504883 0.2088738977909088
-6.397079944610596 9.300381660461426 0.19067718088626862
-6.397075176239014 8.920912742614746 0.1854293793439865
-6.397070407867432 8.220702171325684 0.17595244944095612
-6.397060394287109 7.896515846252441 0.17166411876678467
-6.397060394287109 7.587646484375 0.16764281690120697
-6.397055625915527 7.292806148529053 0.16386474668979645
-6.397050857543945 7.010855674743652 0.1603170782327652
-6.397045612335205 6.74075174331665 0.15697310864925385
-6.397040843963623 6.481589317321777 0.15383026003837585
-6.439370155334473 6.273741245269775 0.15186309814453125
-5.794975280761719 12.126910209655762 -0.07567306607961655
-6.397138595581055 11.584181785583496 -0.07450561225414276
-6.39712381362915 10.582128524780273 -0.06961822509765625
-6.397114276885986 9.702138900756836 -0.0654296875
-6.3970947265625 8.561654090881348 -0.06017257645726204
-6.39708948135376 8.22072982788086 -0.0586465448141098
-6.397084712982178 7.89654016494751 -0.057217709720134735
-6.397075176239014 7.292825698852539 -0.054617155343294144
-6.397060394287109 6.481608867645264 -0.05127258226275444
-5.651220798492432 11.826081275939941 -0.36906522512435913
-5.933666706085205 11.816375732421875 -0.37231916189193726
-6.397153377532959 10.582179069519043 -0.34818708896636963
-6.397128582000732 9.300450325012207 -0.3178503215312958
-6.397119045257568 8.561681747436523 -0.3009399473667145
-6.397104263305664 7.896570682525635 -0.2861572206020355
-6.397104263305664 7.587696552276611 -0.2794538736343384
-6.39708948135376 7.010897159576416 -0.2672409117221832
-6.397079944610596 6.481624603271484 -0.25643035769462585
-6.439374923706055 6.273741245269775 -0.25314757227897644
-5.254785060882568 10.996502876281738 -0.6180813312530518
-5.513554573059082 10.979755401611328 -0.6230941414833069
-5.778588771820068 10.966408729553223 -0.6286386251449585
-6.397197246551514 11.584278106689453 -0.6711143255233765
-6.397162914276123 9.70221996307373 -0.5893704295158386
-6.397153377532959 9.30048656463623 -0.57246994972229
-6.397143363952637 8.921008110046387 -0.5567219257354736
-6.397143363952637 8.561716079711914 -0.5420164465904236
-6.397133827209473 8.220786094665527 -0.5282680988311768
-6.397104263305664 6.740816593170166 -0.4712908864021301
-6.397099494934082 6.481648921966553 -0.4618455469608307
-6.439370155334473 6.273741245269775 -0.45593488216400146
-5.486689567565918 10.926262855529785 -0.8964730501174927
-5.757421970367432 10.926257133483887 -0.9055547714233398
-6.397197246551514 10.12861442565918 -0.878377377986908
-6.397187232971191 9.702249526977539 -0.852108895778656
-6.397162914276123 8.561746597290039 -0.7836464047431946
-6.397153377532959 7.896620750427246 -0.7451504468917847
-6.397148132324219 7.587745189666748 -0.7276922464370728
-6.397138595581055 7.292897701263428 -0.7112986445426941
-6.397133827209473 7.010937213897705 -0.6958906650543213
-6.39712381362915 6.740836143493652 -0.6813918948173523
-6.397119045257568 6.48167085647583 -0.6677360534667969
-6.439370155334473 6.273740291595459 -0.6591873168945312
-5.486684322357178 10.926262855529785 -1.1738018989562988
-5.757416725158691 10.92625617980957 -1.185693621635437
-6.03380823135376 10.926252365112305 -1.1982934474945068
-6.397231101989746 10.582315444946289 -1.1871659755706787
-6.397221565246582 10.128653526306152 -1.1501129865646362
-6.39721155166626 9.702291488647461 -1.1157200336456299
-6.397187232971191 8.56178092956543 -1.026077151298523
-6.397177696228027 8.220844268798828 -1.000049114227295
-6.397172927856445 7.896651268005371 -0.975671648979187
-6.397167682647705 7.587773323059082 -0.9528114199638367
-6.397138595581055 6.48168420791626 -0.8743066191673279
-6.439370155334473 6.273740291595459 -0.8631121516227722
-6.397270202636719 11.066408157348633 -1.5183727741241455
-6.397255897521973 10.582358360290527 -1.4688738584518433
-6.397236347198486 9.702332496643066 -1.380473256111145
-6.39721155166626 8.561808586120605 -1.2695600986480713
-6.397192478179932 7.896670818328857 -1.2071919441223145
-6.397182464599609 7.29295015335083 -1.1523524522781372
-6.397167682647705 6.740880012512207 -1.1038999557495117
-5.2255859375 10.935400009155273 -1.7172476053237915
-5.812475681304932 11.03073787689209 -1.766660451889038
-6.397309303283691 11.584491729736328 -1.8750475645065308
-6.397299766540527 11.066462516784668 -1.8111411333084106
-6.397284984588623 10.582402229309082 -1.752097487449646
-6.397275447845459 10.128732681274414 -1.6974139213562012
-6.397260665893555 9.702366828918457 -1.6466518640518188
-6.397250652313232 9.300630569458008 -1.5994362831115723
-6.397231101989746 8.561843872070312 -1.5143520832061768
-6.397221565246582 8.220901489257812 -1.475935459136963
-6.397221565246582 7.896700382232666 -1.439957857131958
-5.794970512390137 12.126907348632812 -2.2141551971435547
-6.08959436416626 12.12690258026123 -2.2355105876922607
-6.3973388671875 11.584551811218262 -2.180088758468628
-6.397309303283691 10.582450866699219 -2.0371360778808594
-6.397299766540527 10.128780364990234 -1.9735559225082397
-6.397275447845459 9.300668716430664 -1.8596404790878296
-6.397265434265137 8.92116928100586 -1.808475136756897
-6.397255897521973 8.561869621276855 -1.7607108354568481
-6.397216796875 7.011031150817871 -1.5635381937026978
-6.397206783294678 6.740917682647705 -1.5309594869613647
-6.439370155334473 6.273740291595459 -1.4810519218444824
-5.159296989440918 10.796645164489746 -2.249145269393921
-5.369746208190918 10.69339370727539 -2.249119758605957
-5.784404277801514 10.474600791931152 -2.2490696907043457
-5.988422870635986 10.359151840209961 -2.24904465675354
-6.389487266540527 10.116390228271484 -2.2489945888519287
-6.397299766540527 9.300699234008789 -2.1217808723449707
-6.397289752960205 8.92120361328125 -2.063406467437744
-6.397280216217041 8.56190299987793 -2.008906126022339
-6.397270202636719 8.220956802368164 -1.957945466041565
-6.397226333618164 6.740943431854248 -1.7467700242996216
-6.397221565246582 6.481767654418945 -1.7117611169815063
-6.439370155334473 6.273740291595459 -1.6898223161697388
-4.587705135345459 9.600520133972168 -2.2491564750671387
-4.774853229522705 9.508709907531738 -2.249134063720703
-4.960165977478027 9.41325569152832 -2.2491116523742676
-5.143574237823486 9.314179420471191 -2.249089241027832
-5.324999809265137 9.211532592773438 -2.2490668296813965
-5.504399299621582 9.10536003112793 -2.24904465675354
-5.681654930114746 8.995688438415527 -2.2490227222442627
-6.029565334320068 8.766057014465332 -2.248978614807129
-6.20006799697876 8.646163940429688 -2.2489566802978516
-6.368197917938232 8.522968292236328 -2.2489349842071533
-6.397294998168945 8.220990180969238 -2.201904535293579
-6.397275447845459 7.587902545928955 -2.0978994369506836
-6.397265434265137 7.293047904968262 -2.050642251968384
-6.397241115570068 6.481789588928223 -1.9250462055206299
-6.439364910125732 6.273738861083984 -1.9003660678863525
-4.126210689544678 8.634745597839355 -2.2491655349731445
-4.294531345367432 8.552189826965332 -2.249145269393921
-4.626162052154541 8.377241134643555 -2.2491049766540527
-4.950693130493164 8.189446449279785 -2.2490651607513428
-5.110126972198486 8.090821266174316 -2.2490451335906982
-5.26760721206665 7.989081859588623 -2.249025344848633
-5.576464653015137 7.776508808135986 -2.2489960193634033
-5.876718521118164 7.551994323730469 -2.248966693878174
-6.023496150970459 7.435370922088623 -2.2489523887634277
-6.31005334854126 7.193615436553955 -2.2489240169525146
-6.397275447845459 7.011096000671387 -2.2306227684020996
-6.439370155334473 6.273738861083984 -2.1129257678985596
-3.8982419967651367 7.762977123260498 -2.249159336090088
-4.049530982971191 7.685067176818848 -2.2491445541381836
-4.199286937713623 7.604211330413818 -2.2491300106048584
-4.493876934051514 7.433786392211914 -2.249101161956787
-4.638613224029541 7.344273567199707 -2.249086856842041
-4.781591892242432 7.251943111419678 -2.249072790145874
-5.062060356140137 7.058985233306885 -2.2490451335906982
-5.469960689544678 6.752083778381348 -2.2499196529388428
-5.730161190032959 6.53251314163208 -2.249879837036133
-5.856977462768555 6.418946266174316 -2.249859094619751
-6.103813171386719 6.184468746185303 -2.2498159408569336
-3.565507650375366 7.10014533996582 -2.2491910457611084
-3.703994035720825 7.028891563415527 -2.2491776943206787
-3.8418846130371094 6.957313060760498 -2.2499279975891113
-4.374804496765137 6.635012149810791 -2.249872922897339
-4.631278991699219 6.4584641456604 -2.2498416900634766
-5.122519493103027 6.075898170471191 -2.2497732639312744
-5.356513500213623 5.870472431182861 -2.2497358322143555
-5.592871189117432 5.666802883148193 -2.253976821899414
-5.702294826507568 5.5556321144104 -2.253769636154175
-3.153818368911743 6.599854469299316 -2.249840259552002
-3.2824902534484863 6.536773681640625 -2.2498297691345215
-3.4098925590515137 6.47118616104126 -2.249819040298462
-3.5359959602355957 6.403110027313232 -2.249807596206665
-3.6607322692871094 6.332576751708984 -2.24979567527771
-4.145156383514404 6.02641487121582 -2.2497427463531494
-4.613144397735596 5.694456577301025 -2.2541110515594482
-4.831923484802246 5.508520603179932 -2.2537612915039062
-3.037177562713623 6.048268795013428 -2.2497241497039795
-3.1550586223602295 5.987580299377441 -2.249713897705078
-3.2717480659484863 5.924597263336182 -2.2497034072875977
-3.387158155441284 5.859333515167236 -2.249692440032959
-3.508622884750366 5.803977966308594 -2.254401445388794
-3.6214354038238525 5.733786582946777 -2.2542667388916016
-3.951240062713623 5.510121822357178 -2.253840208053589
-4.568271160125732 5.006591796875 -2.2528910636901855
-4.760146141052246 4.823067665100098 -2.2525479793548584
-4.853349685668945 4.728511810302734 -2.2523715496063232
-2.828691244125366 5.633102893829346 -2.2541563510894775
-3.046875 5.517423152923584 -2.253931760787964
-3.260331869125366 5.393259048461914 -2.253692388534546
-3.5708982944488525 5.191542625427246 -2.2533066272735596
-3.771064281463623 5.047064304351807 -2.2530322074890137
-4.060234069824219 4.81589937210083 -2.2525956630706787
-4.153525352478027 4.735114574432373 -2.25244402885437
-4.423564434051514 4.482020378112793 -2.2519702911376953
-2.6388866901397705 5.255107402801514 -2.25350022315979
-2.842460870742798 5.147220134735107 -2.2532906532287598
-2.9426074028015137 5.0903000831604 -2.253180742263794
-3.1394238471984863 4.970612525939941 -2.25295090675354
-3.236025333404541 4.907894134521484 -2.252830982208252
-3.331367015838623 4.843295574188232 -2.2527077198028564
-3.425419807434082 4.77683687210083 -2.2525813579559326
-3.518134593963623 4.708548545837402 -2.2524516582489014
-3.787968635559082 4.492951393127441 -2.252044677734375
-4.044560432434082 4.261863708496094 -2.2516114711761475
-4.207841873168945 4.099604606628418 -2.2513086795806885
-2.5660252571105957 4.869716644287109 -2.2528209686279297
-2.754570245742798 4.765032768249512 -2.2526183128356934
-2.8472557067871094 4.709932804107666 -2.252512216567993
-2.938837766647339 4.653026103973389 -2.2524032592773438
-3.118535041809082 4.533872127532959 -2.2521755695343018
-3.2065820693969727 4.471677303314209 -2.2520575523376465
-3.463134765625 4.274893760681152 -2.2516849040985107
-3.546025276184082 4.205988883972168 -2.2515552043914795
-3.6275291442871094 4.135469436645508 -2.251422882080078
-3.7076268196105957 4.063366413116455 -2.2512874603271484
-3.863466739654541 3.9145286083221436 -2.251009225845337
-3.9391698837280273 3.8378448486328125 -2.250866413116455
-2.4982030391693115 4.523836135864258 -2.252211570739746
-2.586240291595459 4.4738335609436035 -2.25211501121521
-2.7592480182647705 4.368699073791504 -2.251912832260132
-2.844169855117798 4.31360387802124 -2.251807451248169
-3.010673761367798 4.198471546173096 -2.2515883445739746
-3.0921874046325684 4.138476848602295 -2.251474618911743
-3.1725096702575684 4.076897621154785 -2.2513580322265625
-2.097666025161743 4.389708042144775 -2.252007484436035
-2.2678418159484863 4.303846836090088 -2.251840114593506
-2.351630687713623 4.258427143096924 -2.2517518997192383
-2.434511661529541 4.211367607116699 -2.2516610622406006
-2.516435384750366 4.16269588470459 -2.2515676021575928
-2.7562596797943115 4.007164001464844 -2.251270055770874
-2.910820245742798 3.8957512378692627 -2.251058340072632
-3.0608983039855957 3.7783641815185547 -2.2508366107940674
-3.134169816970825 3.7174878120422363 -2.2507219314575195
-3.206230401992798 3.655181884765625 -2.2506048679351807
-3.4148435592651367 3.4599761962890625 -2.250239610671997
-3.4817869663238525 3.3922221660614014 -2.2501132488250732
-1.979101538658142 4.141576290130615 -2.2515764236450195
-2.1396679878234863 4.060586929321289 -2.251418352127075
-2.2187206745147705 4.01774263381958 -2.251335382461548
-2.296923875808716 3.9733543395996094 -2.2512495517730713
-2.3742284774780273 3.9274418354034424 -2.2511613368988037
-2.4506053924560547 3.880019426345825 -2.251070261001587
-2.5260350704193115 3.831105947494507 -2.2509765625
-2.957109212875366 3.5074658393859863 -2.25036358833313
-3.091933488845825 3.388599157333374 -2.250140428543091
-3.2219629287719727 3.264543294906616 -2.249908447265625
-3.2851269245147705 3.200627326965332 -2.2497894763946533
-1.9472558498382568 3.8777854442596436 -2.2511098384857178
-2.0975193977355957 3.798271417617798 -2.25095534324646
-2.171445369720459 3.7563140392303467 -2.2508742809295654
-2.2445409297943115 3.712916851043701 -2.25079083442688
-2.4584765434265137 3.574239492416382 -2.250525712966919
-2.527909994125366 3.5252466201782227 -2.2504324913024902
-2.596386671066284 3.4749016761779785 -2.2503368854522705
-2.859931468963623 3.2603917121887207 -2.2499325275421143
-2.98516583442688 3.145557165145874 -2.2497174739837646
-1.8441308736801147 3.6724188327789307 -2.250753402709961
-1.9864453077316284 3.597127676010132 -2.2506070137023926
-2.3940722942352295 3.338604688644409 -2.2501120567321777
-2.458915948867798 3.290931224822998 -2.250021457672119
-2.5857324600219727 3.191817045211792 -2.2498342990875244
-2.708544969558716 3.087806224822998 -2.249638557434082
-2.768388509750366 3.03401780128479 -2.249537706375122
-2.8271679878234863 2.979065418243408 -2.24943470954895
-1.6806542873382568 3.5170342922210693 -2.250491142272949
-1.7491796016693115 3.48333477973938 -2.250425100326538
-1.8841795921325684 3.411930561065674 -2.25028657913208
-1.9505761861801147 3.374253511428833 -2.250213623046875
-2.016249895095825 3.335282564163208 -2.250138759613037
-2.081123113632202 3.2950315475463867 -2.250061511993408
-2.145205020904541 3.253513813018799 -2.2499821186065674
-2.208447217941284 3.2107481956481934 -2.2499005794525146
-2.332353353500366 3.121537923812866 -2.2497310638427734
-2.452646493911743 3.027540922164917 -2.2495534420013428
-2.569150447845459 2.9288971424102783 -2.2493679523468018
-2.7364940643310547 2.7726683616638184 -2.249157190322876
