ply
format ascii 1.0
element vertex 274
property float x
property float y
property float z
end_header
-5.661585330963135 -15.360962867736816 2.886666774749756
-5.661708831787109 -15.361298561096191 1.757994532585144
-5.661789417266846 -15.361519813537598 1.0152143239974976
-15.813149452209473 -45.66999053955078 -1.3608750104904175
-12.8736572265625 -45.81119155883789 -1.3399099111557007
-12.33108139038086 -26.725439071655273 -1.4926748275756836
-17.658832550048828 -40.35327911376953 -2.233858585357666
-16.064481735229492 -41.062625885009766 -2.236154794692993
-14.44196605682373 -41.70987319946289 -2.2384910583496094
-13.620814323425293 -42.00965881347656 -2.239673614501953
-12.79345703125 -42.293212890625 -2.24084734916687
-11.959683418273926 -42.558738708496094 -2.2419321537017822
-10.275928497314453 -43.040184020996094 -2.24409818649292
-9.426671981811523 -43.25621032714844 -2.245194435119629
-8.57296085357666 -43.45570373535156 -2.2462987899780273
-5.987932205200195 -43.95346450805664 -2.2496578693389893
-4.239718914031982 -44.113914489746094 -2.247513771057129
-3.3663549423217773 -44.19623947143555 -2.2478718757629395
-2.4913744926452637 -44.26128005981445 -2.2482306957244873
-1.7245800495147705 -47.31113052368164 -2.400941848754883
-12.632071495056152 -26.01176643371582 -2.120239734649658
-12.800140380859375 -27.7420597076416 -2.24018931388855
-11.700837135314941 -28.247718811035156 -2.2418408393859863
-11.143625259399414 -28.484344482421875 -2.2426745891571045
-5.662032127380371 -15.362174987792969 -1.2004600763320923
-8.86929702758789 -29.320608139038086 -2.2460575103759766
-7.707856178283691 -29.67129135131836 -2.247772693634033
-7.121816158294678 -29.829341888427734 -2.248621702194214
-6.532519340515137 -29.975786209106445 -2.249474048614502
-5.940235614776611 -30.110679626464844 -2.2503299713134766
-5.345162391662598 -30.233842849731445 -2.2511892318725586
-3.5394604206085205 -30.47972297668457 -2.2498574256896973
-7.461727142333984 -15.365068435668945 -1.6398745775222778
-9.799155235290527 -21.237953186035156 -2.2455174922943115
-9.379072189331055 -21.432687759399414 -2.2460367679595947
-8.52756118774414 -21.797401428222656 -2.2471001148223877
-5.662072658538818 -15.362285614013672 -1.5718427896499634
-7.661973476409912 -22.128559112548828 -2.248194694519043
-6.78361177444458 -22.4256534576416 -2.249319076538086
-5.893815994262695 -22.68815803527832 -2.250471830368042
-5.445047378540039 -22.806303024291992 -2.2510581016540527
-3.621083974838257 -23.145153045654297 -2.249080181121826
-2.701176643371582 -23.26087760925293 -2.248166799545288
-2.3922581672668457 -24.8912296295166 -2.4006919860839844
-1.8993163108825684 -24.93580436706543 -2.4008939266204834
-1.405544400215149 -24.970619201660156 -2.4010963439941406
-7.46172571182251 -15.365066528320312 -2.028981924057007
-7.934052467346191 -17.195653915405273 -2.249546527862549
-7.5935959815979 -17.352584838867188 -2.2499678134918213
-7.250058650970459 -17.502811431884766 -2.2503955364227295
-6.903560638427734 -17.646278381347656 -2.2508299350738525
-5.662114143371582 -15.362394332885742 -1.944838047027588
-5.484604358673096 -18.13130760192871 -2.250124931335449
-5.123744010925293 -18.232940673828125 -2.2497127056121826
-4.031097412109375 -18.497478485107422 -2.248812198638916
-3.6638426780700684 -18.571767807006836 -2.2485852241516113
-3.29522442817688 -18.63875961303711 -2.2483575344085693
-2.3312816619873047 -20.07558250427246 -2.400722026824951
-1.1360399723052979 -20.182659149169922 -2.401212215423584
-6.926059246063232 -14.262025833129883 -2.2464592456817627
-6.642770767211914 -14.397042274475098 -2.246575355529785
-6.356873512268066 -14.526473999023438 -2.246692419052124
-5.777605056762695 -14.768207550048828 -2.2469289302825928
-4.592498779296875 -15.182130813598633 -2.2474074363708496
-4.291352272033691 -15.270856857299805 -2.2475287914276123
-3.9885094165802 -15.35365104675293 -2.2476511001586914
-3.6840453147888184 -15.43043041229248 -2.247774600982666
-3.378119945526123 -15.501176834106445 -2.247899055480957
-2.6188621520996094 -16.739133834838867 -2.4006075859069824
-1.9545531272888184 -16.83157730102539 -2.4008800983428955
-1.2870532274246216 -16.897674560546875 -2.401153564453125
-0.9523485898971558 -16.920808792114258 -2.4012908935546875
-6.225241661071777 -12.818913459777832 -2.347623348236084
-4.930560111999512 -13.377552032470703 -2.348729133605957
-4.688521862030029 -13.540937423706055 -2.3606555461883545
-4.450158596038818 -13.72529411315918 -2.376973867416382
-3.1026244163513184 -14.23687744140625 -2.400418758392334
-2.820497989654541 -14.296177864074707 -2.40053391456604
-1.3944432735443115 -14.50841236114502 -2.4011168479919434
-1.1070239543914795 -14.53387451171875 -2.4012343883514404
-0.8191210627555847 -14.5536527633667 -2.4013524055480957
-4.885814189910889 -11.795144081115723 -2.399698495864868
-4.177746295928955 -12.06579303741455 -2.399986505508423
-3.93827748298645 -12.146547317504883 -2.400083303451538
-3.69726300239563 -12.222612380981445 -2.4001803398132324
-3.2109179496765137 -12.360383033752441 -2.400378942489624
-2.9657812118530273 -12.422022819519043 -2.400479316711426
-2.7194628715515137 -12.478822708129883 -2.4005801677703857
-1.7243016958236694 -12.656953811645508 -2.4009859561920166
-1.2221484184265137 -12.7163667678833 -2.401191473007202
-0.4654223620891571 -12.768131256103516 -2.4015016555786133
-4.959208965301514 -10.211915969848633 -2.399670124053955
-4.756289005279541 -10.308428764343262 -2.3997528553009033
-4.344907283782959 -10.489311218261719 -2.3999202251434326
-4.136602878570557 -10.573659896850586 -2.4000046253204346
-3.7151708602905273 -10.729798316955566 -2.400174617767334
-3.072216749191284 -10.932558059692383 -2.400437355041504
-2.8553466796875 -10.991629600524902 -2.4005258083343506
-2.637346029281616 -11.046405792236328 -2.4006152153015137
-2.1982836723327637 -11.142956733703613 -2.4007949829101562
-1.7557005882263184 -11.222067832946777 -2.4009759426116943
-1.5333129167556763 -11.255047798156738 -2.4010672569274902
-1.3103100061416626 -11.283623695373535 -2.401158571243286
-0.86279296875 -11.327492713928223 -2.401341438293457
-0.41386228799819946 -11.35363483428955 -2.401524066925049
-4.460691928863525 -9.185407638549805 -2.399874687194824
-4.278156757354736 -9.272171020507812 -2.3999485969543457
-4.093937873840332 -9.355311393737793 -2.4000232219696045
-3.7207274436950684 -9.510595321655273 -2.4001736640930176
-3.5318870544433594 -9.58267879486084 -2.4002504348754883
-3.3416478633880615 -9.651018142700195 -2.4003281593322754
-3.150087833404541 -9.715580940246582 -2.4004065990448
-2.957280158996582 -9.77634048461914 -2.4004855155944824
-1.977209448814392 -10.022364616394043 -2.4008865356445312
-1.57913076877594 -10.093445777893066 -2.4010496139526367
-1.1785229444503784 -10.14872932434082 -2.4012136459350586
-0.977465808391571 -10.170415878295898 -2.4012961387634277
-3.716359853744507 -8.492472648620605 -2.400176525115967
-3.5476560592651367 -8.564614295959473 -2.400244951248169
-3.3775510787963867 -8.63339614868164 -2.4003145694732666
-2.859513998031616 -8.819396018981934 -2.400526523590088
-2.6844897270202637 -8.874526977539062 -2.4005980491638184
-2.5084009170532227 -8.926186561584473 -2.400670289993286
-2.331313371658325 -8.974352836608887 -2.400742769241333
-2.1533055305480957 -9.019010543823242 -2.400815486907959
-1.9744457006454468 -9.060136795043945 -2.400888681411743
-1.7947973012924194 -9.097722053527832 -2.4009623527526855
-1.6144384145736694 -9.131733894348145 -2.401036262512207
-1.433435082435608 -9.16218376159668 -2.4011101722717285
-1.251857876777649 -9.189043045043945 -2.401184558868408
-1.0697802305221558 -9.212307929992676 -2.401259183883667
-0.8872705101966858 -9.231961250305176 -2.401333808898926
-0.7044042944908142 -9.248003005981445 -2.4014086723327637
-0.33788084983825684 -9.269214630126953 -2.4015588760375977
-3.244863271713257 -7.833629608154297 -2.400369644165039
-2.615429639816284 -8.066587448120117 -2.4006271362304688
-2.455336809158325 -8.116994857788086 -2.400692939758301
-1.969482421875 -8.249075889587402 -2.4008917808532715
-1.805883765220642 -8.286675453186035 -2.40095853805542
-1.4766039848327637 -8.352116584777832 -2.4010934829711914
-0.8115136623382568 -8.443697929382324 -2.4013657569885254
-0.6442577838897705 -8.458348274230957 -2.4014341831207275
-0.4767431616783142 -8.469682693481445 -2.401502847671509
-0.3090283274650574 -8.477700233459473 -2.40157151222229
-2.8434667587280273 -7.268210411071777 -2.4005348682403564
-2.553723096847534 -7.3754119873046875 -2.40065336227417
-2.111699104309082 -7.514524936676025 -2.400834083557129
-1.8127514123916626 -7.592601776123047 -2.400956630706787
-1.6621679067611694 -7.627184867858887 -2.4010181427001953
-1.206704020500183 -7.712982177734375 -2.4012045860290527
-0.900561511516571 -7.7550950050354 -2.40132999420166
-0.7469213604927063 -7.771606922149658 -2.401392936706543
-0.43879392743110657 -7.795487403869629 -2.4015190601348877
-3.1545774936676025 -6.495854377746582 -2.4004080295562744
-2.8951611518859863 -6.615903854370117 -2.4005141258239746
-2.7637133598327637 -6.672058582305908 -2.4005680084228516
-2.497617244720459 -6.776515960693359 -2.400676727294922
-2.3630638122558594 -6.824773788452148 -2.4007318019866943
-1.1165918111801147 -7.1370158195495605 -2.401242256164551
-0.975146472454071 -7.157891750335693 -2.4012999534606934
-0.8333105444908142 -7.175960540771484 -2.401358127593994
-0.5486913919448853 -7.203666687011719 -2.401474714279175
-2.8123509883880615 -6.095282554626465 -2.4005486965179443
-2.4458372592926025 -6.25182580947876 -2.400698661804199
-2.19659423828125 -6.343992710113525 -2.4008004665374756
-2.0706493854522705 -6.386358737945557 -2.4008522033691406
-1.8163671493530273 -6.463583946228027 -2.400956153869629
-1.6881250143051147 -6.49840784072876 -2.4010086059570312
-1.5592138767242432 -6.530688762664795 -2.401061534881592
-1.1689916849136353 -6.612148761749268 -2.40122127532959
-0.90643310546875 -6.653530120849609 -2.4013285636901855
-0.7745922803878784 -6.67031717300415 -2.4013826847076416
-0.6424340605735779 -6.684493064880371 -2.4014368057250977
-0.3774096667766571 -6.704982757568359 -2.401545286178589
-0.24463866651058197 -6.7112884521484375 -2.401599645614624
-2.7364964485168457 -5.634946823120117 -2.4005801677703857
-2.5114402770996094 -5.739048480987549 -2.400672197341919
-2.0498461723327637 -5.920164108276367 -2.4008612632751465
-1.932314395904541 -5.959693431854248 -2.400909185409546
-1.3341625928878784 -6.122073650360107 -2.401154041290283
-1.2127611637115479 -6.147408485412598 -2.4012036323547363
-0.9685644507408142 -6.190845012664795 -2.401303768157959
-0.7228344678878784 -6.224588871002197 -2.40140438079834
-0.5995067954063416 -6.237804889678955 -2.4014549255371094
-0.4759448170661926 -6.2485809326171875 -2.401505470275879
-0.22829344868659973 -6.262785911560059 -2.401606798171997
-2.5623486042022705 -5.276350021362305 -2.4006519317626953
-2.457465648651123 -5.326124668121338 -2.4006948471069336
-2.2448363304138184 -5.419403076171875 -2.4007818698883057
-2.1371777057647705 -5.462871074676514 -2.4008259773254395
-2.028679132461548 -5.504201412200928 -2.4008703231811523
-1.9193847179412842 -5.54337739944458 -2.4009149074554443
-1.6985644102096558 -5.615204334259033 -2.401005268096924
-1.58712637424469 -5.647827625274658 -2.4010510444641113
-1.47506582736969 -5.678242206573486 -2.401096820831299
-1.0214354991912842 -5.777563571929932 -2.401282548904419
-0.906909167766571 -5.796760082244873 -2.401329517364502
-0.7920190095901489 -5.8136887550354 -2.401376485824585
-0.5613427758216858 -5.840709209442139 -2.401470899581909
-0.4456445276737213 -5.850788593292236 -2.4015181064605713
-0.21375732123851776 -5.864073753356934 -2.401613235473633
-2.406364679336548 -4.955143928527832 -2.4007163047790527
-2.307861328125 -5.001883506774902 -2.400756359100342
-2.0070652961730957 -5.130288124084473 -2.400879383087158
-1.6991698741912842 -5.240627765655518 -2.401005506515503
-1.4904955625534058 -5.303957462310791 -2.4010908603668213
-1.38525390625 -5.332513332366943 -2.4011340141296387
-1.0664184093475342 -5.405615329742432 -2.4012644290924072
-0.74378901720047 -5.4596710205078125 -2.4013965129852295
-0.6356030106544495 -5.473426342010498 -2.4014408588409424
-0.41850584745407104 -5.494494438171387 -2.4015297889709473
-0.3096874952316284 -5.501805305480957 -2.4015743732452393
-2.079355478286743 -4.7516608238220215 -2.400850296020508
-1.9849364757537842 -4.791958808898926 -2.4008889198303223
-1.501894474029541 -4.9650373458862305 -2.4010865688323975
-1.403356909751892 -4.993870735168457 -2.4011268615722656
-1.304262638092041 -5.020752906799316 -2.401167392730713
-1.004067301750183 -5.089564800262451 -2.4012904167175293
-0.9031566977500916 -5.108529567718506 -2.401331663131714
-0.598437488079071 -5.153390407562256 -2.401456356048584
-0.3940356373786926 -5.173213958740234 -2.4015402793884277
-0.1889990121126175 -5.184937477111816 -2.4016242027282715
-2.0505614280700684 -4.4442362785339355 -2.400862455368042
-1.9622313976287842 -4.484017372131348 -2.4008984565734863
-1.7832958698272705 -4.558300495147705 -2.4009718894958496
-1.6927562952041626 -4.592771530151367 -2.4010088443756104
-1.6015527248382568 -4.625444412231445 -2.40104603767395
-1.5097167491912842 -4.656308650970459 -2.4010837078094482
-1.4172899723052979 -4.685348033905029 -2.4011213779449463
-1.3243017196655273 -4.712559223175049 -2.4011595249176025
-1.0423558950424194 -4.7830729484558105 -2.4012749195098877
-0.7567138671875 -4.836734294891357 -2.4013917446136475
-0.6608471274375916 -4.850843906402588 -2.4014313220977783
-0.3718359172344208 -4.88175106048584 -2.4015495777130127
-0.17835204303264618 -4.892805576324463 -2.4016287326812744
-1.9389135837554932 -4.202253818511963 -2.4009082317352295
-1.8553930521011353 -4.239866256713867 -2.40094256401062
-1.7711400985717773 -4.275820732116699 -2.4009768962860107
-1.686193823814392 -4.31009578704834 -2.4010117053985596
-1.51434326171875 -4.373582363128662 -2.4010820388793945
-1.4275097846984863 -4.402760028839111 -2.4011175632476807
-1.3401098251342773 -4.430216312408447 -2.401153326034546
-1.2521874904632568 -4.455935955047607 -2.4011893272399902
-0.8959032893180847 -4.541287899017334 -2.4013352394104004
-0.715502917766571 -4.57332706451416 -2.401409149169922
-0.6248583793640137 -4.586665630340576 -2.4014461040496826
-0.5339648127555847 -4.598203182220459 -2.4014832973480225
-0.4428662061691284 -4.607942581176758 -2.4015207290649414
-0.35158446431159973 -4.615878582000732 -2.4015579223632812
-0.1686376929283142 -4.626321315765381 -2.4016330242156982
-1.7574388980865479 -4.016027927398682 -2.4009828567504883
-1.516076683998108 -4.113410472869873 -2.4010815620422363
-1.4343920946121216 -4.1426682472229 -2.4011149406433105
-1.352138638496399 -4.170304298400879 -2.401148796081543
-0.9335546493530273 -4.283797740936279 -2.401319980621338
-0.8486010432243347 -4.30150032043457 -2.4013547897338867
-0.7633105516433716 -4.317516326904297 -2.4013895988464355
-0.677722156047821 -4.3318400382995605 -2.4014248847961426
-0.5918627977371216 -4.344468116760254 -2.4014599323272705
-0.41947507858276367 -4.364614009857178 -2.4015305042266846
-1.6672191619873047 -3.8098649978637695 -2.401020050048828
-1.5151782035827637 -3.8729608058929443 -2.4010822772979736
-1.360754370689392 -3.929993152618408 -2.4011454582214355
-1.2827246189117432 -3.9562084674835205 -2.401177406311035
-1.204189419746399 -3.9808733463287354 -2.401209592819214
-1.0457299947738647 -4.025521278381348 -2.4012744426727295
-0.9658642411231995 -4.045483112335205 -2.4013071060180664
-0.8856201171875 -4.063860893249512 -2.4013400077819824
-0.8050292730331421 -4.080649375915527 -2.4013729095458984
-0.5614697337150574 -4.121401786804199 -2.401472568511963
-0.4797998070716858 -4.131764888763428 -2.401505947113037
-0.3159155249595642 -4.1476335525512695 -2.4015731811523438
-0.23377196490764618 -4.153132915496826 -2.401606798171997
-0.15153075754642487 -4.157001972198486 -2.4016404151916504
