ply
format ascii 1.0
element vertex 411
property float x
property float y
property float z
end_header
-22.47269058227539 -23.873380661010742 5.78115701675415
-20.791654586791992 -23.972030639648438 5.595293998718262
-20.04472541809082 -24.084360122680664 5.525104999542236
-19.143579483032227 -23.977996826171875 5.410163402557373
-18.438379287719727 -24.084325790405273 5.348344802856445
-16.2069091796875 -24.08427619934082 5.118696689605713
-15.504096031188965 -24.08426284790039 5.050551414489746
-14.819472312927246 -24.084247589111328 4.986242771148682
-13.381601333618164 -23.87318229675293 4.825677871704102
-12.804657936096191 -23.975515365600586 4.792670249938965
-7.579540729522705 -16.550457000732422 3.209766387939453
-6.388574123382568 -16.550434112548828 3.1281557083129883
-6.004408836364746 -16.550426483154297 3.104405164718628
-5.625864028930664 -16.55042266845703 3.08227801322937
-5.252539157867432 -16.5504150390625 3.061727523803711
-22.47269058227539 -23.873380661010742 5.022738456726074
-21.763851165771484 -24.08439826965332 4.97285795211792
-19.143657684326172 -23.97808837890625 4.700417518615723
-17.517684936523438 -23.873275756835938 4.536223411560059
-16.92923355102539 -24.084293365478516 4.509885311126709
-16.2069091796875 -24.084280014038086 4.447168827056885
-14.819472312927246 -24.08424949645996 4.332091808319092
-14.151796340942383 -24.08423614501953 4.279376029968262
-12.862709999084473 -24.084205627441406 4.182789325714111
-12.13199234008789 -23.873159408569336 4.10238790512085
-11.52663516998291 -23.873144149780273 4.061211109161377
-7.1756591796875 -16.55044937133789 2.763481616973877
-6.778828144073486 -16.55044174194336 2.739865303039551
-5.625868797302246 -16.55042266845703 2.6779088973999023
-5.252539157867432 -16.5504150390625 2.6600539684295654
-22.47270393371582 -23.873380661010742 4.269514560699463
-21.76384162902832 -24.08439826965332 4.227114677429199
-20.79181671142578 -23.972213745117188 4.132266521453857
-19.86906623840332 -23.873319625854492 4.04464054107666
-19.05998992919922 -23.873302459716797 3.978064775466919
-17.517684936523438 -23.873275756835938 3.855945587158203
-16.780887603759766 -23.873258590698242 3.7999727725982666
-16.064882278442383 -23.873241424560547 3.747130870819092
-14.689608573913574 -23.87320899963379 3.650169849395752
-13.381591796875 -23.87318229675293 3.563856363296509
-12.131986618041992 -23.873159408569336 3.487179756164551
-11.52664566040039 -23.873144149780273 3.452179193496704
-7.579535961151123 -16.550457000732422 2.370474100112915
-7.17565393447876 -16.55044937133789 2.349060297012329
-6.778832912445068 -16.55044174194336 2.3289875984191895
-6.38857889175415 -16.550434112548828 2.31020450592041
-6.004404067993164 -16.55042839050293 2.292661190032959
-5.625868797302246 -16.55042266845703 2.276322603225708
-20.706058502197266 -23.873342514038086 3.393460273742676
-22.935903549194336 -28.727985382080078 3.947432518005371
-23.666337966918945 -32.25272750854492 4.295721530914307
-23.61475944519043 -33.59543991088867 4.409600257873535
-23.672401428222656 -40.28689193725586 5.017629146575928
-7.1756591796875 -16.55044937133789 1.937063217163086
-6.778828144073486 -16.55044174194336 1.9205111265182495
-6.38857889175415 -16.55043601989746 1.9050213098526
-5.252539157867432 -16.550416946411133 1.864565134048462
-22.936107635498047 -24.36568260192871 2.8327083587646484
-22.855770111083984 -25.29273796081543 2.8857808113098145
-22.936025619506836 -27.558361053466797 3.0351572036743164
-22.93448257446289 -31.2553768157959 3.281740427017212
-22.935853958129883 -34.08386993408203 3.4777400493621826
-22.935766220092773 -37.274662017822266 3.704895257949829
-22.855409622192383 -38.89650344848633 3.819049835205078
-7.140834808349609 -16.470138549804688 1.5196456909179688
-6.745937347412109 -16.470129013061523 1.5066585540771484
-5.975273132324219 -16.470117568969727 1.4831613302230835
-5.22705078125 -16.470102310180664 1.4627703428268433
-22.936195373535156 -24.36577606201172 2.075037717819214
-22.936141967773438 -26.444549560546875 2.17069935798645
-22.93608856201172 -28.728227615356445 2.279564142227173
-22.936025619506836 -31.257465362548828 2.404122829437256
-22.85567855834961 -32.515541076660156 2.4645822048187256
-22.93596076965332 -34.084007263183594 2.547544002532959
-22.855525970458984 -38.89670944213867 2.797579050064087
-7.542768478393555 -16.470144271850586 1.123325228691101
-6.745932579040527 -16.470130920410156 1.1036670207977295
-6.357577800750732 -16.470123291015625 1.0947649478912354
-5.975273132324219 -16.47011947631836 1.0864537954330444
-5.598569393157959 -16.470109939575195 1.0787075757980347
-22.85586929321289 -28.627765655517578 1.4444552659988403
-22.855785369873047 -32.51567077636719 1.5671850442886353
-22.855716705322266 -35.504390716552734 1.664972186088562
-7.140834808349609 -16.470138549804688 0.7078484892845154
-6.745937347412109 -16.470130920410156 0.7017983794212341
-5.975273132324219 -16.470117568969727 0.6908523440361023
-22.856048583984375 -24.280624389648438 0.5632733106613159
-22.85600471496582 -26.352163314819336 0.589243471622467
-22.855960845947266 -28.62788200378418 0.6187936067581177
-22.85593605041504 -29.854564666748047 0.6351183652877808
-22.855913162231445 -31.14826774597168 0.6526034474372864
-22.85588836669922 -32.51585006713867 0.6713647246360779
-22.855854034423828 -33.9649658203125 0.6915392875671387
-22.855825424194336 -35.5045166015625 0.7132574319839478
-22.855756759643555 -38.897090911865234 0.7620760798454285
-5.598574161529541 -16.470111846923828 0.2938458323478699
-5.22705078125 -16.470104217529297 0.2918862998485565
-23.524417877197266 -24.990638732910156 -0.19323547184467316
-23.52439308166504 -26.032657623291016 -0.19754424691200256
-23.524354934692383 -28.265241622924805 -0.20703689754009247
-23.524330139160156 -29.46502685546875 -0.21227645874023438
-23.5242862701416 -32.05914306640625 -0.22387725114822388
-23.09571647644043 -34.32139587402344 -0.23291335999965668
-7.542763710021973 -16.47014617919922 -0.10199294984340668
-7.168759822845459 -16.53453826904297 -0.10147109627723694
-6.615546703338623 -17.13842010498047 -0.10342895239591599
-5.825736999511719 -17.138404846191406 -0.1019122302532196
-5.439145565032959 -17.13840103149414 -0.10123550146818161
-23.52448272705078 -26.032758712768555 -0.987980306148529
-23.52446746826172 -27.122848510742188 -1.0109604597091675
-23.524452209472656 -28.2653751373291 -1.0354807376861572
-23.52442741394043 -29.46516990661621 -1.0616673231124878
-23.524389266967773 -32.05928039550781 -1.1196751594543457
-24.454652786254883 -37.98818588256836 -1.272139310836792
-6.217724323272705 -17.138412475585938 -0.5133576989173889
-5.825732231140137 -17.138408660888672 -0.5096992254257202
-5.439140319824219 -17.13840103149414 -0.5062989592552185
-23.524560928344727 -27.122962951660156 -1.8208168745040894
-23.524545669555664 -28.265485763549805 -1.864974021911621
-23.0956974029541 -34.32139587402344 -2.097978115081787
-24.024642944335938 -37.3201789855957 -2.2509241104125977
-23.259584426879883 -37.80091857910156 -2.2508904933929443
-21.701112747192383 -38.7154426574707 -2.2508318424224854
-15.862030982971191 -31.2131404876709 -1.775625228881836
-15.066102981567383 -31.203874588012695 -1.7572729587554932
-7.542768478393555 -16.47014617919922 -0.918696403503418
-7.019658088684082 -17.138427734375 -0.9392428398132324
-5.825742244720459 -17.138408660888672 -0.9180037975311279
-21.055063247680664 -22.36739730834961 -2.2523350715637207
-19.651968002319336 -23.61244010925293 -2.252490997314453
-19.16768455505371 -24.0081729888916 -2.25254487991333
-18.675443649291992 -24.393983840942383 -2.2525997161865234
-18.17544937133789 -24.769678115844727 -2.252655506134033
-17.667909622192383 -25.13518714904785 -2.2527122497558594
-17.153032302856445 -25.49028778076172 -2.2527694702148438
-16.631010055541992 -25.834850311279297 -2.2528278827667236
-16.10205078125 -26.168676376342773 -2.252887010574341
-13.920761108398438 -27.393041610717773 -2.252988815307617
-7.542768478393555 -16.47014617919922 -1.3282499313354492
-7.168896198272705 -16.53486442565918 -1.321419596672058
-5.825742244720459 -17.138408660888672 -1.3272404670715332
-15.376230239868164 -17.728235244750977 -2.2529847621917725
-15.012407302856445 -18.037887573242188 -2.2530252933502197
-14.266283988952637 -18.63471794128418 -2.253108263015747
-13.884262084960938 -18.921611785888672 -2.2531509399414062
-13.49644947052002 -19.200685501098633 -2.2531943321228027
-13.10306167602539 -19.471797943115234 -2.2532382011413574
-12.704194068908691 -19.73488426208496 -2.2532825469970703
-12.300097465515137 -19.98983383178711 -2.2533278465270996
-11.890869140625 -20.23647689819336 -2.253373622894287
-10.6342134475708 -20.92584228515625 -2.253514051437378
-7.542763710021973 -16.47014808654785 -1.739145278930664
-7.1689453125 -16.534971237182617 -1.730224609375
-6.217724323272705 -17.13841438293457 -1.750307321548462
-12.973593711853027 -13.782196998596191 -2.2483596801757812
-12.693188667297363 -14.046576499938965 -2.2488632202148438
-12.407333374023438 -14.305194854736328 -2.2493574619293213
-12.116132736206055 -14.55794620513916 -2.2498414516448975
-11.518427848815918 -15.045345306396484 -2.250779867172241
-9.610268592834473 -16.355228424072266 -2.2533376216888428
-8.938051223754883 -16.73565673828125 -2.253713369369507
-8.595659255981445 -16.914430618286133 -2.253751754760742
-8.249696731567383 -17.08617401123047 -2.2537906169891357
-7.168989181518555 -16.535072326660156 -2.140798330307007
-6.615546703338623 -17.1384220123291 -2.18220853805542
-6.217724323272705 -17.13841438293457 -2.1656389236450195
-5.825742244720459 -17.138408660888672 -2.1502020359039307
-11.6123628616333 -12.336142539978027 -2.400482416152954
-11.1008882522583 -12.79888916015625 -2.4005396366119385
-10.83815860748291 -13.022383689880371 -2.400569200515747
-10.571035385131836 -13.240480422973633 -2.4005990028381348
-8.984052658081055 -13.350747108459473 -2.280078411102295
-8.602568626403809 -13.363849639892578 -2.251932382583618
-8.31618595123291 -13.515241622924805 -2.2484474182128906
-7.478969573974609 -14.00367259979248 -2.2494163513183594
-7.193310260772705 -14.154916763305664 -2.2497196197509766
-6.904619216918945 -14.300288200378418 -2.2500128746032715
-6.612890243530273 -14.439690589904785 -2.250295639038086
-6.318339824676514 -14.57308292388916 -2.250568151473999
-5.721235275268555 -14.821574211120605 -2.251081705093384
-5.418906211853027 -14.936554908752441 -2.2513225078582764
-5.114247798919678 -15.045302391052246 -2.2515525817871094
-9.98828125 -10.610905647277832 -2.400667428970337
-9.770395278930664 -10.812149047851562 -2.4006919860839844
-9.548378944396973 -11.008923530578613 -2.400716781616211
-9.322378158569336 -11.201132774353027 -2.4007420539855957
-9.092534065246582 -11.38870620727539 -2.4007678031921387
-8.858901023864746 -11.571555137634277 -2.40079402923584
-8.380751609802246 -11.922836303710938 -2.4008476734161377
-8.136396408081055 -12.09109115600586 -2.4008750915527344
-7.888661861419678 -12.254353523254395 -2.40090274810791
-6.603007793426514 -12.99330997467041 -2.4010472297668457
-6.068891525268555 -13.251665115356445 -2.4011073112487793
-5.773447036743164 -13.316189765930176 -2.3910071849823
-5.455161094665527 -13.31850814819336 -2.370987892150879
-5.142040729522705 -13.320612907409668 -2.3522369861602783
-4.833334922790527 -13.322511672973633 -2.3347113132476807
-8.754853248596191 -9.300537109375 -2.400808095932007
-8.563788414001465 -9.476899147033691 -2.400829553604126
-8.369184494018555 -9.649358749389648 -2.4008514881134033
-8.171088218688965 -9.81782341003418 -2.4008734226226807
-7.96959924697876 -9.982218742370605 -2.4008960723876953
-7.131533145904541 -10.59781265258789 -2.4009900093078613
-6.694375038146973 -10.879535675048828 -2.4010391235351562
-6.246113300323486 -11.143244743347168 -2.4010894298553467
-5.7874755859375 -11.38849925994873 -2.4011409282684326
-5.554502010345459 -11.504071235656738 -2.401167154312134
-5.319228172302246 -11.614896774291992 -2.401193618774414
-5.081748008728027 -11.720895767211914 -2.4012203216552734
-4.357026100158691 -12.00961685180664 -2.401301860809326
-3.8646678924560547 -12.177287101745605 -2.4013571739196777
-7.086947917938232 -8.8766450881958 -2.4009969234466553
-6.71987771987915 -9.157914161682129 -2.40103816986084
-6.148549556732178 -9.551237106323242 -2.401102304458618
-5.952895164489746 -9.674509048461914 -2.4011240005493164
-5.754794597625732 -9.793784141540527 -2.401146411895752
-5.554282188415527 -9.908992767333984 -2.4011688232421875
-5.351459980010986 -10.020092964172363 -2.4011917114257812
-4.518842697143555 -10.422599792480469 -2.401285171508789
-4.305795669555664 -10.51253604888916 -2.4013092517852783
-4.090947151184082 -10.59810733795166 -2.4013333320617676
-3.8743896484375 -10.679299354553223 -2.401357650756836
-3.4365575313568115 -10.828378677368164 -2.40140700340271
-7.002328872680664 -7.438762664794922 -2.401008129119873
-6.849501609802246 -7.579819202423096 -2.4010252952575684
-6.693822860717773 -7.717737197875977 -2.4010424613952637
-6.374223709106445 -7.983932971954346 -2.401078462600708
-6.210429668426514 -8.112096786499023 -2.401096820831299
-5.703847408294678 -8.47622299194336 -2.401153564453125
-5.354194164276123 -8.701517105102539 -2.4011926651000977
-5.176001071929932 -8.808778762817383 -2.401212692260742
-4.995654106140137 -8.912396430969238 -2.401232957839966
-4.813227653503418 -9.012321472167969 -2.4012534618377686
-4.442490100860596 -9.200933456420898 -2.4012951850891113
-3.8727099895477295 -9.455174446105957 -2.4013590812683105
-3.2884862422943115 -9.674192428588867 -2.4014248847961426
-6.217563152313232 -6.880502700805664 -2.401097297668457
-6.076250076293945 -7.005696773529053 -2.4011130332946777
-5.7861328125 -7.247323989868164 -2.4011454582214355
-5.486420631408691 -7.476938247680664 -2.401179075241089
-5.333115100860596 -7.587125301361084 -2.4011964797973633
-5.177592754364014 -7.694173336029053 -2.4012138843536377
-4.860190391540527 -7.898664474487305 -2.401249408721924
-4.698432445526123 -7.996025085449219 -2.4012675285339355
-4.032577991485596 -8.35196590423584 -2.4013421535491943
-3.861747980117798 -8.432394981384277 -2.4013614654541016
-3.689326047897339 -8.509323120117188 -2.401380777359009
-3.3399658203125 -8.652586936950684 -2.4014201164245605
-3.163159132003784 -8.718855857849121 -2.401440143585205
-2.8056933879852295 -8.840532302856445 -2.4014804363250732
-5.292128562927246 -6.628582000732422 -2.4012019634246826
-5.156142234802246 -6.734982967376709 -2.401217222213745
-5.018012523651123 -6.838587284088135 -2.4012327194213867
-4.297280311584473 -7.313332557678223 -2.401313543319702
-3.996088743209839 -7.482296466827393 -2.4013473987579346
-3.6882665157318115 -7.638864994049072 -2.4013819694519043
-3.5320215225219727 -7.712422847747803 -2.4013993740081787
-3.374321222305298 -7.782778263092041 -2.4014172554016113
-2.893071174621582 -7.974404335021973 -2.4014713764190674
-5.3509521484375 -5.684463977813721 -2.4011964797973633
-5.23415994644165 -5.792239665985107 -2.4012093544006348
-5.115190505981445 -5.897624969482422 -2.4012227058410645
-4.994096755981445 -6.000565528869629 -2.4012362957000732
-4.870947360992432 -6.101022720336914 -2.401250123977661
-4.745766639709473 -6.198947429656982 -2.401264190673828
-4.489565372467041 -6.387058734893799 -2.4012928009033203
-4.358642578125 -6.477167129516602 -2.4013075828552246
-4.091435432434082 -6.649294853210449 -2.4013376235961914
-3.955253839492798 -6.7312517166137695 -2.401352882385254
-3.817436456680298 -6.810413837432861 -2.4013681411743164
-3.5370945930480957 -6.960248947143555 -2.401399850845337
-3.3946971893310547 -7.0308518409729 -2.4014158248901367
-2.959306478500366 -7.225089073181152 -2.4014647006988525
-2.5128467082977295 -7.392397403717041 -2.401514768600464
-2.3618602752685547 -7.442073822021484 -2.401531934738159
-4.951391696929932 -5.2599968910217285 -2.4012417793273926
-4.843315124511719 -5.359722137451172 -2.4012539386749268
-4.507221698760986 -5.6454386711120605 -2.401291608810425
-4.391381740570068 -5.7360520362854 -2.4013044834136963
-4.033164024353027 -5.993483543395996 -2.4013447761535645
-3.910341739654541 -6.074377536773682 -2.4013586044311523
-3.785903215408325 -6.152756214141846 -2.4013724327087402
-3.4033689498901367 -6.372473239898682 -2.4014155864715576
-3.272958993911743 -6.4404754638671875 -2.401430130004883
-3.141191244125366 -6.505807876586914 -2.401444911956787
-2.7383008003234863 -6.685526371002197 -2.4014902114868164
-2.463935375213623 -6.79153299331665 -2.4015212059020996
-2.1854686737060547 -6.886282920837402 -2.401552438735962
-4.502065181732178 -4.982086658477783 -2.4012930393218994
-4.399731159210205 -5.072727680206299 -2.4013044834136963
-4.295576095581055 -5.161269187927246 -2.401315927505493
-4.189643383026123 -5.247666358947754 -2.4013278484344482
-4.081967830657959 -5.331890106201172 -2.4013400077819824
-3.4020116329193115 -5.789709568023682 -2.401416301727295
-3.0423338413238525 -5.986661911010742 -2.401456594467163
-2.919853448867798 -6.047384738922119 -2.401470422744751
-2.671313524246216 -6.16129732131958 -2.401498317718506
-2.545346736907959 -6.214434623718262 -2.401512622833252
-2.418329954147339 -6.264998435974121 -2.401526689529419
-2.2903075218200684 -6.312967300415039 -2.401541233062744
-4.201244831085205 -4.64919376373291 -2.401327133178711
-4.105746746063232 -4.733779430389404 -2.4013381004333496
-3.9096972942352295 -4.897023677825928 -2.401359796524048
-3.707158088684082 -5.052153587341309 -2.4013824462890625
-3.3918943405151367 -5.269079685211182 -2.4014179706573486
-3.283998966217041 -5.337060928344727 -2.4014298915863037
-3.1745848655700684 -5.402834415435791 -2.401442289352417
-2.724741220474243 -5.643284797668457 -2.4014928340911865
-2.492807626724243 -5.74957799911499 -2.4015190601348877
-2.256728410720825 -5.846346855163574 -2.401545524597168
-2.137265682220459 -5.891105651855469 -2.4015588760375977
-2.016904354095459 -5.933428764343262 -2.4015724658966064
-4.021601676940918 -4.272258758544922 -2.4013478755950928
-3.9338183403015137 -4.353254318237305 -2.401357650756836
-3.7533886432647705 -4.5098137855529785 -2.4013779163360596
-3.660820245742798 -4.585305213928223 -2.40138840675354
-3.5667333602905273 -4.658894062042236 -2.4013988971710205
-3.3741748332977295 -4.800258159637451 -2.4014203548431396
-3.2757811546325684 -4.8679728507995605 -2.4014315605163574
-3.176020383834839 -4.933668613433838 -2.401442766189575
-3.074941396713257 -4.997324466705322 -2.401453971862793
-2.869008779525757 -5.118393898010254 -2.401477098464966
-2.764233350753784 -5.175761699676514 -2.401488780975342
-2.658315420150757 -5.230987548828125 -2.401500701904297
-2.551328182220459 -5.284041404724121 -2.401512861251831
-2.3340818881988525 -5.38356876373291 -2.4015371799468994
-2.224067449569702 -5.429993152618408 -2.4015495777130127
-2.0011816024780273 -5.516079425811768 -2.4015746116638184
-1.8885058164596558 -5.555704593658447 -2.4015872478485107
-3.694287061691284 -4.08818244934082 -2.4013850688934326
-3.6103172302246094 -4.162554740905762 -2.4013943672180176
-3.4379100799560547 -4.306097507476807 -2.401413917541504
-3.349550724029541 -4.375207901000977 -2.401423692703247
-3.259819269180298 -4.442502498626709 -2.4014337062835693
-3.1687207221984863 -4.507959365844727 -2.4014439582824707
-3.076303720474243 -4.571547985076904 -2.401454210281372
-2.887700080871582 -4.69302225112915 -2.401475429534912
-2.6942968368530273 -4.8067193031311035 -2.4014971256256104
-2.595903158187866 -4.860591411590576 -2.401508331298828
-2.1919822692871094 -5.055736064910889 -2.4015536308288574
-2.088613271713257 -5.0993332862854 -2.4015650749206543
-1.9843944311141968 -5.140817642211914 -2.4015769958496094
-1.8793407678604126 -5.180173873901367 -2.4015889167785645
-3.555908203125 -3.7775449752807617 -2.4014010429382324
-3.2368993759155273 -4.0543317794799805 -2.4014368057250977
-3.1537158489227295 -4.119396686553955 -2.4014461040496826
-2.983452081680298 -4.244387626647949 -2.4014651775360107
-2.896435499191284 -4.304256916046143 -2.401474952697754
-2.7188572883605957 -4.4186248779296875 -2.4014947414398193
-2.5367674827575684 -4.525670528411865 -2.401515245437622
-2.4441258907318115 -4.576391220092773 -2.4015257358551025
-1.9664989709854126 -4.801168918609619 -2.4015793800354004
-1.8683593273162842 -4.840227127075195 -2.401590347290039
-3.2077245712280273 -3.698389768600464 -2.401440382003784
-3.131787061691284 -3.7629363536834717 -2.401448965072632
-3.0545458793640137 -3.825922966003418 -2.4014575481414795
-2.9760448932647705 -3.8873229026794434 -2.4014663696289062
-2.896308422088623 -3.9471123218536377 -2.401475429534912
-2.733266592025757 -4.061766147613525 -2.401493549346924
-2.6500244140625 -4.116579532623291 -2.401502847671509
-2.565688371658325 -4.169686794281006 -2.401512384414673
-2.480288028717041 -4.2210693359375 -2.401521921157837
-2.2180469036102295 -4.364638805389404 -2.4015514850616455
-2.1287450790405273 -4.408904075622559 -2.4015612602233887
-2.038564443588257 -4.451342582702637 -2.40157151222229
-1.9475438594818115 -4.491937637329102 -2.4015817642211914
-1.76309072971344 -4.56752872467041 -2.4016025066375732
-1.6697607040405273 -4.602491855621338 -2.4016129970550537
-1.5757323503494263 -4.635549068450928 -2.4016237258911133
-3.1728515625 -3.370603561401367 -2.401444673538208
-3.103588819503784 -3.434502601623535 -2.4014525413513184
-3.0330419540405273 -3.4969823360443115 -2.4014604091644287
-2.961235284805298 -3.558011293411255 -2.401468276977539
-2.888198137283325 -3.6175684928894043 -2.4014766216278076
-2.813969612121582 -3.675624370574951 -2.401484966278076
-2.738574266433716 -3.732156276702881 -2.4014933109283447
-2.662040948867798 -3.7871437072753906 -2.4015018939971924
-2.5057029724121094 -3.8923895359039307 -2.401519298553467
-2.3452000617980957 -3.991190195083618 -2.4015374183654785
-2.1808252334594727 -4.083371639251709 -2.4015557765960693
-1.9275438785552979 -4.208920001983643 -2.4015843868255615
-1.667080044746399 -4.3187713623046875 -2.401613712310791
-1.5788280963897705 -4.351830959320068 -2.4016237258911133
-1.4899120330810547 -4.38308572769165 -2.4016335010528564
-2.8728857040405273 -3.3123321533203125 -2.4014787673950195
-2.804872989654541 -3.3701388835906982 -2.4014861583709717
-2.7356932163238525 -3.42655086517334 -2.401494026184082
-2.6653857231140137 -3.481539249420166 -2.4015018939971924
-2.5939695835113525 -3.5350847244262695 -2.4015097618103027
-2.447944164276123 -3.6377665996551514 -2.4015262126922607
-2.3733935356140137 -3.686856508255005 -2.4015345573425293
-2.297856330871582 -3.7344202995300293 -2.401543140411377
-2.1439549922943115 -3.8248870372772217 -2.4015603065490723
-2.065664052963257 -3.8677494525909424 -2.401569128036499
-1.9865087270736694 -3.9090147018432617 -2.401577949523926
-1.906533122062683 -3.9486565589904785 -2.4015870094299316
-1.8257567882537842 -3.986666679382324 -2.4015960693359375
-1.4954442977905273 -4.1220269203186035 -2.4016332626342773
-2.85101056098938 -3.0287106037139893 -2.4014813899993896
-2.788774251937866 -3.0861260890960693 -2.4014883041381836
-2.7253758907318115 -3.1422674655914307 -2.4014954566955566
-2.5952391624450684 -3.250619649887085 -2.401510000228882
-2.4607861042022705 -3.3535826206207275 -2.4015250205993652
-2.392021417617798 -3.4029924869537354 -2.4015328884124756
-2.3222508430480957 -3.45098876953125 -2.401540517807007
-1.8845117092132568 -3.708306074142456 -2.401589870452881
-1.7320165634155273 -3.7819697856903076 -2.401606798171997
-1.6546777486801147 -3.8164563179016113 -2.401615619659424
-1.5766503810882568 -3.8493621349334717 -2.4016244411468506
-1.4979686737060547 -3.8806731700897217 -2.4016332626342773
-1.2583301067352295 -3.964914560317993 -2.401660203933716
