ply
format ascii 1.0
element vertex 277
property float x
property float y
property float z
end_header
10.140210151672363 6.273392677307129 2.102508544921875
9.833061218261719 6.353703022003174 2.0642969608306885
9.3795166015625 6.325132369995117 1.994776725769043
9.03396987915039 6.353695392608643 1.9474512338638306
8.641103744506836 6.3346099853515625 1.8892167806625366
6.468945026397705 6.2733612060546875 1.5889225006103516
6.219750881195068 6.273359775543213 1.5576807260513306
5.749238014221191 6.273355960845947 1.5004240274429321
5.526542663574219 6.273353576660156 1.4741783142089844
10.140214920043945 6.2733917236328125 1.826675534248352
9.833061218261719 6.353701591491699 1.7934772968292236
9.3794527053833 6.32509183883667 1.7330683469772339
8.214286804199219 6.273375511169434 1.5833933353424072
7.888207912445068 6.273374557495117 1.543991208076477
6.999076843261719 6.273367404937744 1.4398832321166992
6.468945026397705 6.2733612060546875 1.380469799041748
6.219750881195068 6.2733612060546875 1.353325366973877
5.980087757110596 6.273357391357422 1.3277323246002197
5.749238014221191 6.273355960845947 1.303581714630127
5.526542663574219 6.27335262298584 1.2807798385620117
10.140210151672363 6.2733917236328125 1.5527390241622925
9.70877456665039 6.2733893394470215 1.5052509307861328
8.919770240783691 6.273380756378174 1.4200493097305298
7.577841758728027 6.273372173309326 1.2810636758804321
7.281865119934082 6.2733683586120605 1.2516136169433594
6.999076843261719 6.2733659744262695 1.2239524126052856
6.72842264175415 6.2733635902404785 1.1979386806488037
6.468940258026123 6.2733612060546875 1.1734507083892822
5.980092525482178 6.273357391357422 1.1286225318908691
5.749238014221191 6.273355007171631 1.1080933809280396
5.526542663574219 6.273353576660156 1.0887092351913452
10.140210151672363 6.2733917236328125 1.280417561531067
9.70876407623291 6.2733893394470215 1.2412492036819458
8.214286804199219 6.273375511169434 1.1098817586898804
7.577841758728027 6.273370742797852 1.056381344795227
7.281865119934082 6.2733683586120605 1.0320979356765747
6.999076843261719 6.2733659744262695 1.0092860460281372
6.219750881195068 6.273357391357422 0.9486142992973328
5.980087757110596 6.273357391357422 0.9306739568710327
5.526542663574219 6.27335262298584 0.8977625966072083
9.70876407623291 6.273387908935547 0.9785187840461731
8.919770240783691 6.273380756378174 0.9231312274932861
8.557578086853027 6.273378372192383 0.8982276916503906
7.88821268081665 6.273373126983643 0.8531849384307861
7.577846527099609 6.273372173309326 0.8327817916870117
7.281865119934082 6.2733683586120605 0.8136396408081055
6.999082088470459 6.2733659744262695 0.7956568598747253
6.72842264175415 6.273362159729004 0.7787440419197083
6.21975564956665 6.2733588218688965 0.7478269934654236
5.749238014221191 6.273355007171631 0.7203382849693298
5.526547908782959 6.27335262298584 0.7077381610870361
9.302778244018555 6.273384094238281 0.6957801580429077
8.919770240783691 6.273380756378174 0.6762186884880066
8.557573318481445 6.273378372192383 0.657974362373352
8.214286804199219 6.273374557495117 0.6409281492233276
6.999076843261719 6.273364543914795 0.5828379988670349
6.72842264175415 6.273362159729004 0.5704506039619446
5.980092525482178 6.273357391357422 0.5374427437782288
10.140204429626465 6.273390293121338 0.47017166018486023
7.2818603515625 6.2733683586120605 0.37899091839790344
6.999082088470459 6.2733659744262695 0.37061598896980286
10.140214920043945 6.273390293121338 0.20141738653182983
9.302778244018555 6.273384094238281 0.18953414261341095
8.557578086853027 6.273376941680908 0.17923445999622345
7.584936141967773 6.27924108505249 0.16633254289627075
6.8763427734375 6.411281108856201 0.1588098108768463
6.468940258026123 6.273359775543213 0.15221664309501648
6.219750881195068 6.2733588218688965 0.1492222547531128
11.220438957214355 6.941689968109131 -0.074285127222538
9.869985580444336 6.941679000854492 -0.06793594360351562
9.46920394897461 6.941675186157227 -0.0661039724946022
9.089345932006836 6.9416728019714355 -0.06439178436994553
8.385107040405273 6.941666603088379 -0.061287231743335724
8.057592391967773 6.941664218902588 -0.059877775609493256
7.744687557220459 6.941661834716797 -0.05855666846036911
6.099658012390137 6.923915386199951 -0.05195312201976776
10.743032455444336 6.941686153411865 -0.36015716195106506
9.869985580444336 6.941679000854492 -0.3397691249847412
9.089345932006836 6.9416728019714355 -0.3220391869544983
8.385111808776855 6.941666603088379 -0.3065165579319
7.744682312011719 6.941660404205322 -0.2928507924079895
6.099618911743164 6.398744583129883 -0.2489224225282669
6.099609375 6.923860549926758 -0.2598242163658142
10.293793678283691 6.941682815551758 -0.6296513080596924
9.469208717346191 6.941675186157227 -0.5954394340515137
7.445195198059082 6.941659450531006 -0.5162343978881836
6.219750881195068 6.2733588218688965 -0.44801071286201477
6.099570274353027 6.398697853088379 -0.44832196831703186
6.099565505981445 6.655618190765381 -0.4578411877155304
6.099560260772705 6.92380428314209 -0.4679586589336395
11.220434188842773 6.941688537597656 -0.96742182970047
10.743032455444336 6.941685199737549 -0.937833845615387
9.46920394897461 6.9416728019714355 -0.8608797788619995
8.728529930114746 6.94166898727417 -0.817711591720581
6.468945026397705 6.2733588218688965 -0.6607247591018677
6.099526405334473 6.398649215698242 -0.6481738090515137
10.743032455444336 6.941683769226074 -1.2279607057571411
10.293798446655273 6.941681385040283 -1.191965937614441
7.445195198059082 6.941659450531006 -0.9772611856460571
6.219750881195068 6.273355960845947 -0.8481132388114929
6.099472522735596 6.655516624450684 -0.8667051792144775
11.220438957214355 6.94168758392334 -1.567278504371643
10.743032455444336 6.941685199737549 -1.5193450450897217
9.089345932006836 6.941671371459961 -1.3585457801818848
8.728529930114746 6.94166898727417 -1.3247393369674683
8.057592391967773 6.9416632652282715 -1.2633355855941772
7.744682312011719 6.941660404205322 -1.2354133129119873
7.445195198059082 6.941657066345215 -1.2091552019119263
6.468940258026123 6.2733588218688965 -1.0704091787338257
6.099413871765137 6.923638343811035 -1.096052646636963
10.743026733398438 6.941682815551758 -1.8122923374176025
10.293798446655273 6.941681385040283 -1.7591701745986938
9.46920394897461 6.94167423248291 -1.6635839939117432
9.089345932006836 6.941671371459961 -1.6204891204833984
8.728529930114746 6.9416680335998535 -1.580162763595581
8.385102272033691 6.9416656494140625 -1.5423742532730103
7.744682312011719 6.941659450531006 -1.4736149311065674
7.445199966430664 6.941659450531006 -1.4422948360443115
6.468940258026123 6.273359775543213 -1.2767971754074097
10.743032455444336 6.941685199737549 -2.107114553451538
10.293798446655273 6.941681385040283 -2.04534912109375
9.869990348815918 6.941676616668701 -1.9878466129302979
9.46920394897461 6.9416728019714355 -1.9342155456542969
8.728529930114746 6.9416680335998535 -1.8372222185134888
8.385102272033691 6.9416656494140625 -1.7932891845703125
8.057597160339355 6.941661834716797 -1.752065658569336
6.468945026397705 6.2733588218688965 -1.4845041036605835
6.099316120147705 6.923527240753174 -1.520043134689331
9.932426452636719 6.69789457321167 -2.251704454421997
9.798701286315918 6.891544818878174 -2.2516732215881348
9.46920394897461 6.9416728019714355 -2.2068612575531006
8.728525161743164 6.9416680335998535 -2.0961971282958984
8.385102272033691 6.941664218902588 -2.046070098876953
8.057587623596191 6.941661834716797 -1.9990352392196655
6.468940258026123 6.2733588218688965 -1.6937594413757324
6.219750881195068 6.273355960845947 -1.6604554653167725
6.099287033081055 6.39840030670166 -1.6615221500396729
6.099267482757568 6.923470973968506 -1.7342956066131592
8.835200309753418 5.957197666168213 -2.2522082328796387
8.71230411529541 6.1273369789123535 -2.2514190673828125
8.590097427368164 6.2971391677856445 -2.25138783454895
8.2039794921875 6.791711807250977 -2.2512974739074707
8.057592391967773 6.941660404205322 -2.248108148574829
6.468935489654541 6.273357391357422 -1.9047931432724
6.0992431640625 6.398350238800049 -1.8685272932052612
6.099233150482178 6.655252933502197 -1.9081990718841553
8.161308288574219 5.0491204261779785 -2.255495309829712
8.061528205871582 5.209013938903809 -2.2557573318481445
7.627119064331055 5.824990749359131 -2.255540370941162
7.497885704040527 5.9620208740234375 -2.25113844871521
6.468940258026123 6.273357391357422 -2.1178510189056396
6.219746112823486 6.273355960845947 -2.076206684112549
7.404833793640137 4.581113338470459 -2.2544925212860107
7.314223289489746 4.72613525390625 -2.254729986190796
6.819096565246582 5.4231181144714355 -2.2558586597442627
6.711904048919678 5.556504249572754 -2.2560718059539795
6.599506855010986 5.685516834259033 -2.2553908824920654
6.240624904632568 6.051992893218994 -2.2508370876312256
6.120522499084473 6.173287868499756 -2.2508063316345215
5.873266696929932 6.408689498901367 -2.2507474422454834
5.746196269989014 6.522700786590576 -2.2507176399230957
6.687050819396973 4.320889949798584 -2.2538681030273438
6.601542949676514 4.45178747177124 -2.2540817260742188
6.51345682144165 4.580993175506592 -2.2542917728424072
6.329701900482178 4.834092140197754 -2.2547006607055664
6.035649299621582 5.199751377105713 -2.2552850246429443
5.932866096496582 5.31771183013916 -2.255471706390381
5.720400333404541 5.547456741333008 -2.2558326721191406
5.610790729522705 5.659156799316406 -2.256006956100464
5.371396541595459 5.861124515533447 -2.250638961791992
5.255219459533691 5.965392112731934 -2.2506072521209717
6.15270471572876 3.975618839263916 -2.253133535385132
6.073988914489746 4.096028804779053 -2.2533302307128906
5.992895603179932 4.214875221252441 -2.253523349761963
5.823740005493164 4.44767951965332 -2.253899574279785
5.73574686050415 4.561553955078125 -2.254082202911377
5.645517349243164 4.673677921295166 -2.2542614936828613
5.553076267242432 4.7840142250061035 -2.25443696975708
5.458481311798096 4.892511367797852 -2.254608631134033
5.262929439544678 5.103819847106934 -2.2549405097961426
5.059174537658691 5.307286739349365 -2.2552566528320312
5.762216567993164 3.5648815631866455 -2.252315044403076
5.543662071228027 3.8989219665527344 -2.2528603076934814
5.222187519073486 4.3232269287109375 -2.25354266166687
5.136655330657959 4.425260543823242 -2.2537050247192383
5.049125671386719 4.525596618652344 -2.25386381149292
4.774853229522705 4.816012382507324 -2.2543187141418457
4.679663181304932 4.909160614013672 -2.2544631958007812
4.582651138305664 5.000418186187744 -2.254603624343872
4.483837604522705 5.089754104614258 -2.2547404766082764
5.354848384857178 3.3128600120544434 -2.251775026321411
5.079882621765137 3.7239561080932617 -2.2524445056915283
4.930439472198486 3.921100378036499 -2.2527618408203125
4.852817058563232 4.017439365386963 -2.252915620803833
4.773305416107178 4.112235069274902 -2.253066301345825
4.34853982925415 4.56179666519165 -2.253770589828491
4.806279182434082 3.380312919616699 -2.2517716884613037
4.670463562011719 3.566906690597534 -2.252073049545288
4.220326900482178 4.0927324295043945 -2.2529072761535645
4.056830883026123 4.255773067474365 -2.2531607151031494
3.9726855754852295 4.334847927093506 -2.253282308578491
3.8870017528533936 4.412257194519043 -2.2534008026123047
4.619560241699219 2.9849650859832764 -2.2510263919830322
4.560351371765137 3.0753014087677 -2.251173734664917
4.499370098114014 3.1644647121429443 -2.2513186931610107
4.436650276184082 3.252413272857666 -2.2514610290527344
4.372197151184082 3.339114189147949 -2.251600742340088
4.238227367401123 3.508640766143799 -2.2518723011016846
4.09765625 3.672783136367798 -2.2521326541900635
4.024970531463623 3.7527501583099365 -2.252258539199829
3.9507176876068115 3.831270694732666 -2.2523815631866455
3.874931573867798 3.9083220958709717 -2.2525017261505127
3.7976317405700684 3.983867645263672 -2.2526185512542725
3.7188525199890137 4.057873249053955 -2.252732515335083
4.391410827636719 2.7168071269989014 -2.250498056411743
4.337475299835205 2.802692174911499 -2.250638723373413
4.281865119934082 2.887502431869507 -2.250777006149292
4.224599361419678 2.971209764480591 -2.250913143157959
4.165683269500732 3.053776264190674 -2.251046657562256
4.105155944824219 3.135167121887207 -2.251178026199341
4.043032169342041 3.215360641479492 -2.2513065338134766
3.9140868186950684 3.372009754180908 -2.251556396484375
3.8473289012908936 3.448406219482422 -2.2516772747039795
3.779062509536743 3.5234758853912354 -2.251795530319214
3.7093358039855957 3.59718918800354 -2.251910924911499
4.134292125701904 2.5577471256256104 -2.250331163406372
4.030839920043945 2.718219518661499 -2.2504193782806396
3.864443302154541 2.9513347148895264 -2.2507967948913574
3.8059470653533936 3.026812791824341 -2.250917673110962
3.6845457553863525 3.1742565631866455 -2.251152992248535
3.6216845512390137 3.2461633682250977 -2.2512664794921875
3.5574169158935547 3.316819429397583 -2.251377820968628
3.491767406463623 3.386198043823242 -2.2514865398406982
3.424760580062866 3.454277992248535 -2.2515926361083984
3.3564257621765137 3.521024703979492 -2.2516958713531494
3.2867870330810547 3.5864152908325195 -2.2517967224121094
3.8631346225738525 2.4961907863616943 -2.2561285495758057
3.7637059688568115 2.6471312046051025 -2.2571308612823486
3.6999266147613525 2.712338924407959 -2.2503345012664795
3.6461377143859863 2.7846148014068604 -2.25045108795166
3.3564062118530273 3.129408597946167 -2.2509992122650146
3.2944579124450684 3.194857120513916 -2.2511017322540283
3.03411602973938 3.4441192150115967 -2.2514865398406982
3.821181535720825 2.4690916538238525 -2.36018705368042
3.5519285202026367 2.498114585876465 -2.2527687549591064
3.3948681354522705 2.6998889446258545 -2.250243902206421
3.2865381240844727 2.8313751220703125 -2.250453233718872
3.2304491996765137 2.8954973220825195 -2.2505548000335693
3.173110246658325 2.9585070610046387 -2.2506539821624756
3.1145360469818115 3.0203747749328613 -2.250750780105591
2.993788957595825 3.140603542327881 -2.2509377002716064
3.730532169342041 2.3079516887664795 -2.402637004852295
3.5111327171325684 2.4694132804870605 -2.3510446548461914
3.2690820693969727 2.496647834777832 -2.2529311180114746
3.215395450592041 2.557163715362549 -2.250117540359497
3.164555549621582 2.619797945022583 -2.250105619430542
3.112553596496582 2.6814868450164795 -2.250147581100464
3.0594334602355957 2.74220871925354 -2.250243663787842
3.005117177963257 2.801874876022339 -2.2503373622894287
2.949638605117798 2.860461473464966 -2.250429391860962
2.893012523651123 2.9179491996765137 -2.250518798828125
2.835268497467041 2.974310874938965 -2.2506062984466553
2.776416063308716 3.029526948928833 -2.2506911754608154
3.5389111042022705 2.189398765563965 -2.402592182159424
3.4952197074890137 2.258460760116577 -2.4025821685791016
3.4501757621765137 2.326648473739624 -2.4025719165802
3.40380859375 2.393941640853882 -2.4025611877441406
3.3548338413238525 2.4593565464019775 -2.401620388031006
3.2324657440185547 2.468691349029541 -2.348287343978882
3.1152148246765137 2.477485179901123 -2.298006534576416
3.0102977752685547 2.4920995235443115 -2.256286382675171
2.9020750522613525 2.6011669635772705 -2.250044584274292
2.8504393100738525 2.6576569080352783 -2.2500462532043457
2.797807455062866 2.7132201194763184 -2.2501332759857178
2.6893115043640137 2.821199893951416 -2.250300884246826
2.633496046066284 2.873565673828125 -2.2503814697265625
2.5766406059265137 2.924827814102173 -2.250459909439087
