ply
format ascii 1.0
element vertex 297
property float x
property float y
property float z
end_header
10.227201461791992 4.153148651123047 1.185312271118164
44.23162841796875 17.96192169189453 2.9603521823883057
43.82331848144531 17.796110153198242 1.865041971206665
46.66561508178711 5.614358425140381 0.7939512729644775
46.64293670654297 10.530536651611328 0.8077164888381958
46.6423225402832 11.538253784179688 0.8116212487220764
46.64140701293945 13.58548355102539 0.8206037878990173
46.64088821411133 14.62704086303711 0.8256871104240417
46.64033126831055 15.681999206542969 0.831186056137085
46.64071273803711 17.83751106262207 0.843501091003418
46.69789123535156 5.6182427406311035 -0.2648126184940338
46.69786834716797 6.5901384353637695 -0.2655220031738281
46.69782257080078 9.54316234588623 -0.2683468461036682
46.697792053222656 11.55197525024414 -0.27083709836006165
46.69777297973633 12.571290969848633 -0.2722785770893097
46.69773483276367 14.64486026763916 -0.2755436599254608
46.69768524169922 17.85930061340332 -0.28148284554481506
46.6977424621582 5.618225574493408 -1.3243954181671143
46.697723388671875 6.590117454528809 -1.3279366493225098
46.69770431518555 7.567656517028809 -1.3320649862289429
46.69767379760742 9.543128967285156 -1.342084527015686
46.697654724121094 10.542887687683105 -1.3480035066604614
46.697635650634766 11.5519380569458 -1.3545420169830322
46.697566986083984 15.701239585876465 -1.3872404098510742
47.061424255371094 -3.0361759662628174 -2.39164137840271
47.1123046875 -2.0725560188293457 -2.3915743827819824
47.14485168457031 -1.108170747756958 -2.3915798664093018
47.15787124633789 -0.1433093249797821 -2.391582727432251
44.41253662109375 2.5943095684051514 -2.2561872005462646
44.415653228759766 3.507669687271118 -2.2595160007476807
43.903690338134766 7.114862442016602 -2.2555882930755615
43.74837875366211 8.011588096618652 -2.2555601596832275
43.57473373413086 8.90491771697998 -2.2555289268493652
43.38273239135742 9.794472694396973 -2.2554943561553955
43.17255783081055 10.679902076721191 -2.2554564476013184
42.94417953491211 11.560800552368164 -2.2554149627685547
23.34184455871582 7.848320960998535 -1.2488815784454346
23.034326553344727 8.273249626159668 -1.2412277460098267
23.001922607421875 8.79698371887207 -1.2489248514175415
32.74473571777344 -2.1125361919403076 -2.405910015106201
32.80373001098633 -0.7710720896720886 -2.4059014320373535
32.78962707519531 1.2428491115570068 -2.4059300422668457
32.65736389160156 3.2526652812957764 -2.4063560962677
32.58382797241211 3.920168876647949 -2.406346559524536
32.49668884277344 4.58602237701416 -2.4063351154327393
32.395877838134766 5.2499518394470215 -2.4063217639923096
32.153526306152344 6.57086706161499 -2.406289577484131
32.01205062866211 7.227328300476074 -2.4062705039978027
22.787841796875 7.1465044021606445 -1.7510889768600464
22.795156478881836 8.187342643737793 -1.7759251594543457
22.993066787719727 8.793599128723145 -1.8049880266189575
25.028261184692383 -1.101037621498108 -2.405160427093506
25.010683059692383 1.4609752893447876 -2.405240058898926
24.93022346496582 2.4830424785614014 -2.4052650928497314
24.874258041381836 2.9926366806030273 -2.4052703380584717
23.16153335571289 3.7535057067871094 -2.2526321411132812
22.98834991455078 4.697892189025879 -2.2526090145111084
22.776649475097656 5.63442325592041 -2.252580404281616
22.240243911743164 7.4778923988342285 -2.252636432647705
22.082538604736328 7.931365013122559 -2.2526309490203857
21.91557502746582 8.381503105163574 -2.252624273300171
20.201250076293945 -1.3032866716384888 -2.404613971710205
20.22372055053711 -0.8896877765655518 -2.4046175479888916
20.240253448486328 0.3526892066001892 -2.404621124267578
20.228797912597656 0.7667468190193176 -2.4046199321746826
20.208837509155273 1.1804797649383545 -2.4046177864074707
20.180400848388672 1.593721866607666 -2.404614210128784
20.1435546875 2.006293296813965 -2.404609441757202
18.717498779296875 3.0332841873168945 -2.2523844242095947
18.588848114013672 3.798809766769409 -2.2537293434143066
18.428739547729492 4.558849334716797 -2.2550604343414307
18.33696174621582 4.936408996582031 -2.2557201385498047
18.237411499023438 5.312099933624268 -2.256375312805176
17.973270416259766 6.043192386627197 -2.25242280960083
17.846435546875 6.409879684448242 -2.252495050430298
16.951444625854492 -0.7457247972488403 -2.404161214828491
16.96529197692871 0.2956201136112213 -2.4041643142700195
16.955595016479492 0.6426855325698853 -2.404163360595703
16.93896484375 0.9894738793373108 -2.4041614532470703
16.88427734375 1.681667447090149 -2.4041545391082764
16.84627914428711 2.026780366897583 -2.4041495323181152
16.801250457763672 2.3710381984710693 -2.4041435718536377
16.24776268005371 2.6330511569976807 -2.332170248031616
15.438105583190918 3.8190367221832275 -2.2533504962921143
15.360507011413574 4.135128498077393 -2.2539026737213135
15.276395797729492 4.449631214141846 -2.254451036453247
15.185819625854492 4.7624125480651855 -2.254995584487915
14.985429763793945 5.382295608520508 -2.2560720443725586
14.875624656677246 5.689113140106201 -2.256603240966797
14.728193283081055 5.980951309204102 -2.252331256866455
14.587718963623047 -0.34289366006851196 -2.403831958770752
14.591679573059082 -0.04434265196323395 -2.4038329124450684
14.589540481567383 0.25422239303588867 -2.4038329124450684
14.566899299621582 0.8509118556976318 -2.4038302898406982
14.519853591918945 1.4461736679077148 -2.4038245677948
13.388930320739746 2.736157178878784 -2.251268148422241
13.27074146270752 3.2828783988952637 -2.2521111965179443
12.96871566772461 4.360501766204834 -2.25398850440979
12.879423141479492 4.625890254974365 -2.254448890686035
12.684443473815918 5.1510210037231445 -2.255357503890991
12.761122703552246 -0.8232858180999756 -2.4035768508911133
12.784135818481445 -0.3004992604255676 -2.403580665588379
12.778491020202637 0.4843530058860779 -2.403580665588379
12.724672317504883 1.2673742771148682 -2.403573751449585
12.622876167297363 2.04561448097229 -2.4035606384277344
12.57835865020752 2.3034589290618896 -2.403554677963257
12.52855396270752 2.560331344604492 -2.403548002243042
11.689082145690918 2.6390318870544434 -2.252387285232544
11.626347541809082 2.876094341278076 -2.251171112060547
11.567201614379883 3.113950729370117 -2.251586437225342
11.503173828125 3.3505852222442627 -2.2519989013671875
11.360570907592773 3.819791793823242 -2.252815008163452
11.11075210571289 4.511948585510254 -2.2540135383605957
11.346362113952637 -0.7320126295089722 -2.4033796787261963
11.366826057434082 -0.26718443632125854 -2.4033830165863037
11.369921684265137 -0.03455261141061783 -2.403383493423462
11.368247032165527 0.19809143245220184 -2.403383493423462
11.334657669067383 0.8951409459114075 -2.4033796787261963
10.281572341918945 2.7680277824401855 -2.2508347034454346
10.027802467346191 3.601674795150757 -2.252251386642456
9.95357894897461 3.8066954612731934 -2.2526063919067383
10.20425796508789 -0.6583288311958313 -2.4032204151153564
10.222646713256836 -0.24029052257537842 -2.4032232761383057
10.225395202636719 -0.031072387471795082 -2.403223991394043
10.223925590515137 0.1781512349843979 -2.403223991394043
10.2181396484375 0.38730528950691223 -2.4032232761383057
10.1937255859375 0.8050372004508972 -2.4032204151153564
10.175116539001465 1.0134387016296387 -2.4032180309295654
10.152235984802246 1.2214183807373047 -2.403215169906616
10.05812931060791 1.8419328927993774 -2.403202533721924
10.018305778503418 2.0473387241363525 -2.4031972885131836
9.92611312866211 2.455493688583374 -2.4031848907470703
9.659863471984863 2.600484609603882 -2.351116180419922
9.078959465026855 3.052640914916992 -2.2511496543884277
9.279887199401855 0.16170164942741394 -2.403092384338379
9.252470970153809 0.7307025194168091 -2.4030890464782715
9.235575675964355 0.9198614358901978 -2.4030869007110596
9.214818954467773 1.108636498451233 -2.4030842781066895
9.190180778503418 1.2969439029693604 -2.403080940246582
9.129379272460938 1.671854853630066 -2.4030728340148926
9.093252182006836 1.858295202255249 -2.4030680656433105
9.05331039428711 2.043957471847534 -2.403062582015991
8.962065696716309 2.4126360416412354 -2.403050422668457
8.3360595703125 2.614255905151367 -2.261993169784546
8.120707511901855 3.1057238578796387 -2.2511179447174072
8.4801025390625 -0.373056024312973 -2.402980089187622
8.488276481628418 -0.025795288383960724 -2.402981758117676
8.48702621459961 0.1478857398033142 -2.402981758117676
8.482216835021973 0.3215075731277466 -2.4029812812805176
8.473867416381836 0.49499204754829407 -2.402980089187622
8.461957931518555 0.6682726740837097 -2.4029786586761475
8.446508407592773 0.8412694931030273 -2.4029767513275146
8.404990196228027 1.186135172843933 -2.4029712677001953
8.31644058227539 1.6995269060134888 -2.4029595851898193
8.27981948852539 1.8693267107009888 -2.402954578399658
8.239819526672363 2.0383434295654297 -2.402949094772339
8.149481773376465 2.3737401962280273 -2.4029369354248047
7.73192834854126 2.5997302532196045 -2.309274911880493
7.481557369232178 2.6871416568756104 -2.250444173812866
7.425365924835205 2.8397936820983887 -2.2505531311035156
7.366562366485596 2.99147629737854 -2.2508153915405273
7.796054363250732 -0.5029635429382324 -2.4028847217559814
7.810117244720459 -0.18358214199543 -2.4028868675231934
7.812231063842773 -0.023740844801068306 -2.4028873443603516
7.811088562011719 0.13610778748989105 -2.4028873443603516
7.806660175323486 0.29590147733688354 -2.4028868675231934
7.773793697357178 0.7742675542831421 -2.4028830528259277
7.756318092346191 0.9331652522087097 -2.4028806686401367
7.654027938842773 1.564172387123108 -2.402867078781128
7.620400428771973 1.720448613166809 -2.402862548828125
7.583579063415527 1.8760045766830444 -2.402857542037964
7.500458717346191 2.184692859649658 -2.402846336364746
7.454154968261719 2.337695360183716 -2.4028398990631104
7.207846641540527 2.5888328552246094 -2.355637788772583
6.841567039489746 2.6165239810943604 -2.2529633045196533
6.77834939956665 2.752758741378784 -2.2503461837768555
7.21353006362915 -0.46538206934928894 -2.402803421020508
7.228500843048096 -0.021967163309454918 -2.402806043624878
7.227441310882568 0.12593810260295868 -2.402806043624878
7.223344802856445 0.2737921178340912 -2.4028055667877197
7.216225624084473 0.42152953147888184 -2.4028046131134033
7.1767578125 0.8634387254714966 -2.402799606323242
7.1575927734375 1.0100988149642944 -2.402797222137451
7.135415077209473 1.1563372611999512 -2.402794361114502
6.897192001342773 2.1630237102508545 -2.4027621746063232
6.85146951675415 2.3036859035491943 -2.4027557373046875
6.742524147033691 2.5786449909210205 -2.399568796157837
6.394257545471191 2.596647262573242 -2.2940673828125
6.704975605010986 -0.4325726330280304 -2.4027323722839355
6.71243143081665 -0.2952917516231537 -2.40273380279541
6.670800685882568 0.80256587266922 -2.402729034423828
6.65298318862915 0.9388867020606995 -2.402726650238037
6.632368087768555 1.0748156309127808 -2.402724027633667
6.553911209106445 1.4796684980392456 -2.4027132987976074
6.410937309265137 2.010530948638916 -2.4026939868927
6.323261737823486 2.271127939224243 -2.402682065963745
6.2567138671875 -0.40365293622016907 -2.40267014503479
6.263661861419678 -0.27554991841316223 -2.4026710987091064
6.250263690948486 0.4936065673828125 -2.40267014503479
6.238842487335205 0.6213885545730591 -2.4026684761047363
6.18895959854126 1.0029582977294922 -2.4026620388031006
6.167148113250732 1.129380464553833 -2.4026591777801514
6.086201190948486 1.5055882930755615 -2.4026482105255127
6.019492149353027 1.7533270120620728 -2.402639150619507
5.982338905334473 1.876118779182434 -2.4026341438293457
5.900502681732178 2.1192924976348877 -2.402623176574707
5.864458084106445 -0.25798460841178894 -2.402615547180176
5.87039041519165 -0.017839355394244194 -2.402616500854492
5.860424518585205 0.3423309326171875 -2.402615547180176
5.852197170257568 0.46216917037963867 -2.4026145935058594
5.812807559967041 0.8203185796737671 -2.402609348297119
5.794833660125732 0.9390820264816284 -2.402606964111328
5.774360179901123 1.0574517250061035 -2.402604341506958
5.751518249511719 1.1753771305084229 -2.4026012420654297
5.726249694824219 1.2928093671798706 -2.4025979042053223
5.668637752532959 1.5260027647018433 -2.402590036392212
5.63613748550415 1.641661286354065 -2.402585744857788
5.60131311416626 1.7566344738006592 -2.402580976486206
5.564223289489746 1.870869755744934 -2.402575969696045
5.524760723114014 1.984322428703308 -2.4025704860687256
5.482836723327637 2.0969414710998535 -2.402564764022827
5.507460594177246 -0.2422827035188675 -2.4025657176971436
5.511269569396973 -0.1295458972454071 -2.402566432952881
5.512758731842041 -0.016752928495407104 -2.40256667137146
5.511952877044678 0.09604492038488388 -2.40256667137146
5.508832931518555 0.2088049203157425 -2.402566432952881
5.495673656463623 0.4340142607688904 -2.402564764022827
5.473305702209473 0.6584954857826233 -2.402561902999878
5.422587871551514 0.9930322170257568 -2.402555227279663
5.377407073974609 1.2140508890151978 -2.4025490283966064
5.323222637176514 1.433038353919983 -2.4025416374206543
5.225239276885986 1.7568963766098022 -2.4025285243988037
5.188188552856445 1.8634380102157593 -2.4025235176086426
5.107587814331055 2.0741331577301025 -2.402512550354004
5.179555416107178 -0.3341595530509949 -2.402519702911377
5.185302734375 -0.22811095416545868 -2.4025206565856934
5.188886642456055 -0.12196838110685349 -2.4025213718414307
5.190297603607178 -0.015773314982652664 -2.402521848678589
5.189531326293945 0.09042724221944809 -2.402521848678589
5.123461723327637 0.8302874565124512 -2.402513265609741
5.085200309753418 1.0392082929611206 -2.40250825881958
5.0628662109375 1.1430370807647705 -2.4025051593780518
5.038408279418945 1.2463866472244263 -2.4025018215179443
5.011845588684082 1.3492144346237183 -2.402498245239258
4.983173847198486 1.4514751434326172 -2.402494192123413
4.952455997467041 1.5531286001205444 -2.4024901390075684
4.919599533081055 1.6541296243667603 -2.4024858474731445
4.884716510772705 1.7544397115707397 -2.4024810791015625
4.808823108673096 1.9528100490570068 -2.402470588684082
4.887626647949219 -0.31532591581344604 -2.4024791717529297
4.894272327423096 0.18551146984100342 -2.4024806022644043
4.882587909698486 0.3855957090854645 -2.4024791717529297
4.873671531677246 0.4854162633419037 -2.4024782180786133
4.849726676940918 0.6844066977500916 -2.402474880218506
4.777519226074219 1.0786144733428955 -2.402465343475342
4.729374885559082 1.2731726169586182 -2.402458667755127
4.702319145202637 1.3696686029434204 -2.4024550914764404
4.673300743103027 1.4655944108963013 -2.4024510383605957
4.642323970794678 1.5609021186828613 -2.402446985244751
4.609414100646973 1.6555602550506592 -2.402442455291748
4.574574947357178 1.7495207786560059 -2.402437686920166
4.621337890625 -0.2981463670730591 -2.402442216873169
4.626484394073486 -0.2035266011953354 -2.4024429321289062
4.630932331085205 -0.014072875492274761 -2.4024436473846436
4.6302490234375 0.08068237453699112 -2.4024436473846436
4.627631664276123 0.17540526390075684 -2.4024434089660645
4.623071193695068 0.27005308866500854 -2.4024429321289062
4.616572380065918 0.3645886182785034 -2.402442216873169
4.608154296875 0.45897093415260315 -2.4024410247802734
4.571303844451904 0.7408074736595154 -2.4024362564086914
4.537158012390137 0.9272131323814392 -2.4024314880371094
4.495414733886719 1.1120635271072388 -2.40242600440979
4.471713542938232 1.203809142112732 -2.4024226665496826
4.446142673492432 1.2950488328933716 -2.402419328689575
4.385121822357178 -0.10307494550943375 -2.402409315109253
4.386313438415527 -0.01332885678857565 -2.402409553527832
4.385668754577637 0.07642089575529099 -2.402409553527832
4.383183479309082 0.1661389172077179 -2.402409315109253
4.37270975112915 0.3453289866447449 -2.4024081230163574
4.354921817779541 0.523942232131958 -2.4024057388305664
4.343286037445068 0.6129363775253296 -2.402404308319092
4.329829216003418 0.7016760110855103 -2.402402400970459
4.314565181732178 0.7901214361190796 -2.402400493621826
4.278798580169678 0.965977132320404 -2.402395486831665
4.257958889007568 1.0533208847045898 -2.402392864227295
4.235507488250732 1.1402196884155273 -2.4023897647857666
4.096869945526123 1.566827416419983 -2.4023709297180176
4.063950061798096 1.6503227949142456 -2.4023663997650146
4.152402400970459 -0.2678930461406708 -2.402376651763916
4.161020278930664 -0.012644653208553791 -2.4023780822753906
4.158056735992432 0.15760619938373566 -2.4023778438568115
4.120204925537109 0.5814544558525085 -2.4023730754852295
4.092963695526123 0.7495391964912415 -2.402369499206543
4.076767444610596 0.8331267833709717 -2.402367353439331
3.9440183639526367 1.326107144355774 -2.4023492336273193
3.9160594940185547 1.4065264463424683 -2.4023454189300537
3.8864452838897705 1.4863537549972534 -2.402341365814209
