ply
format ascii 1.0
element vertex 202
property float x
property float y
property float z
end_header
-15.656879425048828 -16.55144691467285 4.017347812652588
-20.896947860717773 -16.617902755737305 4.090145587921143
-39.18562698364258 -24.061553955078125 -1.2947965860366821
-38.110076904296875 -22.354291915893555 -2.2406818866729736
-37.18575668334961 -23.880584716796875 -2.241236448287964
-36.20167922973633 -25.36958885192871 -2.2418746948242188
-35.69363021850586 -26.103811264038086 -2.2425994873046875
-35.1714973449707 -26.828372955322266 -2.243375301361084
-34.634849548339844 -27.54273796081543 -2.2441658973693848
-34.08354568481445 -28.24620246887207 -2.244945526123047
-33.51810836791992 -28.93878173828125 -2.2457406520843506
-32.34531021118164 -30.289770126342773 -2.247321844100952
-31.73813819885254 -30.947303771972656 -2.2480993270874023
-30.424516677856445 -32.16284942626953 -2.2452681064605713
-29.475332260131836 -33.79381561279297 -2.2741341590881348
-27.5014591217041 -17.66148567199707 -2.3964908123016357
-27.14020538330078 -18.213653564453125 -2.396559000015259
-26.384403228759766 -19.295682907104492 -2.396702289581299
-25.17034912109375 -20.8594970703125 -2.39693284034729
-24.744842529296875 -21.364145278930664 -2.3970134258270264
-23.408676147460938 -22.82536506652832 -2.3972673416137695
-22.469755172729492 -23.753578186035156 -2.3974456787109375
-21.49414825439453 -24.64327049255371 -2.3976311683654785
-21.541706085205078 -12.635756492614746 -2.397639036178589
-21.282611846923828 -13.068376541137695 -2.397688150405884
-21.014875411987305 -13.495685577392578 -2.3977386951446533
-20.738567352294922 -13.917543411254883 -2.3977909088134766
-19.859283447265625 -15.148473739624023 -2.3979547023773193
-18.907297134399414 -16.32415771484375 -2.398134469985962
-18.57431411743164 -16.7030086517334 -2.398197650909424
-16.798765182495117 -18.492582321166992 -2.3985350131988525
-16.422454833984375 -18.82853889465332 -2.398606538772583
-17.20659637451172 -10.565534591674805 -2.398468017578125
-16.99005889892578 -10.910964012145996 -2.3985090255737305
-16.766584396362305 -11.251967430114746 -2.3985512256622314
-16.53631019592285 -11.588401794433594 -2.398594856262207
-15.805365562438965 -12.568910598754883 -2.398733139038086
-15.285677909851074 -13.19729995727539 -2.398831605911255
-14.74105167388916 -13.804243087768555 -2.398934841156006
-14.45968246459961 -14.09936237335205 -2.3989882469177246
-13.879303932189941 -14.6723051071167 -2.399097442626953
-13.580544471740723 -14.949881553649902 -2.3991539478302
-13.276267051696777 -15.221388816833496 -2.3992116451263428
-14.428427696228027 -8.859624862670898 -2.3989999294281006
-14.24682331085205 -9.149270057678223 -2.399034261703491
-13.866256713867188 -9.717267036437988 -2.399106025695801
-13.463085174560547 -10.269466400146484 -2.3991823196411133
-13.037948608398438 -10.8049898147583 -2.3992629051208496
-12.36059284210205 -11.57507038116455 -2.399392604827881
-12.124618530273438 -11.822494506835938 -2.3994383811950684
-12.562833786010742 -7.3690032958984375 -2.399357318878174
-12.411649703979492 -7.621376991271973 -2.3993866443634033
-12.094155311584473 -8.116318702697754 -2.3994479179382324
-11.927990913391113 -8.358959197998047 -2.3994803428649902
-11.75694751739502 -8.59819221496582 -2.3995132446289062
-11.581128120422363 -8.833937644958496 -2.399547576904297
-11.40056324005127 -9.066075325012207 -2.3995823860168457
-11.215371131896973 -9.294554710388184 -2.39961838722229
-11.025595664978027 -9.519248008728027 -2.399655342102051
-10.83133316040039 -9.74007511138916 -2.399693489074707
-10.632646560668945 -9.956952095031738 -2.399732828140259
-10.222333908081055 -10.37841796875 -2.399813413619995
-10.01088809967041 -10.582867622375488 -2.3998546600341797
-9.795355796813965 -10.783016204833984 -2.3998961448669434
-9.575819969177246 -10.978778839111328 -2.3999383449554443
-10.742633819580078 -6.898884296417236 -2.3997130393981934
-10.601271629333496 -7.114515781402588 -2.39974045753479
-10.45560073852539 -7.327134609222412 -2.399768829345703
-10.305654525756836 -7.536819934844971 -2.3997983932495117
-9.993242263793945 -7.946938991546631 -2.39985990524292
-9.830888748168945 -8.147186279296875 -2.3998916149139404
-9.494208335876465 -8.53767204284668 -2.399956464767456
-9.142050743103027 -8.9142427444458 -2.4000236988067627
-8.960322380065918 -9.097146034240723 -2.4000580310821533
-9.675199508666992 -5.940935134887695 -2.39992356300354
-9.55336856842041 -6.1351470947265625 -2.39994740486145
-9.298086166381836 -6.5159149169921875 -2.399996280670166
-8.886870384216309 -7.067113876342773 -2.4000742435455322
-8.443046569824219 -7.592403888702393 -2.400158643722534
-8.288129806518555 -7.761418342590332 -2.4001879692077637
-7.968236923217773 -8.0899019241333 -2.4002487659454346
-7.803378582000732 -8.249238014221191 -2.400279998779297
-7.635341644287109 -8.405207633972168 -2.4003119468688965
-8.592968940734863 -5.518381118774414 -2.400132179260254
-8.363329887390137 -5.860895156860352 -2.4001758098602295
-8.243369102478027 -6.028616905212402 -2.400198459625244
-7.993422508239746 -6.356619358062744 -2.4002456665039062
-7.863544940948486 -6.516780853271484 -2.400270462036133
-7.730449199676514 -6.6742844581604 -2.4002957344055176
-7.594193935394287 -6.829080581665039 -2.4003214836120605
-7.167099475860596 -7.276535511016846 -2.400402784347534
-7.996201038360596 -4.690346717834473 -2.400247097015381
-7.256162166595459 -5.770325660705566 -2.4003872871398926
-6.893735408782959 -6.199194431304932 -2.400456190109253
-6.767236232757568 -6.337174415588379 -2.400480031967163
-6.637983322143555 -6.472571849822998 -2.4005045890808105
-6.371396541595459 -6.735429763793945 -2.400555372238159
-6.094413757324219 -6.987314224243164 -2.4006080627441406
-7.31374979019165 -4.29004430770874 -2.4003779888153076
-7.225693225860596 -4.436866283416748 -2.4003944396972656
-7.134696960449219 -4.581877708435059 -2.40041184425354
-6.84438943862915 -5.005498886108398 -2.4004669189453125
-6.636850357055664 -5.277824401855469 -2.4005062580108643
-6.528969764709473 -5.4107866287231445 -2.400526762008667
-6.418388366699219 -5.541557312011719 -2.400547742843628
-6.30532693862915 -5.670068740844727 -2.400569200515747
-5.574203968048096 -6.39089298248291 -2.4007081985473633
-6.731835842132568 -3.94870662689209 -2.400489330291748
-6.650781154632568 -4.083845138549805 -2.4005048274993896
-6.567021369934082 -4.217319965362549 -2.4005208015441895
-6.480571269989014 -4.349078178405762 -2.4005370140075684
-6.391489028930664 -4.479062557220459 -2.4005539417266846
-6.205546855926514 -4.733511924743652 -2.4005892276763916
-6.10875940322876 -4.857874870300293 -2.4006075859069824
-5.907748699188232 -5.100616455078125 -2.4006457328796387
-5.477177619934082 -5.5608062744140625 -2.4007275104522705
-5.363832950592041 -5.670303821563721 -2.4007489681243896
-6.229291915893555 -3.6539275646209717 -2.400585889816284
-6.076772212982178 -3.902482509613037 -2.4006147384643555
-5.914345741271973 -4.144684314727783 -2.4006454944610596
-5.560844421386719 -4.608454704284668 -2.400712490081787
-5.466699123382568 -4.719823360443115 -2.4007303714752197
-5.370331764221191 -4.829272747039795 -2.4007487297058105
-5.171079158782959 -5.042220592498779 -2.4007866382598877
-4.747578144073486 -5.44315767288208 -2.400866985321045
-5.648715496063232 -3.627587080001831 -2.4006967544555664
-5.574355125427246 -3.740917921066284 -2.4007108211517334
-5.497729301452637 -3.8527238368988037 -2.4007253646850586
-5.418857097625732 -3.962963581085205 -2.400740385055542
-5.254511833190918 -4.178552150726318 -2.4007716178894043
-5.169111251831055 -4.283816814422607 -2.400787830352783
-5.081596374511719 -4.3873419761657715 -2.400804281234741
-4.992021560668945 -4.489075660705566 -2.4008212089538574
-4.900404930114746 -4.588983535766602 -2.400838613510132
-4.80679178237915 -4.687016010284424 -2.4008564949035645
-4.711215496063232 -4.7831525802612305 -2.400874614715576
-4.613720417022705 -4.8773298263549805 -2.400893211364746
-4.413125038146973 -5.059695720672607 -2.4009313583374023
-5.2713623046875 -3.385251998901367 -2.4007692337036133
-5.056850433349609 -3.698218822479248 -2.4008097648620605
-4.903481483459473 -3.8994038105010986 -2.400838851928711
-4.823783874511719 -3.997636556625366 -2.4008538722991943
-4.658525466918945 -4.189176559448242 -2.4008853435516357
-4.485663890838623 -4.373887538909912 -2.4009182453155518
-4.305483341217041 -4.551483631134033 -2.4009525775909424
-4.1182861328125 -4.7216644287109375 -2.4009881019592285
-4.870913028717041 -3.268843412399292 -2.400845766067505
-4.803945064544678 -3.3665356636047363 -2.4008586406707764
-4.362040996551514 -3.9225616455078125 -2.400942325592041
-4.281977653503418 -4.009855270385742 -2.4009575843811035
-4.200175762176514 -4.095515727996826 -2.400973081588745
-4.031464576721191 -4.261801719665527 -2.401005268096924
-3.8561766147613525 -4.421146869659424 -2.401038408279419
-4.751757621765137 -2.787247657775879 -2.400869131088257
-4.694536209106445 -2.8826310634613037 -2.4008798599243164
-4.635395526885986 -2.976841449737549 -2.400891065597534
-4.511484146118164 -3.16158127784729 -2.4009146690368652
-4.380214691162109 -3.3411686420440674 -2.400939464569092
-4.021284103393555 -3.7657299041748047 -2.401007652282715
-3.86602520942688 -3.9250547885894775 -2.4010369777679443
-3.786015510559082 -4.0023298263549805 -2.401052236557007
-3.704462766647339 -4.07797908782959 -2.4010677337646484
-3.62139630317688 -4.151970863342285 -2.4010837078094482
-4.420107364654541 -2.7141237258911133 -2.400932550430298
-4.364433288574219 -2.8028249740600586 -2.4009430408477783
-4.306972503662109 -2.890383005142212 -2.400954008102417
-4.186811447143555 -3.0619349479675293 -2.4009768962860107
-4.124160289764404 -3.145854949951172 -2.4009885787963867
-4.059823989868164 -3.2284984588623047 -2.401000738143921
-3.99383282661438 -3.309824228286743 -2.4010133743286133
-3.926210880279541 -3.389803409576416 -2.4010262489318848
-3.5646824836730957 -3.7683544158935547 -2.401094913482666
-4.118598461151123 -2.6449508666992188 -2.4009902477264404
-3.7050633430480957 -3.1988635063171387 -2.401068687438965
-3.6397411823272705 -3.2730326652526855 -2.401081085205078
-3.5046727657318115 -3.4173381328582764 -2.401106595993042
-3.363886594772339 -3.5560851097106934 -2.4011335372924805
-3.9920995235443115 -2.341658592224121 -2.401014566421509
-3.89434552192688 -2.5009360313415527 -2.4010331630706787
-3.679941415786743 -2.807013511657715 -2.401073932647705
-3.6225390434265137 -2.8807530403137207 -2.4010846614837646
-3.4415478706359863 -3.0948119163513184 -2.4011192321777344
-3.3783788681030273 -3.1636812686920166 -2.4011311531066895
-3.247934579849243 -3.297528028488159 -2.401155948638916
-3.042412042617798 -3.4881532192230225 -2.4011950492858887
-3.7358007431030273 -2.293933868408203 -2.4010636806488037
-3.6401805877685547 -2.442901849746704 -2.4010818004608154
-3.5386133193969727 -2.5878894329071045 -2.4011011123657227
-3.431279182434082 -2.728660821914673 -2.4011213779449463
-3.3755125999450684 -2.797393798828125 -2.401132106781006
-3.318354368209839 -2.8649911880493164 -2.4011430740356445
-3.2598485946655273 -2.9314181804656982 -2.401154041290283
-3.20000958442688 -2.996649742126465 -2.40116548538208
-3.1388769149780273 -3.0606584548950195 -2.401176929473877
-3.0764551162719727 -3.123427629470825 -2.401188850402832
-3.587231397628784 -2.1041688919067383 -2.401092290878296
-3.5440282821655273 -2.1761741638183594 -2.4011006355285645
-3.45330548286438 -2.3174960613250732 -2.4011175632476807
-3.202221632003784 -2.653787136077881 -2.401165246963501
-2.977734327316284 -2.9035332202911377 -2.40120792388916
-2.918510675430298 -2.9630796909332275 -2.401219367980957
-2.858110189437866 -3.0214123725891113 -2.401230812072754
