ply
format ascii 1.0
element vertex 330
property float x
property float y
property float z
end_header
-8.34317398071289 37.77042770385742 6.820491790771484
-7.204208850860596 25.243608474731445 4.62884521484375
-7.915820121765137 25.754135131835938 4.750817775726318
-8.747934341430664 24.841039657592773 4.6438117027282715
-9.30362319946289 24.807912826538086 4.671803951263428
-15.344355583190918 34.41653823852539 6.644392013549805
-15.337441444396973 32.613426208496094 6.354801654815674
-15.531566619873047 29.83416748046875 5.9307451248168945
-3.4109911918640137 44.79145812988281 6.881664752960205
-5.237587928771973 44.79143524169922 6.908547878265381
-6.15701150894165 44.791419982910156 6.926313400268555
-8.0120210647583 44.79143142700195 6.970707893371582
-7.718105316162109 38.62963104248047 6.034808158874512
-9.2210693359375 38.07620620727539 6.001676082611084
-7.183075904846191 25.16956329345703 4.009786128997803
-7.830258846282959 25.47577667236328 4.082932472229004
-8.299858093261719 25.180864334106445 4.061713695526123
-8.656513214111328 24.581422805786133 3.9924304485321045
-9.696533203125 24.348175048828125 4.014913082122803
-15.531669616699219 29.8343563079834 5.152708053588867
-5.237592697143555 44.79143142700195 5.872523784637451
-6.157021522521973 44.79141616821289 5.8876237869262695
-7.081547737121582 44.791404724121094 5.90522575378418
-7.712260723114014 38.60039138793945 5.125920295715332
-9.146337509155273 37.76764678955078 5.060297012329102
-9.800541877746582 37.170310974121094 5.005769729614258
-7.759413719177246 25.245283126831055 3.439241886138916
-8.26900863647461 25.087265014648438 3.439770460128784
-9.634916305541992 24.193431854248047 3.3911352157592773
-9.822904586791992 23.285802841186523 3.291057586669922
-15.324624061584473 34.37230682373047 4.900697708129883
-15.531766891479492 29.83456802368164 4.38002347946167
-6.157021522521973 44.79141616821289 4.855001926422119
-6.779013633728027 37.89833068847656 4.13417911529541
-7.676215648651123 38.420013427734375 4.207150936126709
-8.41556167602539 38.09817886352539 4.1896653175354
-9.069960594177246 37.45223617553711 4.137938022613525
-15.531855583190918 36.81922912597656 4.2910966873168945
-15.320834159851074 32.578155517578125 3.8658342361450195
-15.320834159851074 30.939544677734375 3.7073657512664795
-7.081547737121582 44.791404724121094 3.8388121128082275
-8.012011528015137 44.79143142700195 3.8518950939178467
-8.431548118591309 38.17054748535156 3.3091349601745605
-9.68111801147461 36.7174072265625 3.21445369720459
-8.07088851928711 24.4862003326416 2.1825196743011475
-8.726201057434082 24.779321670532227 2.223906993865967
-8.229789733886719 21.944562911987305 1.9840083122253418
-16.50355339050293 35.09305191040039 3.2828361988067627
-17.377588272094727 35.09304428100586 3.314997434616089
-14.795116424560547 28.41954231262207 2.7122802734375
-7.573803424835205 37.907386779785156 2.397104501724243
-8.534345626831055 35.24055480957031 2.2484750747680664
-9.619159698486328 36.48242950439453 2.339599609375
-8.262280464172363 25.066852569580078 1.6366636753082275
-8.862871170043945 25.16743278503418 1.6545881032943726
-9.165923118591309 24.440744400024414 1.6186552047729492
-9.417436599731445 23.64736557006836 1.5783851146697998
-15.645966529846191 35.09306335449219 2.382617473602295
-17.377582550048828 35.093040466308594 2.4283182621002197
-7.506982326507568 37.57301330566406 1.5108250379562378
-9.068681716918945 37.44696044921875 1.519251823425293
-7.951269149780273 25.869489669799805 1.067156195640564
-8.761967658996582 24.88091278076172 1.0401395559310913
-14.715087890625 36.94984817504883 1.56825852394104
-15.645971298217773 35.09306335449219 1.5150550603866577
-17.377592086791992 35.093040466308594 1.544119119644165
-8.314555168151855 37.64091873168945 0.6511509418487549
-9.372089385986328 24.990503311157227 0.45084455609321594
-14.803114891052246 35.09169006347656 0.6433454751968384
-17.376903533935547 35.09165954589844 0.661457359790802
-15.383729934692383 46.67251968383789 -0.27667877078056335
-15.38369083404541 43.68426513671875 -0.26075056195259094
-14.715341567993164 39.23814392089844 -0.23593810200691223
-15.419565200805664 38.71879196166992 -0.23464477062225342
-14.803110122680664 35.09169006347656 -0.21443068981170654
-16.50288963317871 35.091670989990234 -0.21832595765590668
-17.376903533935547 35.09165954589844 -0.2204672247171402
-14.715170860290527 28.2659912109375 -0.17941436171531677
-15.383872032165527 46.67300033569336 -1.383758783340454
-15.383822441101074 43.684627532958984 -1.3041112422943115
-14.715458869934082 39.23847579956055 -1.1800129413604736
-15.4195556640625 38.71879196166992 -1.1735097169876099
-14.803110122680664 35.0916862487793 -1.0724244117736816
-15.645341873168945 35.091678619384766 -1.081863284111023
-16.502885818481445 35.091670989990234 -1.0919195413589478
-14.715263366699219 28.266178131103516 -0.8973122835159302
-3.370414972305298 44.2586669921875 -2.251044750213623
-4.263461589813232 44.179649353027344 -2.250943899154663
-6.043759822845459 43.96750259399414 -2.2507400512695312
-6.616523265838623 36.98999786376953 -1.905721664428711
-7.757006645202637 35.11686325073242 -1.8238550424575806
-6.630317211151123 25.146692276000977 -1.3188797235488892
-8.409819602966309 29.468162536621094 -1.5541216135025024
-9.715726852416992 29.476505279541016 -1.5739871263504028
-11.039838790893555 29.437545776367188 -1.5944256782531738
-11.18797779083252 25.094022750854492 -1.3933782577514648
-17.37689971923828 35.09165573120117 -1.9858877658843994
-2.330209970474243 30.59922981262207 -2.250096082687378
-2.9476659297943115 30.544879913330078 -2.25002121925354
-3.5638866424560547 30.478107452392578 -2.249946117401123
-4.178608417510986 30.39885711669922 -2.2498700618743896
-4.791596412658691 30.307235717773438 -2.249793767929077
-5.402568340301514 30.203258514404297 -2.2497165203094482
-6.617543697357178 29.95830535888672 -2.249560832977295
-6.626601219177246 25.132625579833984 -1.9057642221450806
-7.78673791885376 23.62411880493164 -1.8238402605056763
-8.262025833129883 23.461261749267578 -1.8237797021865845
-9.02206039428711 21.387371063232422 -1.7019869089126587
-9.535380363464355 21.387359619140625 -1.7169628143310547
-1.7794336080551147 23.36659812927246 -2.2498035430908203
-2.2509472370147705 23.32523536682129 -2.249738931655884
-2.7215282917022705 23.274362564086914 -2.249674081802368
-5.973046779632568 22.65392303466797 -2.2492153644561768
-8.5127534866333 21.375673294067383 -2.208918333053589
-9.967636108398438 21.195173263549805 -2.248624563217163
-10.814911842346191 20.774133682250977 -2.248495101928711
-2.1994872093200684 18.80984878540039 -2.249570608139038
-2.5789012908935547 18.76116180419922 -2.2495179176330566
-3.334345579147339 18.640819549560547 -2.2494122982025146
-3.710087776184082 18.569244384765625 -2.249359130859375
-4.084296703338623 18.49007797241211 -2.2493062019348145
-4.456811428070068 18.40337562561035 -2.249253034591675
-5.196186542510986 18.207487106323242 -2.2491466999053955
-6.648110389709473 17.727041244506836 -2.248934030532837
-7.004623889923096 17.588743209838867 -2.2488808631896973
-7.3582763671875 17.44327163696289 -2.2488279342651367
-8.40053653717041 16.96442413330078 -2.2486701011657715
-8.741284370422363 16.79092025756836 -2.2486178874969482
-2.161982297897339 15.728080749511719 -2.2494559288024902
-2.7953124046325684 15.627328872680664 -2.2493674755096436
-3.1103172302246094 15.567362785339355 -2.2493231296539307
-4.356249809265137 15.264352798461914 -2.2491447925567627
-4.968984127044678 15.075353622436523 -2.2490553855895996
-5.272348403930664 14.971611022949219 -2.2490108013153076
-5.872470378875732 14.745885848999023 -2.2489218711853027
-6.168984413146973 14.623979568481445 -2.24887752532959
-1.036865234375 13.615642547607422 -2.2495245933532715
-1.3116406202316284 13.59168815612793 -2.2494866847991943
-1.5858641862869263 13.562201499938965 -2.2494490146636963
-1.859438419342041 13.527183532714844 -2.249411106109619
-2.1322460174560547 13.486629486083984 -2.249372959136963
-2.4041600227355957 13.440592765808105 -2.2493348121643066
-3.213564395904541 13.269644737243652 -2.249220132827759
-4.011064529418945 13.050004959106445 -2.2491049766540527
-4.273749828338623 12.9661226272583 -2.2490665912628174
-5.305922508239746 12.578030586242676 -2.248913526535034
-5.809389591217041 12.35305404663086 -2.248837471008301
-6.057607173919678 12.232996940612793 -2.2487998008728027
-0.9087451100349426 11.933249473571777 -2.249476194381714
-1.3899072408676147 11.886454582214355 -2.2494101524353027
-1.6296923160552979 11.855782508850098 -2.2493770122528076
-1.8687938451766968 11.820277214050293 -2.2493436336517334
-2.3445849418640137 11.73480224609375 -2.249276638031006
-2.5810887813568115 11.684877395629883 -2.2492430210113525
-2.8165283203125 11.63018798828125 -2.2492096424102783
-3.0508105754852295 11.570755004882812 -2.249175786972046
-3.5155224800109863 11.437764167785645 -2.2491087913513184
-3.7457664012908936 11.364253044128418 -2.249074935913086
-3.974482297897339 11.286112785339355 -2.2490413188934326
-4.42690896987915 11.11605453491211 -2.248974323272705
-4.650458812713623 11.024206161499023 -2.248940944671631
-5.524711608886719 10.612286567687988 -2.248807907104492
-0.8080468773841858 10.610965728759766 -2.249438524246216
-1.022192358970642 10.592336654663086 -2.2494091987609863
-1.2359081506729126 10.569387435913086 -2.2493796348571777
-1.449121117591858 10.542135238647461 -2.249350070953369
-1.6617333889007568 10.51057243347168 -2.2493205070495605
-1.8736523389816284 10.474735260009766 -2.249290704727173
-2.0848143100738525 10.434615135192871 -2.249260902404785
-2.9200146198272705 10.231769561767578 -2.2491414546966553
-3.3307762145996094 10.105222702026367 -2.249081611633301
-3.5341503620147705 10.03575325012207 -2.249051809310913
-3.736083984375 9.962186813354492 -2.2490217685699463
-3.936479330062866 9.884562492370605 -2.2489922046661377
-4.135268688201904 9.802909851074219 -2.24896240234375
-4.527690410614014 9.62765121459961 -2.2489030361175537
-4.721161842346191 9.534109115600586 -2.248873472213745
-4.912704944610596 9.436689376831055 -2.2488441467285156
-0.7267529368400574 9.543378829956055 -2.249408006668091
-1.303320288658142 9.481514930725098 -2.249328374862671
-1.4945507049560547 9.453146934509277 -2.2493016719818115
-1.685156226158142 9.420921325683594 -2.249274969100952
-1.8750683069229126 9.384844779968262 -2.2492482662200928
-2.064218759536743 9.344950675964355 -2.2492215633392334
-2.439892530441284 9.25373363494873 -2.2491676807403564
-2.6262645721435547 9.202457427978516 -2.249140739440918
-2.8115575313568115 9.147440910339355 -2.2491188049316406
-2.995722532272339 9.088687896728516 -2.2490947246551514
-4.246323108673096 8.575207710266113 -2.248931646347046
-0.6596874594688416 8.66260814666748 -2.2493982315063477
-0.8345019221305847 8.647431373596191 -2.249375343322754
-1.0089696645736694 8.62872314453125 -2.2493526935577393
-1.1830370426177979 8.606499671936035 -2.2493300437927246
-1.3566259145736694 8.58076286315918 -2.24930739402771
-1.8737255334854126 8.482597351074219 -2.2492401599884033
-2.044677734375 8.442936897277832 -2.2492177486419678
-2.5521678924560547 8.303375244140625 -2.2491514682769775
-3.537104368209839 7.933467864990234 -2.249023199081421
-0.6033398509025574 7.922873497009277 -2.2494046688079834
-1.0820410251617432 7.87157678604126 -2.249342203140259
-1.2407763004302979 7.848042011260986 -2.249321699142456
-1.8700683116912842 7.722018718719482 -2.249239683151245
-2.334233283996582 7.59438943862915 -2.2491791248321533
-2.789785146713257 7.438895225524902 -2.249119758605957
-2.9394285678863525 7.380961894989014 -2.2491002082824707
-3.087885618209839 7.320021629333496 -2.2490806579589844
-3.2350926399230957 7.256099700927734 -2.2490615844726562
-3.6684863567352295 7.046689510345459 -2.249005079269409
-0.5553125143051147 7.292173862457275 -2.2494101524353027
-0.9959179759025574 7.24497652053833 -2.2493529319763184
-1.1419970989227295 7.223321437835693 -2.2493338584899902
-1.287685513496399 7.198722839355469 -2.249314785003662
-1.4327831268310547 7.171187400817871 -2.249295949935913
-1.5773143768310547 7.140726089477539 -2.249277114868164
-1.721230387687683 7.107350826263428 -2.249258279800415
-2.0068359375 7.031919002532959 -2.249221086502075
-2.4288182258605957 6.897313117980957 -2.2491660118103027
-2.842289924621582 6.737385272979736 -2.2491118907928467
-2.977407217025757 6.678564071655273 -2.2490947246551514
-3.1118555068969727 6.617007732391357 -2.249077796936035
-0.5137743949890137 6.747546195983887 -2.249415159225464
-0.6499950885772705 6.735735893249512 -2.2493972778320312
-0.7858740091323853 6.721183776855469 -2.249379873275757
-0.9213916063308716 6.703885555267334 -2.2493622303009033
-1.056704044342041 6.683853626251221 -2.249344825744629
-1.3257567882537842 6.635623455047607 -2.2493112087249756
-1.4595263004302979 6.607437610626221 -2.2492947578430176
-1.592568278312683 6.576569557189941 -2.2492787837982178
-1.7253758907318115 6.545166015625 -2.249999761581421
-2.1205809116363525 6.432929515838623 -2.251506805419922
-2.2498486042022705 6.388766765594482 -2.2514963150024414
-2.7580809593200684 6.18621301651001 -2.251448392868042
-2.882451057434082 6.129209041595459 -2.2514352798461914
-3.1275928020477295 6.007718563079834 -2.2514073848724365
-0.6047753691673279 6.26687479019165 -2.251490831375122
-0.7312206625938416 6.253367900848389 -2.2514865398406982
-0.8573778867721558 6.237310886383057 -2.251481771469116
-1.357973575592041 6.147696495056152 -2.2514572143554688
-1.6051464080810547 6.08779764175415 -2.2514419555664062
-1.7277636528015137 6.054116249084473 -2.2514336109161377
-1.8496874570846558 6.017960071563721 -2.251424551010132
-1.9708495140075684 5.979345798492432 -2.251415252685547
-2.2107129096984863 5.894816875457764 -2.2513949871063232
-2.3293163776397705 5.84893274307251 -2.2513840198516846
-2.563608407974243 5.75002908706665 -2.2513608932495117
-0.4461084008216858 5.858041763305664 -2.251408576965332
-1.0344531536102295 5.783157825469971 -2.2513861656188965
-1.3846971988677979 5.717787742614746 -2.25449800491333
-1.4998486042022705 5.68848991394043 -2.254432201385498
-1.6143896579742432 5.656857967376709 -2.254362106323242
-1.7282665967941284 5.622913837432861 -2.2542881965637207
-2.1761181354522705 5.464271068572998 -2.2539525032043457
-2.7153563499450684 5.21584939956665 -2.253446102142334
-0.4182226359844208 5.491916179656982 -2.25421142578125
-0.529052734375 5.482270240783691 -2.254181146621704
-0.6396533250808716 5.470387935638428 -2.2541468143463135
-0.75001460313797 5.456259727478027 -2.254108428955078
-0.8600439429283142 5.439894676208496 -2.254066228866577
-1.8289061784744263 5.193483829498291 -2.253512144088745
-2.0370213985443115 5.115009784698486 -2.253347635269165
-2.139838933944702 5.072628021240234 -2.2532598972320557
-2.241772413253784 5.028165340423584 -2.253168821334839
-2.442802667617798 4.933103084564209 -2.2529757022857666
-0.4967138469219208 5.147042274475098 -2.2535886764526367
-0.6005419492721558 5.135887145996094 -2.253556251525879
-0.7041601538658142 5.122628211975098 -2.2535204887390137
-0.8074462413787842 5.107271671295166 -2.2534806728363037
-1.013037085533142 5.070290565490723 -2.2533905506134033
-1.115209937095642 5.048677921295166 -2.2533397674560547
-1.2169238328933716 5.025004863739014 -2.2532854080200195
-1.618325114250183 4.909843444824219 -2.253032684326172
-1.91250479221344 4.802343845367432 -2.2528064250946045
-2.009047746658325 4.762562274932861 -2.2527241706848145
-2.386479377746582 4.584140300750732 -2.252361536026001
-0.3696044981479645 4.853424072265625 -2.2530815601348877
-1.0497509241104126 4.752352237701416 -2.2528204917907715
-1.1455078125 4.730072498321533 -2.2527694702148438
-1.240761637687683 4.70585823059082 -2.2527148723602295
-1.3355273008346558 4.679717540740967 -2.252657175064087
-1.981240153312683 4.443830490112305 -2.2521603107452393
-2.2464404106140137 4.315188884735107 -2.2518997192382812
-0.34862303733825684 4.578977108001709 -2.2525956630706787
-0.5333788990974426 4.561038494110107 -2.2525417804718018
-0.6253368854522705 4.549275875091553 -2.252509832382202
-0.8085400462150574 4.5201592445373535 -2.2524361610412598
-0.9903954863548279 4.483645439147949 -2.252349615097046
-1.0807080268859863 4.46263313293457 -2.2523012161254883
-1.1705907583236694 4.439793586730957 -2.2522499561309814
-1.2600195407867432 4.415134906768799 -2.252195358276367
-1.3489257097244263 4.388672351837158 -2.2521376609802246
-1.437221646308899 4.360413074493408 -2.2520768642425537
-1.6985106468200684 4.264992713928223 -2.251875877380371
-1.784243106842041 4.229677677154541 -2.251802921295166
-2.0369043350219727 4.113425254821777 -2.25156569480896
-0.32963377237319946 4.3287200927734375 -2.252152919769287
-0.5041796565055847 4.311777114868164 -2.2521016597747803
-0.5911620855331421 4.300656795501709 -2.2520716190338135
-0.6778954863548279 4.287775039672852 -2.2520384788513184
-0.8504833579063416 4.25675630569458 -2.251962423324585
-1.021669864654541 4.21876859664917 -2.2518744468688965
-1.1911669969558716 4.173878192901611 -2.251774311065674
-1.2752050161361694 4.148867607116699 -2.2517199516296387
-1.358705997467041 4.122159481048584 -2.251662492752075
-1.686767578125 3.9985930919647217 -2.251403570175171
-1.767128825187683 3.9635820388793945 -2.2513315677642822
-1.9256396293640137 3.8887150287628174 -2.2511794567108154
-2.003715753555298 3.8488895893096924 -2.251099109649658
-0.3121728301048279 4.099381446838379 -2.251746892929077
-0.4774755835533142 4.083343505859375 -2.2516984939575195
-0.6419872641563416 4.060617446899414 -2.251638412475586
-0.7238525152206421 4.046761512756348 -2.2516040802001953
-0.8866698741912842 4.014084815979004 -2.251526355743408
-1.0480272769927979 3.9748449325561523 -2.2514374256134033
-1.2076513767242432 3.929100275039673 -2.2513368129730225
-1.3652880191802979 3.876924991607666 -2.251225471496582
-1.52065908908844 3.818415403366089 -2.2511026859283447
-1.6735351085662842 3.7536609172821045 -2.250969171524048
-1.823647379875183 3.6827752590179443 -2.2508251667022705
-1.8975976705551147 3.645066499710083 -2.250749349594116
-0.29609861969947815 3.888235330581665 -2.251373052597046
-0.5310107469558716 3.8630406856536865 -2.25130033493042
-0.6865771412849426 3.838336706161499 -2.251237630844116
-0.9177197217941284 3.789518356323242 -2.2511231899261475
-1.069970726966858 3.749213218688965 -2.2510335445404053
-1.2949804067611694 3.677281379699707 -2.2508785724639893
-1.3689501285552979 3.6502838134765625 -2.250821590423584
-1.4423534870147705 3.621793031692505 -2.2507622241973877
-1.5873730182647705 3.56038498878479 -2.2506356239318848
-1.7297606468200684 3.4931578636169434 -2.2504990100860596
-1.7999072074890137 3.457397937774658 -2.250427007675171
