ply
format ascii 1.0
element vertex 276
property float x
property float y
property float z
end_header
-12.17928695678711 -16.47905921936035 3.6131303310394287
-9.814936637878418 -20.075876235961914 3.9403209686279297
-9.000327110290527 -19.392589569091797 3.7697649002075195
-8.746254920959473 -19.88726043701172 3.830803155899048
-6.494648456573486 -16.550800323486328 3.1350011825561523
-5.734868049621582 -16.55078887939453 3.088578939437866
-5.363056659698486 -16.550785064697266 3.067739725112915
-4.996078968048096 -16.550779342651367 3.048413038253784
-12.17931842803955 -16.479116439819336 3.139092445373535
-10.365117073059082 -20.159069061279297 3.4725608825683594
-9.77389144897461 -19.991939544677734 3.409069061279297
-6.883491039276123 -16.550806045532227 2.7460358142852783
-6.494648456573486 -16.550800323486328 2.7237138748168945
-5.734868049621582 -16.55078887939453 2.6833834648132324
-5.36306619644165 -16.550785064697266 2.6652779579162598
-9.757953643798828 -19.959327697753906 2.8931071758270264
-8.941869735717773 -20.332048416137695 2.892395496368408
-6.883486270904541 -16.550806045532227 2.3342301845550537
-6.494648456573486 -16.55080223083496 2.3152565956115723
-6.111928462982178 -16.55079460144043 2.2975196838378906
-5.734872817993164 -16.550790786743164 2.2809762954711914
-5.363061428070068 -16.550785064697266 2.265582799911499
-12.179391860961914 -16.479215621948242 2.2004873752593994
-9.704364776611328 -19.8497257232666 2.372591495513916
-8.877690315246582 -19.128347396850586 2.2644739151000977
-6.883491039276123 -16.550806045532227 1.92483389377594
-6.494648456573486 -16.55080223083496 1.90919029712677
-5.734872817993164 -16.550790786743164 1.88092041015625
-5.363061428070068 -16.550785064697266 1.8682308197021484
-4.996078968048096 -16.550779342651367 1.8564562797546387
-12.179426193237305 -16.47926902770996 1.7346019744873047
-8.612650871276855 -19.58348846435547 1.8110332489013672
-6.850082874298096 -16.47049331665039 1.51005220413208
-12.17947006225586 -16.479312896728516 1.2706103324890137
-9.599843978881836 -19.63591957092285 1.355354905128479
-6.463134765625 -16.470489501953125 1.097161889076233
-5.707045555114746 -16.470478057861328 1.0809154510498047
-5.3370361328125 -16.47047233581543 1.0736205577850342
-12.17950439453125 -16.47936248779297 0.8080279231071472
-10.913871765136719 -22.323707580566406 0.9798123240470886
-9.194267272949219 -19.810455322265625 0.8611773252487183
-6.463139533996582 -16.470489501953125 0.6976616978645325
-6.08227014541626 -16.470483779907227 0.692315936088562
-4.971835613250732 -16.470468521118164 0.6783922910690308
-10.9138765335083 -22.323707580566406 0.41974058747291565
-6.463134765625 -16.470489501953125 0.29887115955352783
-6.082275390625 -16.47048568725586 0.29658234119415283
-5.707050800323486 -16.470478057861328 0.2944451868534088
-4.971840858459473 -16.47046661376953 0.29061582684516907
-6.496025085449219 -16.554317474365234 -0.10012267529964447
-5.553593635559082 -17.138771057128906 -0.101435087621212
-12.179611206054688 -16.47951316833496 -0.5770049691200256
-5.5535888671875 -17.138769149780273 -0.5072938203811646
-12.17965316772461 -16.479555130004883 -1.039229154586792
-26.53219985961914 -39.109764099121094 -2.39676833152771
-25.738683700561523 -39.64006805419922 -2.396916151046753
-24.934494018554688 -40.154178619384766 -2.3970658779144287
-24.12009048461914 -40.65206527709961 -2.397217273712158
-23.295751571655273 -41.13344955444336 -2.3973708152770996
-22.46183967590332 -41.59821701049805 -2.397526264190674
-21.61867332458496 -42.04607009887695 -2.3976831436157227
-10.913881301879883 -22.32370948791504 -1.2601829767227173
-9.81778335571289 -22.32369613647461 -1.2367768287658691
-6.850082874298096 -16.470497131347656 -0.9046506881713867
-6.496176719665527 -16.5546875 -0.90187668800354
-6.329067230224609 -17.13878059387207 -0.9265519380569458
-5.938612937927246 -17.138774871826172 -0.919879138469696
-5.553593635559082 -17.138769149780273 -0.9136718511581421
-20.484004974365234 -25.493968963623047 -2.3979127407073975
-19.965837478637695 -25.90346336364746 -2.3980090618133545
-18.90522575378418 -26.690771102905273 -2.3982064723968506
-17.81357192993164 -27.434614181518555 -2.398409605026245
-17.25667953491211 -27.7899112701416 -2.398513078689575
-16.12190055847168 -28.466537475585938 -2.3987245559692383
-14.558686256408691 -26.96194839477539 -2.2467029094696045
-14.016196250915527 -27.26002311706543 -2.2474896907806396
-10.9138765335083 -22.32370948791504 -1.8219661712646484
-10.360692977905273 -22.32370376586914 -1.8045176267623901
-5.938608169555664 -17.138774871826172 -1.3299510478973389
-5.5535888671875 -17.138771057128906 -1.3209797143936157
-14.657594680786133 -18.24254035949707 -2.246668577194214
-14.288280487060547 -18.537456512451172 -2.2469892501831055
-12.179726600646973 -16.479656219482422 -1.9673372507095337
-12.754657745361328 -19.64339828491211 -2.2485313415527344
-11.543549537658691 -20.382558822631836 -2.2488534450531006
-9.8787202835083 -21.28520393371582 -2.2528436183929443
-6.329062461853027 -17.13878059387207 -1.754014492034912
-5.173573970794678 -17.138763427734375 -1.7187365293502808
-12.144116401672363 -14.504423141479492 -2.247089147567749
-10.621577262878418 -15.656757354736328 -2.247380256652832
-10.321918487548828 -15.896763801574707 -2.2514538764953613
-10.000737190246582 -16.105066299438477 -2.2518866062164307
-7.985439300537109 -17.205848693847656 -2.2532050609588623
-6.850087642669678 -16.47049903869629 -2.118926763534546
-6.496401309967041 -16.555259704589844 -2.1125147342681885
-6.329067230224609 -17.13878059387207 -2.170226573944092
-5.938612937927246 -17.138776779174805 -2.154599905014038
-5.553593635559082 -17.138771057128906 -2.140059471130371
-10.339906692504883 -13.414886474609375 -2.3998358249664307
-8.740082740783691 -13.460563659667969 -2.273993492126465
-8.368969917297363 -13.477290153503418 -2.2478039264678955
-8.095410346984863 -13.644021987915039 -2.2478842735290527
-7.540141582489014 -13.963976860046387 -2.248560905456543
-6.972138404846191 -14.261092185974121 -2.249199390411377
-6.683642387390137 -14.400919914245605 -2.2495040893554688
-5.801660060882568 -14.784782409667969 -2.2503578662872314
-5.502573013305664 -14.900656700134277 -2.250621795654297
-5.201132774353027 -15.010432243347168 -2.250875473022461
-4.897509574890137 -15.114027976989746 -2.2511186599731445
-8.659506797790527 -11.716667175292969 -2.400151491165161
-8.179662704467773 -12.05721378326416 -2.400240659713745
-7.934672832489014 -12.220160484313965 -2.4002864360809326
-7.180649280548096 -12.678898811340332 -2.4004266262054443
-6.400195121765137 -13.091208457946777 -2.4005720615386963
-6.134648323059082 -13.218040466308594 -2.4006216526031494
-5.583212852478027 -13.424397468566895 -2.3951656818389893
-5.268681526184082 -13.42656421661377 -2.3760833740234375
-4.958930492401123 -13.4285249710083 -2.358224391937256
-4.653623104095459 -13.430285453796387 -2.3415489196777344
-4.352421760559082 -13.43185043334961 -2.326021432876587
-7.7960205078125 -10.114472389221191 -2.4003145694732666
-7.16967248916626 -10.56844711303711 -2.400430917739868
-6.954926490783691 -10.711247444152832 -2.4004709720611572
-6.737324237823486 -10.849687576293945 -2.4005115032196045
-6.06835412979126 -11.238295555114746 -2.4006361961364746
-5.609824180603027 -11.474565505981445 -2.400721311569214
-5.377070426940918 -11.585712432861328 -2.4007649421691895
-5.142114162445068 -11.69213581085205 -2.400808572769165
-4.90505838394165 -11.793811798095703 -2.400852680206299
-7.112865924835205 -8.852532386779785 -2.4004435539245605
-6.749809265136719 -9.132763862609863 -2.4005110263824463
-6.564111232757568 -9.267333984375 -2.400545597076416
-6.375737190246582 -9.398144721984863 -2.400580644607544
-5.991235256195068 -9.648193359375 -2.4006521701812744
-5.596938133239746 -9.882551193237305 -2.4007256031036377
-5.396327972412109 -9.993717193603516 -2.4007627964019775
-4.572627067565918 -10.397222518920898 -2.400916337966919
-4.361801624298096 -10.4876070022583 -2.4009556770324707
-4.149203777313232 -10.573725700378418 -2.4009952545166016
-3.5015673637390137 -10.8060884475708 -2.401115894317627
-3.2826952934265137 -10.874770164489746 -2.4011569023132324
-6.557085037231445 -7.831508159637451 -2.4005484580993652
-5.734628677368164 -8.453118324279785 -2.4007012844085693
-5.212509632110596 -8.785179138183594 -2.4007985591888428
-5.034116268157959 -8.88876724243164 -2.400831699371338
-4.486884593963623 -9.177651405334473 -2.4009337425231934
-4.300707817077637 -9.266518592834473 -2.400968313217163
-4.112768650054932 -9.351609230041504 -2.401003360748291
-3.7319629192352295 -9.51035213470459 -2.4010744094848633
-3.5391697883605957 -9.58388614654541 -2.4011104106903076
-2.9525389671325684 -9.78104019165039 -2.401219606399536
-5.80752420425415 -7.227926254272461 -2.400689125061035
-5.660453796386719 -7.343807220458984 -2.4007163047790527
-4.891645431518555 -7.877448558807373 -2.4008593559265137
-4.569687366485596 -8.068739891052246 -2.4009194374084473
-4.072924613952637 -8.330942153930664 -2.4010119438171387
-3.7333202362060547 -8.488826751708984 -2.4010751247406006
-3.3876025676727295 -8.632885932922363 -2.401139736175537
-3.0363426208496094 -8.762860298156738 -2.401205062866211
-5.040625095367432 -6.820168495178223 -2.4008326530456543
-4.901933670043945 -6.920643329620361 -2.4008586406707764
-4.327714920043945 -7.293939113616943 -2.400965452194214
-4.029755592346191 -7.4629130363464355 -2.4010210037231445
-3.570634603500366 -7.693480014801025 -2.401106357574463
-3.257153272628784 -7.831573963165283 -2.4011647701263428
-2.938349485397339 -7.956901550292969 -2.401224374771118
-2.4512939453125 -8.120513916015625 -2.401315212249756
-4.639506816864014 -6.277433395385742 -2.4009082317352295
-4.382339000701904 -6.45977783203125 -2.400956153869629
-4.251039981842041 -6.547018051147461 -2.4009804725646973
-4.118012428283691 -6.631596565246582 -2.401005268096924
-3.709057569503784 -6.86898136138916 -2.4010815620422363
-3.5696287155151367 -6.9425506591796875 -2.4011073112487793
-3.2864599227905273 -7.081180095672607 -2.4011600017547607
-3.142836809158325 -7.146179676055908 -2.401186943054199
-2.556079149246216 -7.376811504364014 -2.401296377182007
-2.4066162109375 -7.427004814147949 -2.4013240337371826
-4.055131912231445 -5.977457523345947 -2.401017665863037
-3.9336326122283936 -6.0581817626953125 -2.4010403156280518
-3.6858787536621094 -6.212193489074707 -2.4010865688323975
-3.5597167015075684 -6.2854156494140625 -2.4011099338531494
-3.4320945739746094 -6.356081962585449 -2.4011337757110596
-3.172719717025757 -6.489609718322754 -2.401181936264038
-3.0410547256469727 -6.55242395401001 -2.4012064933776855
-2.774062395095825 -6.670004844665527 -2.4012563228607178
-2.6388330459594727 -6.724733352661133 -2.4012815952301025
-2.2269091606140137 -6.872387409210205 -2.4013583660125732
-2.087700128555298 -6.9160308837890625 -2.401384115219116
-4.310131549835205 -5.147853851318359 -2.400970935821533
-3.9906444549560547 -5.399505615234375 -2.4010303020477295
-3.8808300495147705 -5.47903299331665 -2.4010508060455322
-3.7694385051727295 -5.556333065032959 -2.401071548461914
-3.656498908996582 -5.631361961364746 -2.401092529296875
-3.1902928352355957 -5.908261775970459 -2.401179313659668
-2.9491796493530273 -6.032373428344727 -2.401224374771118
-2.826792001724243 -6.090753555297852 -2.401247024536133
-2.703251838684082 -6.14665412902832 -2.4012701511383057
-2.3262012004852295 -6.29923152923584 -2.4013402462005615
-2.198554754257202 -6.34498405456543 -2.4013640880584717
-2.069995164871216 -6.3881516456604 -2.401388168334961
-1.9405956268310547 -6.428713321685791 -2.40141224861145
-3.8249852657318115 -4.962490558624268 -2.401061773300171
-3.517587900161743 -5.185098171234131 -2.4011189937591553
-3.08782696723938 -5.452205181121826 -2.4011988639831543
-2.6379148960113525 -5.683785915374756 -2.401282787322998
-2.5226221084594727 -5.7359466552734375 -2.401304244995117
-2.406298875808716 -5.785768985748291 -2.4013259410858154
-2.1707568168640137 -5.878316402435303 -2.40136981010437
-1.8109228610992432 -5.999134540557861 -2.4014368057250977
-3.6746044158935547 -4.573333263397217 -2.401090383529663
-3.486992120742798 -4.71804666519165 -2.401125192642212
-3.3910350799560547 -4.787531852722168 -2.4011430740356445
-2.891288995742798 -5.105164527893066 -2.401236057281494
-2.7876367568969727 -5.162553787231445 -2.4012553691864014
-2.6828320026397705 -5.217832088470459 -2.4012749195098877
-2.5769481658935547 -5.270987510681152 -2.401294708251953
-2.470170736312866 -5.321996212005615 -2.4013144969940186
-2.362133741378784 -5.370830535888672 -2.401334524154663
-2.2531542778015137 -5.417477130889893 -2.401355028152466
-2.1434080600738525 -5.461920261383057 -2.4013752937316895
-1.9211474657058716 -5.544100284576416 -2.401416778564453
-3.363471508026123 -4.363725662231445 -2.401148557662964
-3.184575080871582 -4.4960408210754395 -2.401181936264038
-3.000478506088257 -4.621021747589111 -2.4012162685394287
-2.7152392864227295 -4.794319152832031 -2.4012694358825684
-2.6178905963897705 -4.848211765289307 -2.40128755569458
-2.519482374191284 -4.900121212005615 -2.401305675506592
-2.420034170150757 -4.950038909912109 -2.4013242721557617
-2.3195996284484863 -4.997935771942139 -2.4013431072235107
-2.2182273864746094 -5.043794631958008 -2.4013617038726807
-2.1159374713897705 -5.0876007080078125 -2.401380777359009
-2.0127880573272705 -5.12933349609375 -2.401400089263916
-1.6985790729522705 -5.241915225982666 -2.401458740234375
-1.5923925638198853 -5.275190830230713 -2.4014785289764404
-3.3301024436950684 -3.9773380756378174 -2.4011552333831787
-3.1668357849121094 -4.108611583709717 -2.4011857509613037
-2.9123191833496094 -4.292897701263428 -2.401232957839966
-2.8250584602355957 -4.350860595703125 -2.4012491703033447
-2.5564990043640137 -4.5140204429626465 -2.401299238204956
-2.464838743209839 -4.564757823944092 -2.4013164043426514
-2.2785449028015137 -4.660627365112305 -2.401350975036621
-1.992226481437683 -4.7901411056518555 -2.40140438079834
-3.066108226776123 -3.8160057067871094 -2.401204824447632
-2.9884374141693115 -3.877167224884033 -2.401219367980957
-2.909555673599243 -3.9367454051971436 -2.4012339115142822
-2.6659131050109863 -4.105761528015137 -2.4012792110443115
-2.5824851989746094 -4.158788204193115 -2.401294708251953
-1.6959716081619263 -4.592569351196289 -2.4014599323272705
-2.8991453647613525 -3.6082115173339844 -2.4012362957000732
-2.5986034870147705 -3.8304665088653564 -2.401292085647583
-2.441850423812866 -3.932314872741699 -2.4013211727142334
-2.3619627952575684 -3.9808475971221924 -2.401336193084717
-2.1993260383605957 -4.073023796081543 -2.4013664722442627
-2.676508665084839 -3.4724764823913574 -2.401277780532837
-2.6058592796325684 -3.525834083557129 -2.4012908935546875
-2.5341503620147705 -3.577754497528076 -2.4013044834136963
-2.4614012241363525 -3.6282176971435547 -2.401318073272705
-2.387641429901123 -3.6772007942199707 -2.401331663131714
-2.312915086746216 -3.724689245223999 -2.401345729827881
-2.1606640815734863 -3.815086841583252 -2.401373863220215
-2.004873037338257 -3.899266242980957 -2.4014029502868652
-1.6016650199890137 -4.08162784576416 -2.4014780521392822
-1.4355664253234863 -4.143024921417236 -2.4015090465545654
-1.351625919342041 -4.171194553375244 -2.401524543762207
-2.6700243949890137 -3.1889567375183105 -2.4012794494628906
-2.5391016006469727 -3.294203758239746 -2.401303768157959
-2.404042959213257 -3.3940725326538086 -2.4013288021087646
-2.335029363632202 -3.441945791244507 -2.4013419151306152
-2.049731492996216 -3.6192147731781006 -2.401394844055176
-1.9762303829193115 -3.6598899364471436 -2.4014084339141846
-1.9019384384155273 -3.6990716457366943 -2.4014222621917725
-1.5972998142242432 -3.840566873550415 -2.4014792442321777
-1.5194287300109863 -3.872062921524048 -2.401493549346924
-1.3618602752685547 -3.930305004119873 -2.4015231132507324
-1.2822314500808716 -3.9570271968841553 -2.4015378952026367
-1.2020702362060547 -3.9821383953094482 -2.40155291557312
