ply
format ascii 1.0
element vertex 381
property float x
property float y
property float z
end_header
-21.068675994873047 19.855161666870117 5.104710578918457
-21.067813873291016 19.066030502319336 5.010188102722168
-21.65715217590332 17.33439064025879 4.891332149505615
-21.008695602416992 15.466300010681152 4.5999755859375
-21.008834838867188 12.412397384643555 4.3026628494262695
-21.00885772705078 11.84679126739502 4.252801895141602
-21.008878707885742 11.293914794921875 4.205778121948242
-21.38528823852539 10.40612506866455 4.193540096282959
-24.6527042388916 10.19983959197998 4.704300403594971
-26.297292709350586 10.263444900512695 4.9775590896606445
-21.008846282958984 19.01266098022461 4.3407135009765625
-21.30604362487793 17.77089500427246 4.2502875328063965
-21.008983612060547 16.13057518005371 4.0576934814453125
-21.009014129638672 15.466526985168457 3.996560573577881
-21.009063720703125 14.19542121887207 3.884284496307373
-21.009130477905273 12.412579536437988 3.7382445335388184
-21.0091495513916 11.846946716308594 3.694922924041748
-21.07512664794922 10.786808013916016 3.626909017562866
-21.385427474975586 10.40618896484375 3.643402576446533
-24.652713775634766 10.19983959197998 4.0871405601501465
-26.13428497314453 10.199831008911133 4.297741413116455
-27.777578353881836 10.199820518493652 4.533181190490723
-21.009159088134766 19.799062728881836 3.7592766284942627
-21.009305953979492 16.130828857421875 3.4492406845092773
-21.00933074951172 15.466753959655762 3.3972692489624023
-21.069501876831055 14.864571571350098 3.357778310775757
-21.07024383544922 14.2367525100708 3.3113982677459717
-21.070964813232422 13.625788688659668 3.2676024436950684
-21.07234764099121 12.449921607971191 3.187206268310547
-21.073015213012695 11.882966995239258 3.1503660678863525
-21.071483612060547 11.327567100524902 3.1153039932250977
-21.128997802734375 10.814379692077637 3.090888500213623
-22.217086791992188 10.261373519897461 3.18680477142334
-24.652700424194336 10.199838638305664 3.474217414855957
-26.134279251098633 10.199831008911133 3.653238534927368
-21.067996978759766 18.306169509887695 2.997037887573242
-21.657812118530273 17.33491325378418 2.978869676589966
-21.06905174255371 15.51072883605957 2.809394359588623
-21.069808959960938 14.864786148071289 2.7689006328582764
-21.070547103881836 14.23696517944336 2.7306604385375977
-21.071264266967773 13.625982284545898 2.6945433616638184
-21.071962356567383 13.030717849731445 2.66043758392334
-21.073305130004883 11.883119583129883 2.597864866256714
-21.0717716217041 11.327719688415527 2.568951368331909
-21.12920570373535 10.81449031829834 2.548809766769409
-21.456268310546875 10.440664291381836 2.562298536300659
-22.217092514038086 10.261371612548828 2.6278817653656006
-23.45105743408203 10.261998176574707 2.748762845993042
-21.069183349609375 19.06728172302246 2.4054946899414062
-21.352203369140625 17.80940055847168 2.3537325859069824
-21.65803337097168 17.335079193115234 2.3483736515045166
-21.009952545166016 15.467220306396484 2.2085344791412354
-21.010000228881836 12.992406845092773 2.0911474227905273
-21.010019302368164 11.847442626953125 2.0418388843536377
-22.08389663696289 10.199851989746094 2.0592260360717773
-21.658241271972656 17.335262298583984 1.7202606201171875
-21.01025390625 16.131553649902344 1.6425814628601074
-21.010272979736328 14.822786331176758 1.5944548845291138
-21.01028060913086 14.196233749389648 1.5723769664764404
-21.010295867919922 12.992592811584473 1.531842589378357
-21.01030158996582 12.413257598876953 1.5132544040679932
-21.01030731201172 11.847603797912598 1.495719313621521
-21.010311126708984 11.294683456420898 1.4791768789291382
-21.07596206665039 10.787240982055664 1.4681649208068848
-21.38595199584961 10.406450271606445 1.4748183488845825
-22.08387565612793 10.199851036071777 1.508437156677246
-24.652692794799805 10.199835777282715 1.6543984413146973
-26.13429069519043 10.1998291015625 1.739648699760437
-21.658456802368164 17.335432052612305 1.0938912630081177
-21.600982666015625 15.902324676513672 1.057667851448059
-21.60098648071289 15.239537239074707 1.042386770248413
-21.600996017456055 13.968536376953125 1.0143200159072876
-22.35661506652832 13.208694458007812 1.0239077806472778
-22.821245193481445 12.8687744140625 1.0330761671066284
-23.790931701660156 12.176836967468262 1.0538378953933716
-24.303396224975586 11.826078414916992 1.0657415390014648
-26.985002517700195 11.808414459228516 1.1614593267440796
-21.601295471191406 20.35710334777832 0.5013858079910278
-21.601299285888672 19.548810958862305 0.4921267628669739
-21.601299285888672 18.769563674926758 0.48338988423347473
-21.601301193237305 16.585365295410156 0.4600317180156708
-21.601301193237305 15.90256404876709 0.45310211181640625
-21.601301193237305 15.23975944519043 0.44655364751815796
-21.601299285888672 14.595574378967285 0.44036954641342163
-21.601299285888672 13.968741416931152 0.4345336854457855
-22.64482879638672 13.378973960876465 0.44428831338882446
-23.116037368774414 13.035014152526855 0.4482760429382324
-23.595977783203125 12.68467903137207 0.4525204300880432
-23.83476448059082 12.199259757995605 0.4522811770439148
-28.043607711791992 12.271650314331055 0.5170770287513733
-33.37019348144531 12.253411293029785 0.6004855036735535
-21.601648330688477 20.35744285583496 -0.16711746156215668
-21.601642608642578 19.549137115478516 -0.1640278548002243
-21.60163116455078 18.017427444458008 -0.15837371349334717
-21.658891677856445 17.33576774597168 -0.15619322657585144
-21.60161781311035 15.902793884277344 -0.1510244756937027
-21.601608276367188 14.595783233642578 -0.1467817723751068
-21.601604461669922 13.968937873840332 -0.1448310762643814
-23.59615707397461 12.68477725982666 -0.1508306860923767
-26.501665115356445 12.240283012390137 -0.16435378789901733
-28.04359245300293 12.271641731262207 -0.1723480224609375
-29.7437686920166 12.306219100952148 -0.18122847378253937
-21.601999282836914 20.357769012451172 -0.8358149528503418
-21.601985931396484 19.549455642700195 -0.8203665018081665
-21.601945877075195 16.585857391357422 -0.766873300075531
-21.601924896240234 15.240196228027344 -0.7444046139717102
-21.601919174194336 14.595993041992188 -0.7340980172157288
-21.601909637451172 13.969135284423828 -0.724362313747406
-21.901630401611328 13.54378604888916 -0.7250913977622986
-22.645170211791992 13.37917709350586 -0.740610659122467
-23.11638641357422 13.0352144241333 -0.7472599744796753
-26.50164794921875 12.240275382995605 -0.8219804167747498
-29.74374771118164 12.306211471557617 -0.9063760042190552
-30.009496688842773 11.712264060974121 -0.9070881605148315
-33.37022018432617 12.253426551818848 -1.0009759664535522
-21.602352142333984 20.35809326171875 -1.505379319190979
-21.602333068847656 19.549760818481445 -1.4775621891021729
-21.602296829223633 18.017993927001953 -1.4265984296798706
-21.659318923950195 17.33611488342285 -1.4069582223892212
-21.602252960205078 15.903255462646484 -1.3603978157043457
-21.60222625732422 14.596196174621582 -1.3221797943115234
-23.836307525634766 12.200060844421387 -1.3579860925674438
-26.50162696838379 12.240266799926758 -1.4804394245147705
-33.3702507019043 12.253435134887695 -1.8028327226638794
-21.602680206298828 19.550081253051758 -2.1362826824188232
-21.60259246826172 16.586345672607422 -1.9969756603240967
-21.60255241394043 15.240645408630371 -1.9384615421295166
-22.645519256591797 13.379378318786621 -1.9285616874694824
-23.59670066833496 12.68507194519043 -1.9643151760101318
-23.836816787719727 12.200323104858398 -1.9633678197860718
-25.506229400634766 11.780534744262695 -2.0600085258483887
-26.997962951660156 11.814093589782715 -2.1607825756073
-27.792612075805664 11.49894905090332 -2.2053475379943848
-28.22609519958496 10.364521026611328 -2.2047135829925537
-18.050769805908203 14.447829246520996 -2.2197093963623047
-18.881855010986328 13.321224212646484 -2.2184841632843018
-19.143688201904297 12.935015678405762 -2.2180991172790527
-19.643802642822266 12.147574424743652 -2.21736741065979
-20.7529239654541 10.098411560058594 -2.2157399654388428
-20.949848175048828 9.676101684570312 -2.2154552936553955
-12.579607963562012 5.504741191864014 -1.3182729482650757
-21.31828498840332 8.820257186889648 -2.214920997619629
-14.385236740112305 11.998393058776855 -2.2251274585723877
-15.07829761505127 11.10042953491211 -2.224106788635254
-15.50971508026123 10.479618072509766 -2.223470449447632
-15.716022491455078 10.162954330444336 -2.22316837310791
-15.915947914123535 9.842291831970215 -2.2228777408599854
-16.476564407348633 8.857431411743164 -2.2220611572265625
-11.095097541809082 5.398901462554932 -1.4656916856765747
-16.976837158203125 7.841110706329346 -2.2213258743286133
-13.228504180908203 5.473183631896973 -1.7005459070205688
-14.074516296386719 5.493078708648682 -1.7946773767471313
-11.451125144958496 10.791546821594238 -2.2294583320617676
-11.66501235961914 10.556644439697266 -2.229142904281616
-11.874136924743652 10.317545890808105 -2.228834629058838
-12.078447341918945 10.074334144592285 -2.228534698486328
-12.472067832946777 9.576009750366211 -2.2279610633850098
-12.845402717590332 9.062448501586914 -2.2274153232574463
-13.197731971740723 8.53446102142334 -2.226898193359375
-13.528575897216797 7.992927074432373 -2.2264130115509033
-10.170652389526367 5.467527866363525 -1.6361029148101807
-11.095219612121582 5.398963451385498 -1.7483160495758057
-14.36956787109375 6.636851787567139 -2.2426886558532715
-12.5800142288208 5.504920482635498 -1.9456385374069214
-14.074735641479492 5.493166446685791 -2.140744924545288
-14.873528480529785 5.461504936218262 -2.2450015544891357
-10.04372501373291 9.089381217956543 -2.2315471172332764
-10.22397232055664 8.883676528930664 -2.2312822341918945
-6.677751541137695 5.34487771987915 -1.4090746641159058
-10.73937702178955 8.245636940002441 -2.230525255203247
-10.902497291564941 8.026260375976562 -2.23028564453125
-11.06113338470459 7.803670406341553 -2.230050802230835
-11.404541969299316 7.374892234802246 -2.2373805046081543
-12.000675201416016 6.451301097869873 -2.244539976119995
-12.130963325500488 6.208962440490723 -2.2450010776519775
-11.095343589782715 5.399022102355957 -2.0327463150024414
-12.37697696685791 5.716540336608887 -2.2459487915039062
-12.59761905670166 5.212153434753418 -2.2459356784820557
-12.789695739746094 4.6963372230529785 -2.2445197105407715
-8.648188591003418 8.150070190429688 -2.233609676361084
-6.57135009765625 5.481026649475098 -1.6084047555923462
-9.470549583435059 7.271238803863525 -2.244205951690674
-7.4199113845825195 5.462437629699707 -1.7318240404129028
-9.759308815002441 6.885214805603027 -2.244933843612671
-8.068719863891602 5.451883316040039 -1.8303557634353638
-10.163166046142578 6.28481912612915 -2.2460265159606934
-9.58973503112793 5.407607078552246 -2.0693235397338867
-10.53048038482666 5.660954475402832 -2.2471933364868164
-10.644559860229492 5.448171138763428 -2.24759840965271
-10.750120162963867 5.231032371520996 -2.2471258640289307
-11.038004875183105 4.566877841949463 -2.2452778816223145
-11.124895095825195 4.341880798339844 -2.2446582317352295
-8.019908905029297 6.968569278717041 -2.2458038330078125
-6.677819728851318 5.344932556152344 -1.8080281019210815
-8.430275917053223 6.472729206085205 -2.246659755706787
-8.560402870178223 6.302045822143555 -2.2469611167907715
-8.06881332397461 5.451944351196289 -2.0584263801574707
-9.046102523803711 5.594035625457764 -2.248243570327759
-9.158514976501465 5.411013126373291 -2.248562812805176
-9.365026473999023 5.034430980682373 -2.247488260269165
-9.462485313415527 4.843153953552246 -2.2469470500946045
-9.890374183654785 3.8600664138793945 -2.2442102432250977
-6.959015846252441 6.558182239532471 -2.2473623752593994
-7.2196478843688965 6.273211479187012 -2.2478389739990234
-7.588780879974365 5.826627254486084 -2.248610019683838
-7.819746971130371 5.516849040985107 -2.249160051345825
-8.034514427185059 5.195618629455566 -2.2487165927886963
-8.328995704650879 4.696680068969727 -2.2472798824310303
-8.420315742492676 4.526577472686768 -2.246795654296875
-8.508148193359375 4.354700088500977 -2.2463090419769287
-8.592473983764648 4.181115627288818 -2.2458205223083496
-8.825011253356934 3.651279926300049 -2.244598388671875
-8.96476936340332 3.2918291091918945 -2.2444794178009033
-6.558268070220947 5.698536396026611 -2.249521017074585
-6.672666072845459 5.5655198097229 -2.2497479915618896
-6.7843804359436035 5.430219650268555 -2.24998140335083
-6.8916544914245605 5.291384220123291 -2.249664306640625
-6.995791912078857 5.150203704833984 -2.2492446899414062
-7.097017765045166 5.006958961486816 -2.248821973800659
-7.195306301116943 4.861725807189941 -2.2483959197998047
-7.290598392486572 4.714554309844971 -2.247967004776001
-7.382887840270996 4.5655198097229 -2.247535228729248
-7.472120761871338 4.4146647453308105 -2.247100591659546
-7.558263778686523 4.26206636428833 -2.2466635704040527
-7.6412835121154785 4.107784748077393 -2.2462244033813477
-7.7211480140686035 3.9518918991088867 -2.2457830905914307
-7.871984481811523 3.6358306407928467 -2.2450969219207764
-8.29556941986084 3.2376177310943604 -2.3056459426879883
-8.690520286560059 3.191115617752075 -2.3970236778259277
-5.785521030426025 5.452288627624512 -2.2505388259887695
-5.89404296875 5.334004878997803 -2.2503883838653564
-6.102572917938232 5.090014457702637 -2.249645948410034
-6.203042984008789 4.964922904968262 -2.2492692470550537
-6.488933086395264 4.577953338623047 -2.248119354248047
-6.666147708892822 4.3107452392578125 -2.247337818145752
-6.75063943862915 4.174537181854248 -2.246943235397339
-6.832342147827148 4.0366740226745605 -2.2465460300445557
-6.911226272583008 3.8972043991088867 -2.2461464405059814
-6.9872565269470215 3.756197452545166 -2.2457449436187744
-7.889176845550537 3.079033851623535 -2.397444725036621
-5.32354736328125 5.016918659210205 -2.2499442100524902
-5.422943115234375 4.907680511474609 -2.249607801437378
-5.797667026519775 4.451416969299316 -2.2482287883758545
-5.885435581207275 4.3327741622924805 -2.2478761672973633
-5.970772743225098 4.2123942375183105 -2.247520685195923
-6.134011268615723 3.966632604598999 -2.2468018531799316
-6.360278129577637 3.586538076400757 -2.245882987976074
-6.431225299835205 3.457291841506958 -2.2458207607269287
-6.499597072601318 3.326669216156006 -2.2457754611968994
-6.979515075683594 3.223619222640991 -2.3646621704101562
-7.142033100128174 3.1252763271331787 -2.3978374004364014
-7.262126922607422 2.834310293197632 -2.3977739810943604
-4.924399375915527 4.640765190124512 -2.2492451667785645
-5.106330394744873 4.436935901641846 -2.24862003326416
-5.523551940917969 3.896879196166992 -2.2470040321350098
-5.600281715393066 3.7840049266815186 -2.2466728687286377
-5.674696922302246 3.6696128845214844 -2.2463390827178955
-5.747255802154541 3.554067373275757 -2.246199369430542
-5.817695140838623 3.4372081756591797 -2.2461395263671875
-5.885811805725098 3.318979501724243 -2.246098041534424
-6.023831844329834 3.2382965087890625 -2.273359775543213
-6.487387657165527 3.1567583084106445 -2.398181676864624
-6.549675941467285 3.025090217590332 -2.398148775100708
-6.609331130981445 2.8921923637390137 -2.3981173038482666
-6.666253089904785 2.758121967315674 -2.3980872631073
-6.720541954040527 2.622929096221924 -2.3980586528778076
-4.57612419128418 4.312545299530029 -2.2486352920532227
-4.661666393280029 4.2187323570251465 -2.2483463287353516
-4.745278358459473 4.1232123374938965 -2.2480545043945312
-4.906586647033691 3.9272289276123047 -2.247462034225464
-4.984211444854736 3.8268516063690186 -2.247161626815796
-5.059781551361084 3.724940061569214 -2.2468583583831787
-5.133260250091553 3.621525764465332 -2.2465529441833496
-5.274969577789307 3.4111242294311523 -2.24642014503479
-5.342686653137207 3.3038721084594727 -2.2463836669921875
-5.717222690582275 3.223912239074707 -2.3471739292144775
-5.97036600112915 3.055793285369873 -2.3984534740448
-6.144169807434082 2.6886448860168457 -2.3983616828918457
-6.295467376708984 2.311671018600464 -2.3982815742492676
-4.269274711608887 4.023374080657959 -2.2480978965759277
-4.427161693572998 3.846802234649658 -2.247556209564209
-4.503382682800293 3.7561681270599365 -2.247281074523926
-4.577737808227539 3.664022207260132 -2.2470035552978516
-4.650313854217529 3.5704917907714844 -2.246779680252075
-5.001399040222168 3.234226703643799 -2.2824628353118896
-5.389219760894775 3.1840343475341797 -2.398759126663208
-5.452310562133789 3.074528694152832 -2.398725748062134
-5.513200759887695 2.9637773036956787 -2.398693561553955
-5.628194332122803 2.7387022972106934 -2.3986330032348633
-5.734072208404541 2.5091819763183594 -2.3985769748687744
-5.783500671386719 2.392871618270874 -2.3985509872436523
-5.830830097198486 2.275590181350708 -2.3985259532928467
-4.144488334655762 3.6011815071105957 -2.2471134662628174
-4.216134071350098 3.5165820121765137 -2.246997594833374
-4.286170482635498 3.430657386779785 -2.2469441890716553
-4.421058177947998 3.2547075748443604 -2.246868133544922
-4.579877853393555 3.231113910675049 -2.293963670730591
-4.766146183013916 3.2203917503356934 -2.354205369949341
-5.10557222366333 2.87900447845459 -2.3989078998565674
-5.162552356719971 2.7752978801727295 -2.3988778591156006
-5.270308494567871 2.5645434856414795 -2.3988208770751953
-5.369434833526611 2.3496227264404297 -2.398768663406372
-5.415726184844971 2.2407097816467285 -2.3987441062927246
-4.203392028808594 3.2273411750793457 -2.3095920085906982
-4.498345851898193 3.173574209213257 -2.3992273807525635
-4.622651100158691 2.989292621612549 -2.3991618156433105
-4.682005405426025 2.895313024520874 -2.3991305828094482
-4.739405632019043 2.800152540206909 -2.3991003036499023
-4.794955730438232 2.703853130340576 -2.399070978164673
-4.848519325256348 2.6064581871032715 -2.399042844772339
-4.900099754333496 2.5080034732818604 -2.399015426635742
-4.997258186340332 2.3080761432647705 -2.3989641666412354
-5.042788982391357 2.206683874130249 -2.398940086364746
-5.086262226104736 2.104398250579834 -2.3989171981811523
-5.127669334411621 2.0012543201446533 -2.398895263671875
-5.166988372802734 1.8973009586334229 -2.398874521255493
-3.719102621078491 3.2315776348114014 -2.280616521835327
-3.86407208442688 3.222933769226074 -2.3291144371032715
-4.015182971954346 3.213754177093506 -2.3805930614471436
-4.111547946929932 3.1568119525909424 -2.399430751800537
-4.294929027557373 2.90199875831604 -2.399333953857422
-4.352591514587402 2.814654588699341 -2.399303674697876
-4.462569713592529 2.6365673542022705 -2.399245500564575
-4.565277099609375 2.454193592071533 -2.399191379547119
-4.613848686218262 2.3614909648895264 -2.399165630340576
-4.705329418182373 2.1732475757598877 -2.3991174697875977
-4.748208999633789 2.0777788162231445 -2.399094820022583
-4.789147853851318 1.9814684391021729 -2.399073362350464
-3.692776918411255 3.208660840988159 -2.399651050567627
-3.819175958633423 3.0568695068359375 -2.3995842933654785
-3.9970715045928955 2.8199424743652344 -2.3994905948638916
-4.053124904632568 2.7386326789855957 -2.399461030960083
-4.107564449310303 2.656205415725708 -2.399432420730591
-4.160311222076416 2.5727014541625977 -2.399404287338257
-4.211357116699219 2.4881482124328613 -2.3993775844573975
-4.30828857421875 2.3160412311553955 -2.3993263244628906
-4.398191928863525 2.1401708126068115 -2.3992788791656494
-4.440466403961182 2.050913095474243 -2.399256706237793
-4.480933666229248 1.9608221054077148 -2.399235248565674
-4.51957368850708 1.8699334859848022 -2.39921498298645
-4.556365966796875 1.7782849073410034 -2.399195432662964
-4.591307163238525 1.6859136819839478 -2.399176836013794
-3.366539239883423 3.172614097595215 -2.399822235107422
-3.552271604537964 2.962869882583618 -2.3997244834899902
-3.6113243103027344 2.890503406524658 -2.399693489074707
-3.668901205062866 2.816964626312256 -2.399662971496582
-3.7249646186828613 2.742279529571533 -2.3996334075927734
-3.7795372009277344 2.666478157043457 -2.3996047973632812
-3.832570791244507 2.589592218399048 -2.3995769023895264
-3.88403058052063 2.5116539001464844 -2.399549722671509
-4.028671741485596 2.271838426589966 -2.3994734287261963
-4.073840141296387 2.190007209777832 -2.399449586868286
-4.117185115814209 2.107288122177124 -2.3994266986846924
-4.237100601196289 1.854122281074524 -2.3993632793426514
-4.273632526397705 1.7681787014007568 -2.399343967437744
-4.341474533081055 1.5941741466522217 -2.399308204650879
-3.2488462924957275 2.940150737762451 -2.399883985519409
-3.3075060844421387 2.8739166259765625 -2.399853229522705
-3.364814281463623 2.80651593208313 -2.399822950363159
-3.4752683639526367 2.6683130264282227 -2.3997645378112793
-3.5284204483032227 2.5975725650787354 -2.3997366428375244
-3.6303319931030273 2.452946186065674 -2.3996827602386475
-3.679079532623291 2.3791215419769287 -2.3996572494506836
-3.726328134536743 2.3043291568756104 -2.399632453918457
-3.8162474632263184 2.1519627571105957 -2.399585008621216
-3.899942636489868 1.9960973262786865 -2.399540662765503
-3.939419984817505 1.916929841041565 -2.399519920349121
-3.9772863388061523 1.836983561515808 -2.3994998931884766
-4.013535022735596 1.7562921047210693 -2.3994805812835693
-4.081109523773193 1.5927971601486206 -2.399445056915283
-3.0821337699890137 2.7892773151397705 -2.3999714851379395
-3.1921544075012207 2.662501811981201 -2.3999135494232178
-3.2452244758605957 2.5974762439727783 -2.399885416030884
-3.296971321105957 2.5313944816589355 -2.399858236312866
-3.3964061737060547 2.396172523498535 -2.399805784225464
-3.4441099166870117 2.327083110809326 -2.399780750274658
-3.578511953353882 2.1142516136169434 -2.399709939956665
-3.6608898639678955 1.968013882637024 -2.3996663093566895
-3.6998486518859863 1.8936816453933716 -2.3996458053588867
-3.8404479026794434 1.5889538526535034 -2.399571657180786
-3.8717222213745117 1.5110759735107422 -2.399554967880249
