ply
format ascii 1.0
element vertex 846
property float x
property float y
property float z
end_header
9.182282447814941 -8.90608024597168 -2.404374599456787
9.534977912902832 -8.528231620788574 -2.4044761657714844
9.705524444580078 -8.33401107788086 -2.4045252799987793
9.872116088867188 -8.136391639709473 -2.4045732021331787
10.19314193725586 -7.731232643127441 -2.40466570854187
10.497536659240723 -7.31341028213501 -2.4047534465789795
10.784782409667969 -6.883598327636719 -2.404836416244507
10.92183780670166 -6.66441011428833 -2.4048759937286377
11.054421424865723 -6.442497253417969 -2.404914379119873
11.424894332885742 -5.761279106140137 -2.4050214290618896
11.539118766784668 -5.529359817504883 -2.4050545692443848
11.648634910583496 -5.295173168182373 -2.4050862789154053
11.948439598083496 -4.579981803894043 -2.4051730632781982
12.204303741455078 -3.8478972911834717 -2.405247688293457
12.350007057189941 -3.351785898208618 -2.405290126800537
12.41530990600586 -3.1016197204589844 -2.4053092002868652
12.530656814575195 -2.597568988800049 -2.4053430557250977
12.580646514892578 -2.3438925743103027 -2.405357837677002
12.625505447387695 -2.089254379272461 -2.4053709506988525
12.665192604064941 -1.833761215209961 -2.4053828716278076
12.699719429016113 -1.5775152444839478 -2.405393123626709
12.729040145874023 -1.3206212520599365 -2.4054019451141357
12.753156661987305 -1.0631874799728394 -2.405409097671509
12.772072792053223 -0.8053207397460938 -2.4054150581359863
12.785754203796387 -0.5471166968345642 -2.40541934967041
12.794220924377441 -0.28869444131851196 -2.4054222106933594
12.797433853149414 -0.030148925259709358 -2.405423641204834
12.775734901428223 0.7451275587081909 -2.4054183959960938
12.75805377960205 1.0030852556228638 -2.405413866043091
12.59160327911377 2.284595251083374 -2.4053683280944824
11.696413040161133 2.6142539978027344 -2.2527124881744385
11.585100173950195 3.085657835006714 -2.253459930419922
11.522448539733887 3.319669723510742 -2.253859043121338
11.455036163330078 3.5524072647094727 -2.2542543411254883
11.30608081817627 4.013652801513672 -2.2550337314605713
11.138473510742188 4.468629837036133 -2.2557966709136963
10.952467918395996 4.916574478149414 -2.256542205810547
10.85265827178955 5.137680530548096 -2.2569079399108887
10.748361587524414 5.356745719909668 -2.2572686672210693
10.500388145446777 5.774055004119873 -2.2523789405822754
10.381403923034668 5.98491096496582 -2.2523367404937744
10.130807876586914 6.399206638336182 -2.2522635459899902
9.999289512634277 6.602467060089111 -2.2522261142730713
9.432966232299805 7.38762903213501 -2.252063751220703
8.805060386657715 8.124399185180664 -2.2518837451934814
8.469289779663086 8.473098754882812 -2.251786947250366
8.296194076538086 8.64228343963623 -2.251737356185913
8.119729042053223 8.807940483093262 -2.2516865730285645
4.178198337554932 -10.572113990783691 -2.402925491333008
4.391047477722168 -10.485809326171875 -2.402986526489258
4.602114200592041 -10.395219802856445 -2.4030470848083496
4.811313152313232 -10.300413131713867 -2.403106927871704
5.018557071685791 -10.201326370239258 -2.4031670093536377
5.426850318908691 -9.99075698852539 -2.4032859802246094
5.627727031707764 -9.879312515258789 -2.4033446311950684
5.826311111450195 -9.763832092285156 -2.403402328491211
6.022524356842041 -9.644360542297363 -2.403459310531616
6.216291427612305 -9.520939826965332 -2.4035158157348633
6.407516956329346 -9.393617630004883 -2.403571605682373
6.596142292022705 -9.262466430664062 -2.4036269187927246
6.782077312469482 -9.127521514892578 -2.403681516647339
6.965253829956055 -8.988842010498047 -2.403735399246216
7.497478008270264 -8.550956726074219 -2.4038913249969482
7.668859481811523 -8.397907257080078 -2.4039413928985596
7.837121486663818 -8.241425514221191 -2.4039900302886963
8.163981437683105 -7.918405055999756 -2.4040846824645996
8.777238845825195 -7.234014511108398 -2.404261350631714
8.921745300292969 -7.055324554443359 -2.4043028354644775
9.06261920928955 -6.873758316040039 -2.404343605041504
9.199797630310059 -6.689375877380371 -2.4043829441070557
9.33321475982666 -6.502250671386719 -2.40442156791687
9.462814331054688 -6.312457084655762 -2.404458999633789
9.588557243347168 -6.120081424713135 -2.4044952392578125
9.710397720336914 -5.925201892852783 -2.4045305252075195
9.828259468078613 -5.727895259857178 -2.404564380645752
9.94211196899414 -5.528237342834473 -2.404597520828247
10.051901817321777 -5.326311111450195 -2.4046292304992676
10.157580375671387 -5.122206211090088 -2.4046597480773926
10.259122848510742 -4.9160051345825195 -2.404689073562622
10.35647201538086 -4.707790851593018 -2.404717445373535
10.622981071472168 -4.071920871734619 -2.404794454574585
10.779001235961914 -3.639516830444336 -2.4048399925231934
10.85042667388916 -3.4210336208343506 -2.404860734939575
10.91741943359375 -3.20114803314209 -2.4048802852630615
10.97995376586914 -2.9799511432647705 -2.4048984050750732
11.03799057006836 -2.7575371265411377 -2.4049155712127686
11.09152603149414 -2.533984661102295 -2.40493106842041
11.140515327453613 -2.3093981742858887 -2.4049456119537354
11.184967994689941 -2.083862543106079 -2.404958486557007
11.316872596740723 -1.174111008644104 -2.4049978256225586
11.338313102722168 -0.9452368021011353 -2.4050042629241943
11.355119705200195 -0.715977132320404 -2.4050095081329346
11.375890731811523 0.20306396484375 -2.405017137527466
11.342653274536133 0.8918017148971558 -2.405008554458618
11.322301864624023 1.1207770109176636 -2.405003070831299
11.267722129821777 1.5772539377212524 -2.4049882888793945
11.233498573303223 1.8045648336410522 -2.4049787521362305
10.349699020385742 2.5338311195373535 -2.2523269653320312
10.241242408752441 2.9505510330200195 -2.252845525741577
10.181135177612305 3.1573474407196045 -2.2531967163085938
10.11681842803955 3.3629095554351807 -2.253544569015503
9.975749015808105 3.770012140274048 -2.254229784011841
9.818220138549805 4.171173572540283 -2.254899740219116
9.64449405670166 4.565730094909668 -2.255553722381592
9.35412311553955 5.143733024597168 -2.2565014362335205
9.249557495117188 5.3323974609375 -2.256808042526245
9.141154289245605 5.518917083740234 -2.2571098804473877
8.89019775390625 5.870139122009277 -2.2519078254699707
8.114259719848633 6.901459693908691 -2.2516820430755615
7.828537464141846 7.223367691040039 -2.2515997886657715
7.376179218292236 7.683887958526611 -2.251469850540161
7.219284534454346 7.831174373626709 -2.251424551010132
3.75768780708313 -9.508095741271973 -2.4028069972991943
4.138920783996582 -9.348958969116211 -2.402916193008423
4.327048301696777 -9.26363754272461 -2.402970314025879
4.697961330413818 -9.081661224365234 -2.403076410293579
5.061235427856445 -8.884854316711426 -2.403181552886963
5.239814281463623 -8.78097915649414 -2.403233528137207
5.416269302368164 -8.673510551452637 -2.403285026550293
5.76248025894165 -8.447978019714355 -2.403385877609253
5.932104587554932 -8.33000373840332 -2.403435230255127
6.099306583404541 -8.20862865447998 -2.4034838676452637
6.264023303985596 -8.083888053894043 -2.403532028198242
7.19646692276001 -7.267868518829346 -2.4038045406341553
7.341965198516846 -7.121118545532227 -2.4038474559783936
7.4844651222229 -6.97145938873291 -2.4038891792297363
7.760246276855469 -6.663663387298584 -2.403970241546631
7.893420219421387 -6.505594730377197 -2.4040088653564453
8.150041580200195 -6.181577682495117 -2.404083251953125
8.622976303100586 -5.503779888153076 -2.40421986579895
8.940876007080078 -4.971507549285889 -2.4043116569519043
9.039602279663086 -4.789913654327393 -2.4043402671813965
9.134631156921387 -4.606358051300049 -2.404367685317993
9.225934982299805 -4.420919418334961 -2.4043941497802734
9.313464164733887 -4.233668327331543 -2.404419422149658
9.477082252502441 -3.854041576385498 -2.4044668674468994
9.553102493286133 -3.6618223190307617 -2.404489040374756
9.693395614624023 -3.2729616165161133 -2.4045298099517822
9.757619857788086 -3.0764806270599365 -2.4045486450195312
9.817853927612305 -2.8787405490875244 -2.4045660495758057
9.926261901855469 -2.4798026084899902 -2.404597759246826
9.97439193725586 -2.2787649631500244 -2.404611825942993
10.018449783325195 -2.076796293258667 -2.4046247005462646
10.094260215759277 -1.670388102531433 -2.4046471118927
10.153586387634277 -1.2612435817718506 -2.4046647548675537
10.177023887634277 -1.0558536052703857 -2.4046719074249268
10.196301460266113 -0.850030779838562 -2.404677629470825
10.229118347167969 -0.23081542551517487 -2.4046881198883057
10.230090141296387 0.18261107802391052 -2.404689073562622
10.22430419921875 0.38925719261169434 -2.4046876430511475
10.214347839355469 0.5957385301589966 -2.4046852588653564
10.181901931762695 1.007889986038208 -2.4046764373779297
10.02817153930664 2.0295732021331787 -2.4046342372894287
9.985065460205078 2.2317521572113037 -2.4046220779418945
9.296867370605469 2.4761931896209717 -2.2611513137817383
9.153454780578613 2.83864426612854 -2.2523434162139893
9.095495223999023 3.023411750793457 -2.2526559829711914
8.10009479522705 5.116486549377441 -2.2516870498657227
6.79357385635376 4.890994548797607 -1.967389464378357
6.767997741699219 5.083291053771973 -1.9892281293869019
7.170207500457764 6.352580547332764 -2.2514076232910156
6.907492637634277 6.636838436126709 -2.251332998275757
3.41076397895813 -8.630268096923828 -2.4027092456817627
3.5844993591308594 -8.55978012084961 -2.402759075164795
3.756782054901123 -8.485788345336914 -2.402808427810669
3.9275364875793457 -8.408327102661133 -2.4028573036193848
4.264186859130859 -8.243132591247559 -2.402953863143921
4.429938793182373 -8.155460357666016 -2.403001308441162
4.593894004821777 -8.064440727233887 -2.403048276901245
4.755976676940918 -7.970139026641846 -2.40309476852417
4.916127681732178 -7.87260103225708 -2.4031410217285156
5.230344295501709 -7.667850017547607 -2.4032325744628906
5.384294509887695 -7.560757160186768 -2.403277635574341
5.977529048919678 -7.101916313171387 -2.4034504890441895
6.119892597198486 -6.979816913604736 -2.403491973876953
6.663849830627441 -6.4634013175964355 -2.4036507606506348
6.919726371765137 -6.189119815826416 -2.4037253856658936
7.043468952178955 -6.048135757446289 -2.403761625289917
7.282268047332764 -5.758821964263916 -2.4038312435150146
7.397228717803955 -5.610604763031006 -2.403865098953247
7.509177207946777 -5.460087299346924 -2.403897762298584
7.618053913116455 -5.307334899902344 -2.4039299488067627
7.723820686340332 -5.152409076690674 -2.403960943222046
7.826432704925537 -4.995372772216797 -2.403991222381592
7.925861835479736 -4.836296558380127 -2.4040205478668213
8.11495304107666 -4.512258529663086 -2.4040756225585938
8.204547882080078 -4.34743595123291 -2.404101848602295
8.29079818725586 -4.18083381652832 -2.4041268825531006
8.373649597167969 -4.01251745223999 -2.40415096282959
8.45308780670166 -3.8425605297088623 -2.4041740894317627
8.529074668884277 -3.671029567718506 -2.40419602394104
8.797883033752441 -2.970593214035034 -2.4042739868164062
8.910832405090332 -2.6127865314483643 -2.4043068885803223
8.96185302734375 -2.4322402477264404 -2.4043219089508057
9.009211540222168 -2.2507028579711914 -2.4043354988098145
9.052897453308105 -2.0682363510131836 -2.404348373413086
9.190470695495605 -1.3306643962860107 -2.404388904571533
9.23677921295166 -0.9583041071891785 -2.4044029712677
9.254279136657715 -0.7714968919754028 -2.4044082164764404
9.286398887634277 -0.021877441555261612 -2.404418468475342
9.279685020446777 0.35329344868659973 -2.4044172763824463
9.257819175720215 0.7278851270675659 -2.404411554336548
9.24120807647705 0.9147729277610779 -2.404407024383545
9.220817565917969 1.1012847423553467 -2.4044015407562256
9.196661949157715 1.287347435951233 -2.4043948650360107
9.168746948242188 1.4728796482086182 -2.4043872356414795
9.137086868286133 1.6578154563903809 -2.4043784141540527
9.101691246032715 1.8420653343200684 -2.4043686389923096
9.062580108642578 2.025567054748535 -2.404357671737671
9.019762992858887 2.2082343101501465 -2.404345750808716
8.306487083435059 2.575986385345459 -2.251742124557495
8.071179389953613 3.2380669116973877 -2.251675844192505
8.004045486450195 3.4004313945770264 -2.251657009124756
7.933640003204346 3.5614147186279297 -2.2516369819641113
7.859997272491455 3.7209434509277344 -2.2516157627105713
7.78313684463501 3.8789379596710205 -2.251593589782715
7.53362512588501 4.343151569366455 -2.251520872116089
7.351848125457764 4.64384651184082 -2.251466751098633
7.256422996520996 4.791367053985596 -2.2514379024505615
7.158044338226318 4.936926364898682 -2.2514076232910156
6.793540000915527 4.890969276428223 -2.1674044132232666
6.767773151397705 5.083119869232178 -2.191505193710327
6.845551490783691 5.361242771148682 -2.251314401626587
6.735749244689941 5.498372554779053 -2.2512826919555664
6.623193264007568 5.633257865905762 -2.2512505054473877
6.146430492401123 6.149189472198486 -2.2511143684387207
6.020849704742432 6.272017478942871 -2.2510788440704346
5.892809867858887 6.39226770401001 -2.251042366027832
3.119394540786743 -7.893007755279541 -2.4026272296905518
3.4358372688293457 -7.760838508605957 -2.4027178287506104
4.496083736419678 -7.199925422668457 -2.403021812438965
4.640703201293945 -7.107767581939697 -2.4030632972717285
4.783437252044678 -7.012674331665039 -2.403104305267334
5.063000202178955 -6.81398868560791 -2.4031853675842285
5.199714183807373 -6.710366249084473 -2.4032251834869385
5.334311485290527 -6.604053020477295 -2.4032645225524902
5.466733455657959 -6.495036602020264 -2.4033031463623047
5.724841117858887 -6.269084453582764 -2.403378486633301
6.0943603515625 -5.911043643951416 -2.4034862518310547
6.212629318237305 -5.786799907684326 -2.4035208225250244
6.552033424377441 -5.400035381317139 -2.4036200046539307
6.765012264251709 -5.131086349487305 -2.403682231903076
6.867382526397705 -4.993294715881348 -2.403712034225464
7.157512187957764 -4.568419933319092 -2.403796911239624
7.248430252075195 -4.422929763793945 -2.4038236141204834
7.336384296417236 -4.275631904602051 -2.4038493633270264
7.421345233917236 -4.126583099365234 -2.403874397277832
7.582140922546387 -3.8234777450561523 -2.403921365737915
7.866340160369873 -3.1990039348602295 -2.4040048122406006
7.989269733428955 -2.878633975982666 -2.404041051864624
8.099152565002441 -2.553584337234497 -2.404073476791382
8.14914321899414 -2.3894097805023193 -2.4040884971618652
8.239113807678223 -2.0582799911499023 -2.4041149616241455
8.27904987335205 -1.891443133354187 -2.4041268825531006
8.348772048950195 -1.5554543733596802 -2.4041476249694824
8.404860496520996 -1.2169146537780762 -2.4041643142700195
8.463205337524414 -0.7055435180664062 -2.404181718826294
8.484821319580078 -0.36307492852211 -2.404188632965088
8.490422248840332 -0.19158385694026947 -2.4041905403137207
8.486433029174805 0.3230920433998108 -2.4041900634765625
8.478171348571777 0.49447569251060486 -2.4041879177093506
8.160348892211914 2.351033926010132 -2.404099941253662
7.612741470336914 2.530534505844116 -2.271059274673462
7.381271839141846 2.9612834453582764 -2.251476526260376
7.31988525390625 3.1097803115844727 -2.2514586448669434
7.255500316619873 3.25699520111084 -2.2514400482177734
7.188156604766846 3.4028942584991455 -2.251420497894287
6.968620300292969 3.831965208053589 -2.2513558864593506
6.723471641540527 4.246933460235596 -2.251282215118408
6.636218070983887 4.38184928894043 -2.2512564659118652
6.546262264251709 4.514977931976318 -2.2512292861938477
6.453630447387695 4.646249771118164 -2.251202344894409
6.358361721038818 4.775617599487305 -2.251174211502075
5.733727931976318 5.509061336517334 -2.250995397567749
5.621166706085205 5.623692512512207 -2.2509632110595703
5.389240741729736 5.846014499664307 -2.250897169113159
3.01720929145813 -7.205092430114746 -2.4025990962982178
3.448312997817993 -7.009452819824219 -2.4027228355407715
3.5892820358276367 -6.938475131988525 -2.4027628898620605
3.7287914752960205 -6.86465311050415 -2.4028031826019287
3.8667821884155273 -6.788028240203857 -2.4028427600860596
4.137983322143555 -6.626489639282227 -2.4029204845428467
4.402443885803223 -6.454130172729492 -2.402996301651001
4.909416198730469 -6.078078269958496 -2.403141975402832
5.03127908706665 -5.977658748626709 -2.403177499771118
5.151095867156982 -5.874888896942139 -2.403212547302246
5.268813133239746 -5.769704341888428 -2.4032468795776367
5.384379863739014 -5.6621599197387695 -2.40328049659729
5.824223518371582 -5.209274768829346 -2.403409004211426
6.226066589355469 -4.72230863571167 -2.4035263061523438
6.411901473999023 -4.467063903808594 -2.403580665588379
6.751879692077637 -3.9349846839904785 -2.4036803245544434
6.830063343048096 -3.7977726459503174 -2.403703212738037
7.047765731811523 -3.3771770000457764 -2.4037671089172363
7.178561687469482 -3.0897512435913086 -2.4038054943084717
7.297629356384277 -2.797271966934204 -2.4038405418395996
7.404767990112305 -2.500215768814087 -2.403872013092041
7.453815937042236 -2.350114345550537 -2.403886556625366
7.499821662902832 -2.1990582942962646 -2.403900146484375
7.542751312255859 -2.047098398208618 -2.4039127826690674
7.5826096534729 -1.8943051099777222 -2.4039247035980225
7.65300989151001 -1.586448073387146 -2.4039454460144043
7.68353271484375 -1.4315142631530762 -2.4039547443389893
7.774113655090332 -0.8065560460090637 -2.403982400894165
7.800387859344482 -0.491860955953598 -2.403991222381592
7.808732509613037 -0.3341442942619324 -2.40399432182312
7.815866470336914 -0.018413085490465164 -2.4039969444274902
7.814640998840332 0.13949401676654816 -2.4039969444274902
7.810222148895264 0.2973492443561554 -2.403995990753174
7.802614688873291 0.4550769031047821 -2.40399432182312
7.760685920715332 0.9268951416015625 -2.4039828777313232
7.740354061126709 1.0834935903549194 -2.403977394104004
7.690221786499023 1.3952990770339966 -2.403963565826416
7.552355766296387 2.0115485191345215 -2.4039249420166016
7.272287368774414 2.5816588401794434 -2.3735625743865967
7.043849945068359 2.661996364593506 -2.3160884380340576
6.736652851104736 2.8620030879974365 -2.251289129257202
6.615437030792236 3.131770610809326 -2.251253366470337
6.483400821685791 3.396402597427368 -2.2512145042419434
6.340778827667236 3.655479669570923 -2.251171827316284
6.265571117401123 3.7828056812286377 -2.2511496543884277
6.187802791595459 3.908576488494873 -2.251126527786255
6.024721622467041 4.155265808105469 -2.2510788440704346
5.851806640625 4.3951592445373535 -2.251028299331665
5.761760234832764 4.512447834014893 -2.251002311706543
5.378390789031982 4.962624549865723 -2.2508926391601562
5.276965141296387 5.070199966430664 -2.250863790512085
5.173388481140137 5.175712585449219 -2.2508342266082764
5.067699909210205 5.279105186462402 -2.2508041858673096
2.925952196121216 -6.609119892120361 -2.402574062347412
3.190661668777466 -6.485726356506348 -2.4026498794555664
3.321096181869507 -6.420037269592285 -2.4026873111724854
3.7040722370147705 -6.207350730895996 -2.402796983718872
3.9519309997558594 -6.052822113037109 -2.4028680324554443
4.193349361419678 -5.888404369354248 -2.402937412261963
4.875063419342041 -5.338518142700195 -2.4031331539154053
5.086877346038818 -5.137353420257568 -2.4031949043273926
5.290397644042969 -4.927778244018555 -2.403254270553589
5.485282897949219 -4.710141658782959 -2.403311252593994
5.579384803771973 -4.59841251373291 -2.40333890914917
5.760725021362305 -4.369359016418457 -2.4033918380737305
5.932661056518555 -4.1331586837768555 -2.403442144393921
6.319538593292236 -3.5139076709747314 -2.403555393218994
6.456447601318359 -3.255819082260132 -2.403595447540283
6.520961761474609 -3.1247384548187256 -2.4036145210266113
6.698417663574219 -2.724040985107422 -2.4036667346954346
6.75213098526001 -2.5881786346435547 -2.4036824703216553
6.939194202423096 -2.0346755981445312 -2.4037375450134277
7.015793323516846 -1.7527014017105103 -2.4037604331970215
7.049807071685791 -1.610606074333191 -2.4037704467773438
7.156911373138428 -1.0362308025360107 -2.4038023948669434
7.224987506866455 -0.3091662526130676 -2.4038233757019043
7.229767799377441 -0.16313719749450684 -2.403825044631958
7.231589317321777 -0.01703796349465847 -2.4038259983062744
7.2193284034729 0.42108091711997986 -2.4038243293762207
7.196413516998291 0.7123675346374512 -2.4038186073303223
7.161740779876709 1.0024828910827637 -2.4038095474243164
7.115368366241455 1.290956974029541 -2.403796672821045
7.087795257568359 1.4344793558120728 -2.4037890434265137
7.0573410987854 1.577378511428833 -2.403780698776245
6.987804889678955 1.8611804246902466 -2.403761148452759
6.86212158203125 2.2810235023498535 -2.4037256240844727
6.711217880249023 2.692466974258423 -2.403681755065918
6.612536430358887 2.8092710971832275 -2.388180732727051
6.445812702178955 2.8935301303863525 -2.348604440689087
6.024037837982178 3.1557605266571045 -2.260549783706665
5.866833209991455 3.382246732711792 -2.2510342597961426
5.725300312042236 3.6164305210113525 -2.250992774963379
5.574423789978027 3.8446948528289795 -2.250948667526245
5.495546817779541 3.956484317779541 -2.2509257793426514
5.33111572265625 4.175175666809082 -2.25087833404541
5.157983303070068 4.38704252243042 -2.250828742980957
5.068229675292969 4.490299701690674 -2.250803232192993
4.976428031921387 4.591731071472168 -2.250777006149292
4.882587909698486 4.691274166107178 -2.2507503032684326
4.786755084991455 4.788905143737793 -2.250723123550415
2.4692211151123047 -6.247875213623047 -2.4024441242218018
2.594980478286743 -6.196807861328125 -2.402480125427246
2.7196898460388184 -6.143204212188721 -2.4025158882141113
2.8432884216308594 -6.087093830108643 -2.4025511741638184
2.9657275676727295 -6.02849817276001 -2.4025862216949463
3.086965322494507 -5.967437744140625 -2.402621030807495
3.3256101608276367 -5.838020324707031 -2.4026894569396973
3.442927122116089 -5.769719123840332 -2.4027230739593506
3.558845043182373 -5.699064254760742 -2.402756452560425
3.6733081340789795 -5.626079082489014 -2.402789354324341
3.7862744331359863 -5.550795555114746 -2.4028215408325195
3.8976926803588867 -5.473238945007324 -2.4028537273406982
4.007529258728027 -5.393448352813721 -2.4028849601745605
4.115727424621582 -5.311453342437744 -2.402916193008423
4.222248554229736 -5.227282524108887 -2.402946710586548
4.327050685882568 -5.140976428985596 -2.4029769897460938
4.917343616485596 -4.580296039581299 -2.403146505355835
5.0984787940979 -4.377999782562256 -2.4031996726989746
5.271291255950928 -4.168546199798584 -2.403249979019165
5.590829849243164 -3.729534149169922 -2.403343439102173
5.665090084075928 -3.615851879119873 -2.40336537361145
5.8738694190979 -3.2661237716674805 -2.4034264087677
6.173544883728027 -2.657191038131714 -2.4035143852233887
6.275925159454346 -2.405637264251709 -2.4035446643829346
6.323283672332764 -2.2783687114715576 -2.4035584926605225
6.410231590270996 -2.0210824012756348 -2.4035840034484863
6.520978927612305 -1.6290844678878784 -2.4036169052124023
6.581513404846191 -1.3643286228179932 -2.403634786605835
6.652133464813232 -0.9631444811820984 -2.403656005859375
6.685641765594482 -0.6936261057853699 -2.4036662578582764
6.708227157592773 -0.4229760766029358 -2.4036731719970703
6.716686725616455 0.2557171583175659 -2.403676748275757
6.700864315032959 0.5268450975418091 -2.403672695159912
6.656620979309082 0.9317724108695984 -2.403660774230957
6.636420726776123 1.0660619735717773 -2.4036552906036377
6.559587478637695 1.4661303758621216 -2.403634548187256
6.378146648406982 2.1201469898223877 -2.403583526611328
6.333984375 2.248561382293701 -2.403571367263794
6.28722620010376 2.376056432723999 -2.4035580158233643
6.18603515625 2.628074884414673 -2.4035286903381348
6.074728965759277 2.875795841217041 -2.4034957885742188
6.015341758728027 2.9979138374328613 -2.4034783840179443
5.953503131866455 3.118809700012207 -2.4034600257873535
5.639384746551514 3.404744863510132 -2.35573148727417
5.338410377502441 3.681917667388916 -2.319080352783203
5.152841567993164 3.870180606842041 -2.3045570850372314
5.061161994934082 3.9637553691864014 -2.298907995223999
4.971972465515137 4.05860710144043 -2.2951812744140625
4.883852481842041 4.1538848876953125 -2.292783260345459
4.718212604522705 4.3534770011901855 -2.2957794666290283
4.639975547790527 4.45816707611084 -2.3010737895965576
4.561220645904541 4.56326961517334 -2.307279109954834
4.486220836639404 4.673369884490967 -2.316636323928833
2.304152727127075 -5.830209255218506 -2.402397632598877
2.421506404876709 -5.782549858093262 -2.402431011199951
2.5378735065460205 -5.732526779174805 -2.4024646282196045
2.767463207244873 -5.625475883483887 -2.4025301933288574
3.103276252746582 -5.447717666625977 -2.4026265144348145
3.2127439975738525 -5.383978843688965 -2.402657985687256
3.3209080696105957 -5.318039894104004 -2.402688980102539
3.93993878364563 -4.877774715423584 -2.4028666019439697
4.037729263305664 -4.797234535217285 -2.4028947353363037
4.133874416351318 -4.714733600616455 -2.4029223918914795
4.22833251953125 -4.630306243896484 -2.402949571609497
4.412031173706055 -4.455810070037842 -2.4030022621154785
4.501203536987305 -4.3658037185668945 -2.4030280113220215
4.588534832000732 -4.274032115936279 -2.403053045272827
4.673991680145264 -4.180505275726318 -2.4030776023864746
4.918796062469482 -3.889791488647461 -2.4031481742858887
4.9964280128479 -3.789695978164673 -2.4031708240509033
5.286244869232178 -3.37404727935791 -2.4032557010650635
5.353371620178223 -3.2665836811065674 -2.403275489807129
5.418320178985596 -3.157788038253784 -2.403294324874878
5.541550159454346 -2.9363620281219482 -2.4033305644989014
5.655727386474609 -2.710134267807007 -2.4033639430999756
5.709362506866455 -2.5953330993652344 -2.4033796787261963
5.760671138763428 -2.4794716835021973 -2.403394937515259
5.809621334075928 -2.362596273422241 -2.403409242630005
6.0184326171875 -1.7647048234939575 -2.403470754623413
6.084856033325195 -1.520133376121521 -2.4034903049468994
6.187790393829346 -1.0239477157592773 -2.4035210609436035
6.224135398864746 -0.7731402516365051 -2.403532028198242
6.250307559967041 -0.5210656523704529 -2.4035398960113525
6.270410060882568 -0.14148803055286407 -2.4035465717315674
6.261359691619873 0.3651849329471588 -2.4035446643829346
6.252697467803955 0.49160948395729065 -2.4035425186157227
6.22771692276001 0.7438073754310608 -2.4035356044769287
6.147284984588623 1.2441326379776 -2.403512954711914
6.120876312255859 1.3680719137191772 -2.403505563735962
6.091962814331055 1.491448998451233 -2.4034972190856934
6.060566425323486 1.614213228225708 -2.4034883975982666
6.026694297790527 1.7363195419311523 -2.4034786224365234
5.951571941375732 1.9783507585525513 -2.4034574031829834
5.866735935211182 2.217144727706909 -2.403433322906494
5.820717811584473 2.335205554962158 -2.4034202098846436
5.721574783325195 2.5683887004852295 -2.4033920764923096
5.433168888092041 3.1322405338287354 -2.403308629989624
5.368735313415527 3.241344451904297 -2.403289794921875
5.302111625671387 3.3491203784942627 -2.4032704830169678
5.233325004577637 3.4555296897888184 -2.4032504558563232
5.162399768829346 3.5605223178863525 -2.4032299518585205
5.014260292053223 3.7660973072052 -2.4031872749328613
4.937104225158691 3.8665971755981445 -2.403165102005005
4.693674087524414 4.158450603485107 -2.4030954837799072
4.608652114868164 4.252389430999756 -2.403071165084839
4.521759986877441 4.344585418701172 -2.4030466079711914
4.250141620635986 4.610369682312012 -2.4029691219329834
2.2672996520996094 -5.414299964904785 -2.4023876190185547
2.3762547969818115 -5.367458820343018 -2.402418851852417
2.4842357635498047 -5.318425178527832 -2.4024498462677
2.8019604682922363 -5.15836238861084 -2.402540922164917
2.905634641647339 -5.100763320922852 -2.4025704860687256
3.209401845932007 -4.915561199188232 -2.4026577472686768
3.4054441452026367 -4.782009124755859 -2.4027140140533447
3.50140118598938 -4.712286472320557 -2.4027416706085205
3.6889891624450684 -4.567091464996338 -2.4027953147888184
3.7805516719818115 -4.491678237915039 -2.4028217792510986
3.8705663681030273 -4.414427280426025 -2.4028475284576416
4.045829772949219 -4.254551410675049 -2.402897834777832
4.130998611450195 -4.171988487243652 -2.4029223918914795
4.214487075805664 -4.087714672088623 -2.4029464721679688
4.45449686050415 -3.8250505924224854 -2.403015375137329
4.530905723571777 -3.7343122959136963 -2.4030375480651855
4.678144454956055 -3.548287868499756 -2.4030797481536865
5.073146820068359 -2.9566216468811035 -2.4031944274902344
5.188520431518555 -2.749297618865967 -2.403228282928467
5.243044376373291 -2.643930673599243 -2.4032442569732666
5.34564208984375 -2.4299943447113037 -2.4032745361328125
5.393671989440918 -2.32151198387146 -2.4032886028289795
5.483112812042236 -2.10174560546875 -2.4033148288726807
5.524484634399414 -1.9905511140823364 -2.403326988220215
5.5635986328125 -1.8785418272018433 -2.403338670730591
5.600444316864014 -1.7657641172409058 -2.4033493995666504
5.634997367858887 -1.6522643566131592 -2.4033596515655518
5.667253494262695 -1.5380886793136597 -2.403369188308716
5.697189807891846 -1.4232845306396484 -2.4033780097961426
5.724799633026123 -1.3078957796096802 -2.403386354446411
5.773000240325928 -1.0755642652511597 -2.4034006595611572
5.793564319610596 -0.9587133526802063 -2.403406858444214
5.811767578125 -0.8414733409881592 -2.403412342071533
5.841037273406982 -0.6059963703155518 -2.40342116355896
5.852094650268555 -0.48787474632263184 -2.4034245014190674
5.870913028717041 -0.1324743628501892 -2.403430461883545
5.868154048919678 0.22341185808181763 -2.403430223464966
5.862441062927246 0.3419213891029358 -2.403428792953491
5.854331016540527 0.46029233932495117 -2.4034266471862793
5.843830585479736 0.5784735083580017 -2.40342378616333
5.79802942276001 0.9314025640487671 -2.4034111499786377
5.77800989151001 1.0483520030975342 -2.4034054279327393
5.755634784698486 1.1648669242858887 -2.4033992290496826
5.730910301208496 1.2809112071990967 -2.4033920764923096
5.703845024108887 1.3964288234710693 -2.4033844470977783
5.642734050750732 1.6256988048553467 -2.403367042541504
5.608717918395996 1.7393615245819092 -2.4033572673797607
5.572407245635986 1.8523125648498535 -2.4033470153808594
5.533823013305664 1.9645074605941772 -2.4033360481262207
5.492976188659668 2.0758960247039795 -2.4033243656158447
5.44989013671875 2.186436653137207 -2.4033119678497314
5.404572486877441 2.2960808277130127 -2.40329909324646
5.255465984344482 2.6192052364349365 -2.4032561779022217
5.145300388336182 2.829343795776367 -2.403224468231201
4.76516580581665 3.430649995803833 -2.403115749359131
4.622602462768555 3.620290994644165 -2.4030745029449463
4.548481464385986 3.7129106521606445 -2.4030532836914062
4.315087795257568 3.9815173149108887 -2.402986764907837
4.150656700134277 4.152504920959473 -2.402940034866333
4.065864086151123 4.235473155975342 -2.4029159545898438
2.0260009765625 -5.126393795013428 -2.4023191928863525
2.231498956680298 -5.0404863357543945 -2.4023780822753906
2.332900285720825 -4.994433879852295 -2.402407169342041
2.6312620639801025 -4.844114780426025 -2.4024925231933594
2.8248729705810547 -4.7339701652526855 -2.40254807472229
3.0138792991638184 -4.616091251373291 -2.402602434158325
3.288078546524048 -4.42518949508667 -2.4026811122894287
3.376840829849243 -4.357902526855469 -2.4027066230773926
3.464238166809082 -4.28883695602417 -2.4027316570281982
3.6347386837005615 -4.14546537399292 -2.402780532836914
3.8792967796325684 -3.917789936065674 -2.402850866317749
3.95770001411438 -3.838651657104492 -2.4028735160827637
4.109611511230469 -3.6757023334503174 -2.4029171466827393
4.183075904846191 -3.5919549465179443 -2.4029381275177
4.393093109130859 -3.3320460319519043 -2.402998685836792
4.524184703826904 -3.151942014694214 -2.40303635597229
4.64788818359375 -2.9666130542755127 -2.4030721187591553
4.819162368774414 -2.679659366607666 -2.4031214714050293
5.148979187011719 -1.9736672639846802 -2.4032180309295654
5.224555492401123 -1.7640639543533325 -2.403240203857422
5.291598796844482 -1.5515741109848022 -2.4032602310180664
5.321884632110596 -1.4443566799163818 -2.403269052505493
5.35000467300415 -1.3365490436553955 -2.4032773971557617
5.375925064086914 -1.2281908988952637 -2.403285264968872
5.399658203125 -1.119334101676941 -2.403292179107666
5.421181678771973 -1.0100176334381104 -2.4032986164093018
5.472448825836182 -0.679768979549408 -2.4033141136169434
5.485077857971191 -0.5690698027610779 -2.403317928314209
5.495459079742432 -0.458137184381485 -2.4033210277557373
5.503596305847168 -0.34702086448669434 -2.4033236503601074
5.513129711151123 -0.12440124154090881 -2.4033267498016357
5.514516353607178 -0.012991332449018955 -2.403327226638794
5.513659477233887 0.09842101484537125 -2.403327226638794
5.510539531707764 0.2097955346107483 -2.4033265113830566
5.505173206329346 0.32108214497566223 -2.403325080871582
5.487702369689941 0.5432183742523193 -2.4033203125
5.475595474243164 0.6539758443832397 -2.4033169746398926
5.444684982299805 0.8746423125267029 -2.403308391571045
5.381667137145996 1.202850341796875 -2.4032907485961914
5.356247425079346 1.3113268613815308 -2.4032835960388184
5.298867225646973 1.5266283750534058 -2.4032671451568604
5.158239841461182 1.949391484260559 -2.403226852416992
5.117778301239014 2.0531957149505615 -2.4032154083251953
4.935214519500732 2.4596002101898193 -2.403163194656372
4.777062892913818 2.753992795944214 -2.403118371963501
4.720417499542236 2.8499224185943604 -2.403102397918701
4.661845684051514 2.944689989089966 -2.403085708618164
4.474804401397705 3.221606969833374 -2.403032064437866
4.271332740783691 3.4866724014282227 -2.4029736518859863
4.199977874755859 3.5722289085388184 -2.4029533863067627
4.126916408538818 3.656320095062256 -2.402932643890381
4.052165508270264 3.7389190196990967 -2.402911424636841
3.97576642036438 3.819985866546631 -2.4028897285461426
2.1009764671325684 -4.745661735534668 -2.402341365814209
2.1964476108551025 -4.702300548553467 -2.4023685455322266
2.291023015975952 -4.657017707824707 -2.402395725250244
2.3846728801727295 -4.609833240509033 -2.4024226665496826
2.6596312522888184 -4.457056999206543 -2.402501344680786
2.7491674423217773 -4.402461051940918 -2.402527093887329
2.837580442428589 -4.346066474914551 -2.402552366256714
3.0108983516693115 -4.227973461151123 -2.402602195739746
3.1792993545532227 -4.10297155380249 -2.4026505947113037
3.2615771293640137 -4.037940502166748 -2.4026739597320557
3.422109365463257 -3.902956485748291 -2.4027202129364014
3.500297784805298 -3.833055257797241 -2.402742624282837
3.652353525161743 -3.6885931491851807 -2.4027862548828125
3.7984471321105957 -3.5380938053131104 -2.4028284549713135
3.938349485397339 -3.3818113803863525 -2.4028685092926025
4.005898475646973 -3.3015801906585693 -2.402888059616089
4.071818828582764 -3.2200005054473877 -2.402907133102417
4.136074066162109 -3.137101888656616 -2.402925491333008
4.19863748550415 -3.052924633026123 -2.4029436111450195
4.259491920471191 -2.9674980640411377 -2.402961015701294
4.485275745391846 -2.6140146255493164 -2.4030261039733887
4.537201881408691 -2.5228772163391113 -2.403041124343872
4.726174354553223 -2.148392677307129 -2.4030957221984863
4.768635272979736 -2.052487373352051 -2.4031081199645996
4.847704887390137 -1.8581856489181519 -2.4031310081481934
4.918859958648682 -1.66084623336792 -2.403151750564575
4.981977462768555 -1.4607892036437988 -2.403170347213745
5.010493278503418 -1.3598535060882568 -2.4031786918640137
5.0369553565979 -1.2583446502685547 -2.403186559677124
5.061364650726318 -1.1563262939453125 -2.403193950653076
5.173901081085205 -0.4313308596611023 -2.4032278060913086
5.191847801208496 -0.012232054956257343 -2.403233528137207
5.191032409667969 0.09266173839569092 -2.403233528137207
5.155200004577637 0.6157091856002808 -2.403223991394043
5.141701698303223 0.7197356820106506 -2.4032201766967773
5.088627815246582 1.0298736095428467 -2.403205156326294
5.016855239868164 1.336224913597107 -2.4031848907470703
4.892531394958496 1.7368475198745728 -2.4031496047973633
4.856425762176514 1.835329532623291 -2.403139591217041
4.818332195281982 1.9330614805221558 -2.4031288623809814
4.692314147949219 2.221356153488159 -2.403093099594116
4.549059867858887 2.501481294631958 -2.403052806854248
4.389089107513428 2.7724030017852783 -2.4030075073242188
4.213000297546387 3.033123016357422 -2.402956962585449
3.9542577266693115 3.3632354736328125 -2.4028830528259277
3.6697142124176025 3.6713640689849854 -2.402801990509033
3.5947630405426025 3.744723320007324 -2.402780771255493
3.5183422565460205 3.8165478706359863 -2.402759075164795
1.8916674852371216 -4.517295837402344 -2.4022817611694336
1.98257315158844 -4.47820520401001 -2.4023077487945557
2.1619067192077637 -4.394552707672119 -2.4023592472076416
2.2502758502960205 -4.35002326965332 -2.4023845195770264
2.5942187309265137 -4.154328346252441 -2.4024832248687744
2.7599804401397705 -4.046215534210205 -2.4025306701660156
2.841191291809082 -3.98966908454895 -2.4025540351867676
3.0777392387390137 -3.8103415966033936 -2.4026219844818115
3.302995443344116 -3.616999626159668 -2.402686595916748
3.5843381881713867 -3.338655948638916 -2.4027676582336426
3.7163450717926025 -3.191180467605591 -2.4028053283691406
3.842289924621582 -3.038486957550049 -2.402841806411743
3.9029173851013184 -2.960261106491089 -2.4028592109680176
4.0193772315979 -2.800215005874634 -2.402892589569092
4.328671932220459 -2.29367995262146 -2.402981996536255
4.374150276184082 -2.2057723999023438 -2.4029951095581055
4.4178466796875 -2.116966485977173 -2.403007745742798
4.459738731384277 -2.0272936820983887 -2.403019905090332
4.499804496765137 -1.9367785453796387 -2.403031349182129
4.574416637420654 -1.753430724143982 -2.403053045272827
4.608925819396973 -1.6606615781784058 -2.4030630588531494
4.672285079956055 -1.473124623298645 -2.4030814170837402
4.701108455657959 -1.3784250020980835 -2.403089761734009
4.728017330169678 -1.2831804752349854 -2.4030978679656982
4.776020526885986 -1.0911368131637573 -2.4031119346618652
4.797104358673096 -0.9944262504577637 -2.4031178951263428
4.816225528717041 -0.8973080515861511 -2.403123617172241
4.833381175994873 -0.7998232841491699 -2.4031286239624023
4.861767292022705 -0.603912353515625 -2.40313720703125
4.889435768127441 -0.3082946836948395 -2.4031455516815186
4.897902488708496 -0.11051879823207855 -2.4031481742858887
4.899135589599609 -0.011542358435690403 -2.403148651123047
4.898371696472168 0.08743774145841599 -2.403148651123047
4.895600318908691 0.1863836646080017 -2.4031479358673096
4.884069919586182 0.3840039074420929 -2.4031450748443604
4.875309944152832 0.4825982451438904 -2.4031426906585693
4.820407390594482 0.8746057152748108 -2.403127670288086
4.781117916107178 1.068623661994934 -2.4031167030334473
4.734018325805664 1.2608922719955444 -2.4031035900115967
4.679186820983887 1.4510979652404785 -2.403088331222534
4.648898601531982 1.545331358909607 -2.4030797481536865
4.616714000701904 1.6389312744140625 -2.4030706882476807
4.508896350860596 1.9155614376068115 -2.4030401706695557
4.469253063201904 2.0062522888183594 -2.403029203414917
4.244020938873291 2.4466917514801025 -2.402965545654297
4.032546520233154 2.781259775161743 -2.402904987335205
3.794748544692993 3.0976409912109375 -2.402837038040161
3.600048780441284 3.321751117706299 -2.4027817249298096
3.532175302505493 3.393775463104248 -2.4027624130249023
3.3921337127685547 3.5336406230926514 -2.4027225971221924
3.320021867752075 3.6014201641082764 -2.4027020931243896
1.7019360065460205 -4.306423664093018 -2.4022278785705566
1.8745580911636353 -4.2342400550842285 -2.4022772312164307
1.95974600315094 -4.195547580718994 -2.402301788330078
2.127680540084839 -4.113034725189209 -2.4023499488830566
2.2921507358551025 -4.023801326751709 -2.4023971557617188
2.372997999191284 -3.976710081100464 -2.4024202823638916
2.686391592025757 -3.7722973823547363 -2.402510166168213
2.762079954147339 -3.717287540435791 -2.402531862258911
3.1915037631988525 -3.356156826019287 -2.4026551246643066
3.574111223220825 -2.945709228515625 -2.4027652740478516
3.632924795150757 -2.872920513153076 -2.4027822017669678
3.69024658203125 -2.7989566326141357 -2.402798652648926
3.800358772277832 -2.64762806892395 -2.4028303623199463
3.9042651653289795 -2.4919707775115967 -2.402860403060913
3.9538378715515137 -2.4125969409942627 -2.402874708175659
4.001796722412109 -2.33223819732666 -2.402888536453247
4.048117637634277 -2.2509264945983887 -2.4029018878936768
4.290741920471191 -1.744914174079895 -2.4029719829559326
4.357763767242432 -1.5701656341552734 -2.402991533279419
4.388613224029541 -1.4817761182785034 -2.4030003547668457
4.444921970367432 -1.3033177852630615 -2.4030168056488037
4.470358848571777 -1.2132527828216553 -2.403024196624756
4.493972301483154 -1.122694969177246 -2.40303111076355
4.515749454498291 -1.0316747426986694 -2.4030375480651855
4.535686016082764 -0.9402346611022949 -2.403043270111084
4.584335803985596 -0.6637545824050903 -2.40305757522583
4.596816539764404 -0.5710018873214722 -2.4030613899230957
4.607421875 -0.47799286246299744 -2.403064727783203
4.630983829498291 -0.10451049357652664 -2.403071880340576
4.632150650024414 -0.010903320275247097 -2.4030723571777344
4.631428241729736 0.082672119140625 -2.4030723571777344
4.628808498382568 0.17623046040534973 -2.403071880340576
4.624301433563232 0.2697070240974426 -2.4030706882476807
4.617902755737305 0.3630969226360321 -2.403069019317627
4.609626293182373 0.45630431175231934 -2.403066873550415
4.587419509887695 0.6421459913253784 -2.4030606746673584
4.573501110076904 0.7346929907798767 -2.4030568599700928
4.540070533752441 0.9188531041145325 -2.403047561645508
4.52056884765625 1.0103875398635864 -2.4030423164367676
4.499218463897705 1.1015081405639648 -2.40303635597229
4.476037502288818 1.192179560661316 -2.403029680252075
4.395564079284668 1.4611186981201172 -2.4030070304870605
4.365124225616455 1.5496184825897217 -2.402998685836792
4.332910060882568 1.637484073638916 -2.402989625930786
4.298928260803223 1.7246825695037842 -2.402980089187622
4.145588397979736 2.0660698413848877 -2.4029366970062256
4.102981090545654 2.1493921279907227 -2.4029247760772705
4.012758731842041 2.3133673667907715 -2.4028990268707275
3.9651756286621094 2.3939507007598877 -2.402885675430298
3.646437883377075 2.855783700942993 -2.402794361114502
3.5879712104797363 2.9288487434387207 -2.402777671813965
3.46667218208313 3.0713653564453125 -2.402743101119995
3.339714288711548 3.208854913711548 -2.402707099914551
3.2073047161102295 3.3411028385162354 -2.4026694297790527
1.6120433807373047 -4.0789594650268555 -2.402202606201172
1.8562254905700684 -3.973932981491089 -2.4022727012634277
2.0152904987335205 -3.895775318145752 -2.402318000793457
2.0936059951782227 -3.8543009757995605 -2.4023406505584717
2.171069383621216 -3.811249256134033 -2.402362823486328
2.2476415634155273 -3.7666430473327637 -2.4023847579956055
2.323305606842041 -3.720498561859131 -2.4024064540863037
2.398017406463623 -3.672833204269409 -2.402427911758423
2.471752882003784 -3.623668670654297 -2.402448892593384
2.544482469558716 -3.5730230808258057 -2.4024698734283447
2.7563207149505615 -3.4124138355255127 -2.4025306701660156
2.824723958969116 -3.356057643890381 -2.402550220489502
2.891970157623291 -3.2983293533325195 -2.4025697708129883
2.9580419063568115 -3.239253520965576 -2.4025886058807373
3.0229077339172363 -3.17885684967041 -2.4026074409484863
3.0865330696105957 -3.1171600818634033 -2.402625560760498
3.1489038467407227 -3.0541861057281494 -2.4026434421539307
3.2099876403808594 -2.9899678230285645 -2.402661085128784
3.3282055854797363 -2.857889413833618 -2.4026951789855957
3.3852880001068115 -2.7900848388671875 -2.4027116298675537
3.5995776653289795 -2.507749080657959 -2.402773141860962
3.649531126022339 -2.434528350830078 -2.402787685394287
3.697988271713257 -2.3603129386901855 -2.402801513671875
3.834238290786743 -2.1320009231567383 -2.402841091156006
3.8765525817871094 -2.0541107654571533 -2.40285325050354
3.9172801971435547 -1.975382924079895 -2.402864933013916
3.9564061164855957 -1.895845890045166 -2.402876138687134
3.9939231872558594 -1.8155359029769897 -2.4028871059417725
4.096616268157959 -1.5702825784683228 -2.40291690826416
4.127517223358154 -1.4872039556503296 -2.402925729751587
4.363979339599609 -0.452757865190506 -2.4029951095581055
4.386713981628418 0.07830382883548737 -2.4030025005340576
4.384233474731445 0.16691528260707855 -2.4030017852783203
4.379968166351318 0.25545594096183777 -2.403000831604004
4.373910903930664 0.34389281272888184 -2.40299916267395
4.366064548492432 0.43218931555747986 -2.4029970169067383
4.345034122467041 0.6082177758216858 -2.402991533279419
4.331850528717041 0.6958752274513245 -2.4029877185821533
4.316901683807373 0.7832506895065308 -2.4029836654663086
4.239541053771973 1.129189372062683 -2.4029622077941895
4.21584939956665 1.2146068811416626 -2.4029555320739746
4.163312911987305 1.3839184045791626 -2.402940511703491
4.134491920471191 1.4677423238754272 -2.402932643890381
4.103979587554932 1.5509673357009888 -2.402924060821533
4.071794509887695 1.6335582733154297 -2.4029150009155273
4.037944316864014 1.7154803276062012 -2.4029054641723633
3.9653124809265137 1.8771892786026 -2.4028849601745605
3.9265575408935547 1.9569097757339478 -2.402873992919922
3.8007445335388184 2.1911425590515137 -2.4028384685516357
3.507758617401123 2.6345953941345215 -2.402754306793213
3.453788995742798 2.704909563064575 -2.4027388095855713
3.3984179496765137 2.774115562438965 -2.4027230739593506
3.283525228500366 2.9091033935546875 -2.4026904106140137
3.163278818130493 3.039332151412964 -2.4026565551757812
1.5292505025863647 -3.8694682121276855 -2.40217924118042
1.684352993965149 -3.8046014308929443 -2.402223587036133
1.7608885765075684 -3.7698302268981934 -2.40224552154541
1.836708903312683 -3.733518600463867 -2.4022674560546875
2.059558153152466 -3.6154961585998535 -2.4023311138153076
2.1322021484375 -3.5731799602508545 -2.4023520946502686
2.344797372817993 -3.437542676925659 -2.4024128913879395
2.4137866497039795 -3.3894970417022705 -2.402432918548584
2.4817895889282227 -3.3400678634643555 -2.402452230453491
2.614736318588257 -3.2371327877044678 -2.4024903774261475
2.67962646484375 -3.1836700439453125 -2.4025092124938965
2.806096076965332 -3.0728631019592285 -2.40254545211792
2.867626905441284 -3.0155675411224365 -2.4025630950927734
2.927988290786743 -2.9570398330688477 -2.402580499649048
2.9871556758880615 -2.897298574447632 -2.402597665786743
3.101801633834839 -2.774299144744873 -2.402630567550659
3.31573486328125 -2.514896869659424 -2.4026920795440674
3.462048292160034 -2.309464454650879 -2.4027342796325684
3.5080199241638184 -2.239061117172241 -2.402747392654419
3.595646858215332 -2.095538377761841 -2.4027726650238037
3.63726806640625 -2.0224764347076416 -2.402784824371338
3.6774070262908936 -1.948586344718933 -2.402796506881714
3.7160398960113525 -1.8739027976989746 -2.4028074741363525
3.7531566619873047 -1.7984521389007568 -2.402818202972412
3.8552587032318115 -1.5678151845932007 -2.4028477668762207
3.915476083755493 -1.4108006954193115 -2.402865171432495
3.943190813064575 -1.3314129114151 -2.4028732776641846
4.016640663146973 -1.0901129245758057 -2.4028947353363037
4.130251407623291 -0.5130462646484375 -2.402928113937378
4.139777660369873 -0.4294970631599426 -2.402930974960327
4.147614479064941 -0.3457720875740051 -2.402933359146118
4.153754711151123 -0.2619079649448395 -2.402935266494751
4.161999225616455 -0.009804687462747097 -2.4029381275177
4.161349773406982 0.07428161799907684 -2.4029381275177
4.149201393127441 0.3262261748313904 -2.402935028076172
4.132627010345459 0.49357908964157104 -2.402930498123169
4.109301567077637 0.6601244807243347 -2.402924060821533
4.09512186050415 0.7430108189582825 -2.4029202461242676
4.079265117645264 0.8255913853645325 -2.4029157161712646
4.061743259429932 0.9078375101089478 -2.4029109477996826
4.042563438415527 0.9897094368934631 -2.4029054641723633
3.99926495552063 1.152207612991333 -2.402893543243408
3.86260986328125 1.5496368408203125 -2.4028549194335938
