ply
format ascii 1.0
element vertex 818
property float x
property float y
property float z
end_header
-13.657663345336914 -10.044666290283203 -2.4021551609039307
-13.024620056152344 -10.852945327758789 -2.4021551609039307
-12.802873611450195 -11.113667488098145 -2.4021551609039307
-12.575905799865723 -11.369865417480469 -2.4021551609039307
-12.343814849853516 -11.621420860290527 -2.4021551609039307
-11.864700317382812 -12.110239028930664 -2.4021551609039307
-11.366209030151367 -12.579301834106445 -2.4021551609039307
-10.976860046386719 -12.652911186218262 -2.3734021186828613
-10.54366397857666 -12.661161422729492 -2.3345391750335693
-10.124114990234375 -12.668984413146973 -2.2978198528289795
-9.71793270111084 -12.677696228027344 -2.2633485794067383
-9.403460502624512 -12.793998718261719 -2.2497551441192627
-8.879670143127441 -13.163519859313965 -2.2498159408569336
-8.612417221069336 -13.340538024902344 -2.249889850616455
-8.343058586120605 -13.514435768127441 -2.2503485679626465
-8.070109367370605 -13.682814598083496 -2.250793933868408
-7.793747425079346 -13.845598220825195 -2.251225471496582
-7.514026165008545 -14.00271224975586 -2.251642942428589
-7.231101036071777 -14.154084205627441 -2.2520461082458496
-6.364274978637695 -14.573102951049805 -2.253169536590576
-5.772552490234375 -14.822563171386719 -2.2538442611694336
-5.467213153839111 -14.922507286071777 -2.2517967224121094
-5.155421257019043 -15.003019332885742 -2.247779607772827
-4.846744060516357 -15.087790489196777 -2.245358943939209
-4.541435241699219 -15.184032440185547 -2.2455785274505615
-4.2349700927734375 -15.276603698730469 -2.2461650371551514
-3.9262194633483887 -15.360968589782715 -2.246455669403076
-3.3038170337677 -15.511021614074707 -2.247047185897827
-10.400360107421875 5.365292072296143 -1.9278981685638428
-12.619868278503418 5.2689361572265625 -2.2529098987579346
-12.904290199279785 4.491446018218994 -2.250929355621338
-13.06888198852539 3.964984655380249 -2.249856472015381
-13.145941734313965 3.700267791748047 -2.2498059272766113
-13.219589233398438 3.4345500469207764 -2.25008487701416
-14.309014320373535 2.80568790435791 -2.4021551609039307
-14.362812042236328 2.5162510871887207 -2.4021551609039307
-14.410685539245605 2.225781202316284 -2.4021551609039307
-14.452680587768555 1.93441641330719 -2.4021551609039307
-14.488787651062012 1.6422454118728638 -2.4021551609039307
-14.580525398254395 0.17379699647426605 -2.4021551609039307
-14.58106517791748 -0.12058837711811066 -2.4021551609039307
-14.564311027526855 -0.7090890407562256 -2.4021551609039307
-14.523818016052246 -1.296431303024292 -2.4021551609039307
-14.418715476989746 -2.1731820106506348 -2.4021551609039307
-14.196415901184082 -3.3292315006256104 -2.4021551609039307
-14.126312255859375 -3.615151882171631 -2.4021551609039307
-13.968865394592285 -4.182440280914307 -2.4021551609039307
-13.476276397705078 -5.568835258483887 -2.4021551609039307
-13.114485740661621 -6.374342441558838 -2.4021551609039307
-12.846476554870605 -6.898543357849121 -2.4021551609039307
-11.918745994567871 -8.400336265563965 -2.4021551609039307
-11.569899559020996 -8.874611854553223 -2.4021551609039307
-11.38841438293457 -9.106369018554688 -2.4021551609039307
-11.202252388000488 -9.334432601928711 -2.4021551609039307
-10.816316604614258 -9.779027938842773 -2.4021551609039307
-10.412763595581055 -10.20766544342041 -2.4021551609039307
-10.204553604125977 -10.415807723999023 -2.4021551609039307
-9.775792121887207 -10.81923770904541 -2.4021551609039307
-9.33106803894043 -11.205047607421875 -2.4021551609039307
-8.635595321655273 -11.749306678771973 -2.4021551609039307
-8.396859169006348 -11.921249389648438 -2.4021551609039307
-8.154398918151855 -12.08833122253418 -2.4021551609039307
-7.908682823181152 -12.25048828125 -2.4021551609039307
-7.407742023468018 -12.5597505569458 -2.4021551609039307
-6.795833587646484 -12.66414737701416 -2.367680549621582
-6.472599983215332 -12.669364929199219 -2.3437442779541016
-6.155704975128174 -12.67431354522705 -2.3211920261383057
-5.539124488830566 -12.68343734741211 -2.2800204753875732
-4.95510721206665 -12.72550106048584 -2.2497551441192627
-4.176572799682617 -13.002307891845703 -2.2497828006744385
-3.9132134914398193 -13.084059715270996 -2.24979829788208
-3.3822546005249023 -13.23278522491455 -2.2500405311584473
-3.114664316177368 -13.299487113952637 -2.250229835510254
-2.845795154571533 -13.360697746276855 -2.2504053115844727
-2.5756640434265137 -13.416390419006348 -2.2505671977996826
-2.304453134536743 -13.466537475585938 -2.2507150173187256
-2.0322325229644775 -13.511117935180664 -2.2508490085601807
-1.7591686248779297 -13.550114631652832 -2.2509689331054688
-1.4853332042694092 -13.58350944519043 -2.251075029373169
-1.2108641862869263 -13.611281394958496 -2.251167058944702
-0.9358715415000916 -13.633424758911133 -2.2512447834014893
-0.38478636741638184 -13.660775184631348 -2.2513580322265625
-10.761866569519043 5.279487609863281 -2.2531089782714844
-10.960752487182617 4.83833646774292 -2.251981735229492
-11.053376197814941 4.6149139404296875 -2.2514114379882812
-11.141444206237793 4.389716625213623 -2.2508373260498047
-11.224916458129883 4.162827014923096 -2.2502593994140625
-11.304609298706055 3.9346654415130615 -2.249851703643799
-11.381508827209473 3.7055840492248535 -2.249807596206665
-11.453779220581055 3.4749882221221924 -2.2497634887695312
-11.59632682800293 3.263995885848999 -2.2642879486083984
-12.369428634643555 3.2136731147766113 -2.4021551609039307
-12.48903751373291 2.711742401123047 -2.4021551609039307
-12.588362693786621 2.2053825855255127 -2.4021551609039307
-12.667120933532715 1.6954290866851807 -2.4021551609039307
-12.698769569396973 1.439353585243225 -2.4021551609039307
-12.725236892700195 1.1827081441879272 -2.4021551609039307
-12.74652099609375 0.9255767464637756 -2.4021551609039307
-12.762612342834473 0.6680597066879272 -2.4021551609039307
-12.773496627807617 0.4102770984172821 -2.4021551609039307
-12.77489185333252 -0.36366087198257446 -2.4021551609039307
-12.729467391967773 -1.1362627744674683 -2.4021551609039307
-12.673230171203613 -1.6491830348968506 -2.4021551609039307
-12.596327781677246 -2.159421920776367 -2.4021551609039307
-12.55016803741455 -2.413281202316284 -2.4021551609039307
-12.49887752532959 -2.6661415100097656 -2.4021551609039307
-12.442511558532715 -2.9179201126098633 -2.4021551609039307
-12.314584732055664 -3.4178099632263184 -2.4021551609039307
-12.243086814880371 -3.665721893310547 -2.4021551609039307
-12.085132598876953 -4.156952381134033 -2.4021551609039307
-11.811355590820312 -4.88083553314209 -2.4021551609039307
-11.710379600524902 -5.118281841278076 -2.4021551609039307
-11.604731559753418 -5.353643894195557 -2.4021551609039307
-11.37912654876709 -5.817723751068115 -2.4021551609039307
-11.134998321533203 -6.272329807281494 -2.4021551609039307
-10.734922409057617 -6.934845924377441 -2.4021551609039307
-10.59272575378418 -7.150132179260254 -2.4021551609039307
-10.446237564086914 -7.362518310546875 -2.4021551609039307
-10.295473098754883 -7.571907997131348 -2.4021551609039307
-9.981432914733887 -7.981325626373291 -2.4021551609039307
-9.81825065612793 -8.181206703186035 -2.4021551609039307
-9.651129722595215 -8.37774658203125 -2.4021551609039307
-9.480003356933594 -8.570876121520996 -2.4021551609039307
-9.305054664611816 -8.76050090789795 -2.4021551609039307
-8.943831443786621 -9.128987312316895 -2.4021551609039307
-8.75772762298584 -9.307673454284668 -2.4021551609039307
-8.568046569824219 -9.482574462890625 -2.4021551609039307
-7.978341579437256 -9.983816146850586 -2.4021551609039307
-7.775162696838379 -10.142841339111328 -2.4021551609039307
-7.146965980529785 -10.594880104064941 -2.4021551609039307
-6.931621551513672 -10.737004280090332 -2.4021551609039307
-6.269002437591553 -11.136877059936523 -2.4021551609039307
-6.042892932891846 -11.261165618896484 -2.4021551609039307
-5.8143229484558105 -11.380864143371582 -2.4021551609039307
-5.350170612335205 -11.606297492980957 -2.4021551609039307
-4.877242088317871 -11.812811851501465 -2.4021551609039307
-4.637850284576416 -11.908866882324219 -2.4021551609039307
-3.908592462539673 -12.16775131225586 -2.4021551609039307
-3.662012815475464 -12.24417495727539 -2.4021551609039307
-2.409520149230957 -12.550882339477539 -2.4021551609039307
-1.9009130001068115 -12.637917518615723 -2.4021551609039307
-1.644960880279541 -12.670414924621582 -2.40152907371521
-1.3856457471847534 -12.672060012817383 -2.3960490226745605
-1.1274389028549194 -12.673524856567383 -2.3915340900421143
-0.8700683116912842 -12.674810409545898 -2.3879737854003906
-9.469156265258789 4.8849101066589355 -2.25223708152771
-9.563746452331543 4.691722393035889 -2.2517430782318115
-9.654389381408691 4.496699333190918 -2.251244306564331
-9.90270709991455 3.901653289794922 -2.2498459815979004
-9.979283332824707 3.700876474380493 -2.249807596206665
-10.120450019836426 3.2949583530426025 -2.2497551441192627
-10.68992805480957 3.243239641189575 -2.3613431453704834
-10.939068794250488 3.0790905952453613 -2.4021551609039307
-11.10537338256836 2.411306142807007 -2.4021551609039307
-11.15180778503418 2.1866166591644287 -2.4021551609039307
-11.193678855895996 1.961041808128357 -2.4021551609039307
-11.230984687805176 1.7346655130386353 -2.4021551609039307
-11.263714790344238 1.5075902938842773 -2.4021551609039307
-11.315390586853027 1.0516741275787354 -2.4021551609039307
-11.363351821899414 0.1354498267173767 -2.4021551609039307
-11.337242126464844 -0.781656801700592 -2.4021551609039307
-11.319153785705566 -1.0103750228881836 -2.4021551609039307
-11.296452522277832 -1.2386764287948608 -2.4021551609039307
-11.269146919250488 -1.4664678573608398 -2.4021551609039307
-11.2372407913208 -1.6936715841293335 -2.4021551609039307
-11.200759887695312 -1.9201750755310059 -2.4021551609039307
-11.159713745117188 -2.1459097862243652 -2.4021551609039307
-11.06400203704834 -2.594641923904419 -2.4021551609039307
-10.950162887573242 -3.039135694503784 -2.4021551609039307
-10.886648178100586 -3.259589672088623 -2.4021551609039307
-10.818625450134277 -3.47869610786438 -2.4021551609039307
-10.74618911743164 -3.696394681930542 -2.4021551609039307
-10.58823013305664 -4.127166271209717 -2.4021551609039307
-10.502753257751465 -4.340079307556152 -2.4021551609039307
-9.90134334564209 -5.577410697937012 -2.4021551609039307
-9.786725044250488 -5.776160717010498 -2.4021551609039307
-9.017032623291016 -6.916441440582275 -2.4021551609039307
-8.87557601928711 -7.097062110900879 -2.4021551609039307
-8.730486869812012 -7.274800777435303 -2.4021551609039307
-8.115195274353027 -7.955358505249023 -2.4021551609039307
-7.952930927276611 -8.117574691772461 -2.4021551609039307
-7.094409465789795 -8.87769603729248 -2.4021551609039307
-6.730255603790283 -9.156837463378906 -2.4021551609039307
-6.544034957885742 -9.290841102600098 -2.4021551609039307
-6.355137348175049 -9.421055793762207 -2.4021551609039307
-5.969658851623535 -9.669915199279785 -2.4021551609039307
-5.773224830627441 -9.788456916809082 -2.4021551609039307
-5.373391151428223 -10.013528823852539 -2.4021551609039307
-4.336933612823486 -10.50405216217041 -2.4021551609039307
-3.9093871116638184 -10.67055892944336 -2.4021551609039307
-3.0358667373657227 -10.951147079467773 -2.4021551609039307
-2.814173460006714 -11.010202407836914 -2.4021551609039307
-2.3674304485321045 -11.114826202392578 -2.4021551609039307
-1.9168261289596558 -11.201334953308105 -2.4021551609039307
-1.6903076171875 -11.237749099731445 -2.4021551609039307
-1.2352917194366455 -11.296820640563965 -2.4021551609039307
-0.3199719190597534 -11.359654426574707 -2.4021551609039307
-8.512222290039062 4.391242980957031 -2.2510852813720703
-8.597442626953125 4.217672824859619 -2.250641107559204
-8.679107666015625 4.042445182800293 -2.2501931190490723
-8.906208038330078 3.5090343952178955 -2.2497713565826416
-8.97516918182373 3.328495502471924 -2.2497551441192627
-9.780702590942383 2.967388153076172 -2.4021551609039307
-9.838637351989746 2.769335985183716 -2.4021551609039307
-9.892498970031738 2.57015061378479 -2.4021551609039307
-9.942384719848633 2.369924306869507 -2.4021551609039307
-9.988199234008789 2.1687309741973877 -2.4021551609039307
-10.130597114562988 1.3559277057647705 -2.4021551609039307
-10.177075386047363 0.9458770751953125 -2.4021551609039307
-10.194096565246582 0.7402349710464478 -2.4021551609039307
-10.215667724609375 0.32812070846557617 -2.4021551609039307
-10.22021198272705 0.12182311713695526 -2.4021551609039307
-10.220587730407715 -0.08452636748552322 -2.4021551609039307
-10.208842277526855 -0.49703583121299744 -2.4021551609039307
-10.196731567382812 -0.7030224204063416 -2.4021551609039307
-10.180456161499023 -0.9087322950363159 -2.4021551609039307
-10.135478973388672 -1.3189431428909302 -2.4021551609039307
-10.037057876586914 -1.930033564567566 -2.4021551609039307
-9.996050834655762 -2.1322624683380127 -2.4021551609039307
-9.950966835021973 -2.3336219787597656 -2.4021551609039307
-9.90182876586914 -2.534038543701172 -2.4021551609039307
-9.791532516479492 -2.931688070297241 -2.4021551609039307
-9.730291366577148 -3.128746509552002 -2.4021551609039307
-9.665136337280273 -3.3245418071746826 -2.4021551609039307
-9.596057891845703 -3.518976926803589 -2.4021551609039307
-9.523066520690918 -3.711977481842041 -2.4021551609039307
-9.446186065673828 -3.9034719467163086 -2.4021551609039307
-9.280917167663574 -4.28160285949707 -2.4021551609039307
-8.905221939086914 -5.016328811645508 -2.4021551609039307
-8.585309028625488 -5.546175003051758 -2.4021551609039307
-8.354434967041016 -5.888209819793701 -2.4021551609039307
-8.233860969543457 -6.055671215057373 -2.4021551609039307
-7.7185258865356445 -6.700145721435547 -2.4021551609039307
-7.581685543060303 -6.854599952697754 -2.4021551609039307
-7.441761493682861 -7.006256103515625 -2.4021551609039307
-7.152865886688232 -7.300950527191162 -2.4021551609039307
-6.852336883544922 -7.583737850189209 -2.4021551609039307
-6.54060697555542 -7.854172706604004 -2.4021551609039307
-6.380720138549805 -7.984610557556152 -2.4021551609039307
-6.218228816986084 -8.111790657043457 -2.4021551609039307
-5.885714530944824 -8.356191635131836 -2.4021551609039307
-5.7158331871032715 -8.473308563232422 -2.4021551609039307
-5.192460060119629 -8.803750038146973 -2.4021551609039307
-5.013667106628418 -8.906779289245605 -2.4021551609039307
-4.832834243774414 -9.00617790222168 -2.4021551609039307
-4.650027751922607 -9.101906776428223 -2.4021551609039307
-4.465332984924316 -9.193925857543945 -2.4021551609039307
-3.9006407260894775 -9.447356224060059 -2.4021551609039307
-3.7091221809387207 -9.524173736572266 -2.4021551609039307
-3.516111373901367 -9.597110748291016 -2.4021551609039307
-3.321645498275757 -9.6661376953125 -2.4021551609039307
-3.1258325576782227 -9.731223106384277 -2.4021551609039307
-2.9287469387054443 -9.792343139648438 -2.4021551609039307
-2.730461359024048 -9.84947395324707 -2.4021551609039307
-2.330645799636841 -9.951665878295898 -2.4021551609039307
-2.1292712688446045 -9.996687889099121 -2.4021551609039307
-1.9270275831222534 -10.03763484954834 -2.4021551609039307
-1.5202648639678955 -10.107240676879883 -2.4021551609039307
-1.315914273262024 -10.135872840881348 -2.4021551609039307
-1.1110217571258545 -10.16037368774414 -2.4021551609039307
-0.9056823253631592 -10.180730819702148 -2.4021551609039307
-0.6999743580818176 -10.196941375732422 -2.4021551609039307
-0.4939807057380676 -10.208992958068848 -2.4021551609039307
-7.723392963409424 3.9843058586120605 -2.250135660171509
-7.801204681396484 3.827061653137207 -2.2498326301574707
-7.876768112182617 3.6687443256378174 -2.249802350997925
-7.949112892150879 3.5089378356933594 -2.2497715950012207
-8.018266677856445 3.347723960876465 -2.2497551441192627
-8.247599601745605 3.249540328979492 -2.2952206134796143
-8.930642127990723 2.5137627124786377 -2.4021551609039307
-8.9794921875 2.3329596519470215 -2.4021551609039307
-9.066412925720215 1.9685839414596558 -2.4021551609039307
-9.10430908203125 1.7851488590240479 -2.4021551609039307
-9.138494491577148 1.600993037223816 -2.4021551609039307
-9.195673942565918 1.230792760848999 -2.4021551609039307
-9.218643188476562 1.0448956489562988 -2.4021551609039307
-9.253313064575195 0.6719213724136353 -2.4021551609039307
-9.277359962463379 -0.07672607153654099 -2.4021551609039307
-9.273916244506836 -0.26399901509284973 -2.4021551609039307
-9.266728401184082 -0.45116332173347473 -2.4021551609039307
-9.240931510925293 -0.8248675465583801 -2.4021551609039307
-9.222391128540039 -1.0112535953521729 -2.4021551609039307
-9.174060821533203 -1.3827102184295654 -2.4021551609039307
-9.073539733886719 -1.9354809522628784 -2.4021551609039307
-8.988017082214355 -2.3001794815063477 -2.4021551609039307
-8.939745903015137 -2.481152057647705 -2.4021551609039307
-8.832306861877441 -2.840003252029419 -2.4021551609039307
-8.501150131225586 -3.715607166290283 -2.4021551609039307
-8.424407005310059 -3.8864665031433105 -2.4021551609039307
-8.344228744506836 -4.055742263793945 -2.4021551609039307
-8.1737060546875 -4.389272212982178 -2.4021551609039307
-8.083513259887695 -4.553386688232422 -2.4021551609039307
-7.583427429199219 -5.34480619430542 -2.4021551609039307
-7.473973274230957 -5.4968109130859375 -2.4021551609039307
-7.361487865447998 -5.646568298339844 -2.4021551609039307
-7.246002674102783 -5.794026851654053 -2.4021551609039307
-7.127541542053223 -5.939126968383789 -2.4021551609039307
-7.006204128265381 -6.081809043884277 -2.4021551609039307
-6.881997585296631 -6.222012996673584 -2.4021551609039307
-6.625229835510254 -6.494739055633545 -2.4021551609039307
-5.791864395141602 -7.247734069824219 -2.4021551609039307
-5.494570732116699 -7.475623607635498 -2.4021551609039307
-5.031994342803955 -7.794504642486572 -2.4021551609039307
-4.713254928588867 -7.991272926330566 -2.4021551609039307
-4.3868255615234375 -8.175020217895508 -2.4021551609039307
-4.220898151397705 -8.261919975280762 -2.4021551609039307
-4.053239822387695 -8.34544563293457 -2.4021551609039307
-3.3668718338012695 -8.64521598815918 -2.4021551609039307
-3.0151000022888184 -8.774078369140625 -2.4021551609039307
-2.115546941757202 -9.033254623413086 -2.4021551609039307
-1.7491893768310547 -9.11129093170166 -2.4021551609039307
-1.564886450767517 -9.144742012023926 -2.4021551609039307
-1.3799645900726318 -9.174468994140625 -2.4021551609039307
-1.1944652795791626 -9.200457572937012 -2.4021551609039307
-1.008486270904541 -9.222697257995605 -2.4021551609039307
-0.6353747248649597 -9.255894660949707 -2.4021551609039307
-0.4483923316001892 -9.266829490661621 -2.4021551609039307
-0.2612255811691284 -9.27399730682373 -2.4021551609039307
-7.062771320343018 3.643512487411499 -2.249797821044922
-7.134818077087402 3.500148296356201 -2.249770402908325
-7.363594055175781 3.250460147857666 -2.278636932373047
-7.894720077514648 3.110508441925049 -2.4021551609039307
-7.955913066864014 2.9504973888397217 -2.4021551609039307
-8.013848304748535 2.789288282394409 -2.4021551609039307
-8.068538665771484 2.6269426345825195 -2.4021551609039307
-8.168065071105957 2.2990972995758057 -2.4021551609039307
-8.254142761230469 1.9675066471099854 -2.4021551609039307
-8.292170524597168 1.8004735708236694 -2.4021551609039307
-8.32682991027832 1.6327025890350342 -2.4021551609039307
-8.35810375213623 1.464274287223816 -2.4021551609039307
-8.385950088500977 1.295239806175232 -2.4021551609039307
-8.431401252746582 0.9556652903556824 -2.4021551609039307
-8.448974609375 0.785264253616333 -2.4021551609039307
-8.473797798156738 0.44356200098991394 -2.4021551609039307
-8.484785079956055 0.10113707929849625 -2.4021551609039307
-8.485108375549316 -0.0701739490032196 -2.4021551609039307
-8.481961250305176 -0.2414538562297821 -2.4021551609039307
-8.475350379943848 -0.4126379191875458 -2.4021551609039307
-8.465306282043457 -0.583646833896637 -2.4021551609039307
-8.43484115600586 -0.9248955845832825 -2.4021551609039307
-8.414451599121094 -1.0949867963790894 -2.4021551609039307
-8.390631675720215 -1.264631986618042 -2.4021551609039307
-8.363384246826172 -1.4337561130523682 -2.4021551609039307
-8.298688888549805 -1.7701971530914307 -2.4021551609039307
-8.176334381103516 -2.2692720890045166 -2.4021551609039307
-8.128829002380371 -2.4338676929473877 -2.4021551609039307
-8.07803726196289 -2.597473621368408 -2.4021551609039307
-8.023978233337402 -2.7600276470184326 -2.4021551609039307
-7.842198371887207 -3.2406527996063232 -2.4021551609039307
-7.704987525939941 -3.5545732975006104 -2.4021551609039307
-7.631668567657471 -3.7093992233276367 -2.4021551609039307
-7.555231094360352 -3.8627068996429443 -2.4021551609039307
-7.4756999015808105 -4.01444149017334 -2.4021551609039307
-7.393143177032471 -4.164544582366943 -2.4021551609039307
-7.218996524810791 -4.459589004516602 -2.4021551609039307
-7.033036231994629 -4.747369289398193 -2.4021551609039307
-6.935768127441406 -4.888380527496338 -2.4021551609039307
-6.83571195602417 -5.02740478515625 -2.4021551609039307
-6.732846736907959 -5.16437292098999 -2.4021551609039307
-6.6272149085998535 -5.299238681793213 -2.4021551609039307
-6.178133964538574 -5.816572189331055 -2.4021551609039307
-5.938301086425781 -6.061235427856445 -2.4021551609039307
-5.814728260040283 -6.179868698120117 -2.4021551609039307
-5.688787937164307 -6.296001434326172 -2.4021551609039307
-5.560527324676514 -6.40956449508667 -2.4021551609039307
-5.429986476898193 -6.520508289337158 -2.4021551609039307
-5.025353908538818 -6.83723258972168 -2.4021551609039307
-4.745265007019043 -7.03452205657959 -2.4021551609039307
-4.6023406982421875 -7.128896713256836 -2.4021551609039307
-3.8604419231414795 -7.556374549865723 -2.4021551609039307
-3.5522661209106445 -7.70604944229126 -2.4021551609039307
-1.3935742378234863 -3.5783674716949463 -1.087119698524475
-1.2125658988952637 -3.309661865234375 -0.9978440403938293
-1.1266356706619263 -3.2785563468933105 -0.9814072847366333
-0.7533850073814392 -3.216895341873169 -0.935321033000946
-0.6223510503768921 -3.241743803024292 -0.9344732165336609
-0.5565185546875 -3.2521233558654785 -0.934036374092102
-0.4905138909816742 -3.261113166809082 -0.9335833787918091
-0.42436766624450684 -3.268707275390625 -0.9331142902374268
-0.35810545086860657 -3.27490496635437 -0.9326293468475342
-0.2935522496700287 -3.2998125553131104 -0.9378434419631958
-0.229583740234375 -3.3444950580596924 -0.9490307569503784
-0.09665282815694809 -3.4313724040985107 -0.9717822074890137
-7.144758224487305 3.1538689136505127 -2.4021551609039307
-7.206967830657959 3.00899338722229 -2.4021551609039307
-7.322572231292725 2.7156145572662354 -2.4021551609039307
-7.426208972930908 2.4178173542022705 -2.4021551609039307
-7.473437309265137 2.2674036026000977 -2.4021551609039307
-7.517757892608643 2.116070508956909 -2.4021551609039307
-7.558943271636963 1.9638713598251343 -2.4021551609039307
-7.663956642150879 1.5027276277542114 -2.4021551609039307
-7.7183709144592285 1.1921294927597046 -2.4021551609039307
-7.776377201080322 0.7227508425712585 -2.4021551609039307
-7.7992143630981445 0.40825071930885315 -2.4021551609039307
-7.809338092803955 0.09308593720197678 -2.4021551609039307
-7.809625148773193 -0.06458739936351776 -2.4021551609039307
-7.806728839874268 -0.2222326546907425 -2.4021551609039307
-7.791377544403076 -0.5371856689453125 -2.4021551609039307
-7.778929233551025 -0.6943710446357727 -2.4021551609039307
-7.763363361358643 -0.8512664437294006 -2.4021551609039307
-7.744585990905762 -1.0078142881393433 -2.4021551609039307
-7.722670078277588 -1.1639574766159058 -2.4021551609039307
-7.697597503662109 -1.319619059562683 -2.4021551609039307
-7.6693902015686035 -1.474752426147461 -2.4021551609039307
-7.56605863571167 -1.936277151107788 -2.4021551609039307
-7.525430202484131 -2.088620662689209 -2.4021551609039307
-7.481729984283447 -2.2401175498962402 -2.4021551609039307
-7.385204315185547 -2.5403075218200684 -2.4021551609039307
-7.3324151039123535 -2.688875675201416 -2.4021551609039307
-7.1562180519104 -3.1277763843536377 -2.4021551609039307
-7.024126052856445 -3.4141008853912354 -2.4021551609039307
-6.880581378936768 -3.6948628425598145 -2.4021551609039307
-6.80458927154541 -3.8330132961273193 -2.4021551609039307
-6.7258219718933105 -3.969602346420288 -2.4021551609039307
-6.644314289093018 -4.10457181930542 -2.4021551609039307
-6.383682727813721 -4.499224662780762 -2.4021551609039307
-6.291614055633545 -4.6271820068359375 -2.4021551609039307
-6.196777820587158 -4.75324821472168 -2.4021551609039307
-5.8977813720703125 -5.119629859924316 -2.4021551609039307
-5.793219566345215 -5.237651348114014 -2.4021551609039307
-5.686299800872803 -5.3535308837890625 -2.4021551609039307
-5.577077388763428 -5.467230796813965 -2.4021551609039307
-5.465565204620361 -5.57871150970459 -2.4021551609039307
-5.235916614532471 -5.7947893142700195 -2.4021551609039307
-5.117860794067383 -5.8993120193481445 -2.4021551609039307
-4.625301361083984 -6.292934417724609 -2.4021551609039307
-4.497313976287842 -6.385025978088379 -2.4021551609039307
-4.367495059967041 -6.474515914916992 -2.4021551609039307
-3.83097767829895 -6.805735111236572 -2.4021551609039307
-1.7520384788513184 -3.26499080657959 -1.139694333076477
-1.6206127405166626 -3.1721622943878174 -1.0956447124481201
-1.412474274635315 -3.0641281604766846 -1.0377742052078247
-1.1582189798355103 -2.9740355014801025 -0.981670081615448
-1.0867431163787842 -2.9662327766418457 -0.9716536998748779
-1.0162218809127808 -2.957249402999878 -0.9617933630943298
-0.9466662406921387 -2.9471240043640137 -0.9520894885063171
-0.8115441799163818 -2.927447557449341 -0.9343785047531128
-0.5711694359779358 -2.9751455783843994 -0.9318019151687622
-0.5106518268585205 -2.9840896129608154 -0.9311840534210205
-0.4500134289264679 -2.991838216781616 -0.9305770397186279
-0.38927367329597473 -2.9983928203582764 -0.9299813508987427
-0.3286157250404358 -3.0052175521850586 -0.9298502802848816
-0.27001953125 -3.035275459289551 -0.9372726082801819
-0.21036742627620697 -3.0645534992218018 -0.9448089599609375
-0.1496618688106537 -3.0930275917053223 -0.9524623155593872
-0.08790160715579987 -3.1206753253936768 -0.9602335691452026
-6.487939357757568 3.1828038692474365 -2.4021551609039307
-6.550887107849121 3.051178455352783 -2.4021551609039307
-6.611118793487549 2.9183080196380615 -2.4021551609039307
-6.668647289276123 2.7842533588409424 -2.4021551609039307
-6.7756500244140625 2.512787342071533 -2.4021551609039307
-6.871551513671875 2.2372326850891113 -2.4021551609039307
-6.99437141418457 1.8171911239624023 -2.4021551609039307
-7.062026023864746 1.5333715677261353 -2.4021551609039307
-7.118166446685791 1.2470464706420898 -2.4021551609039307
-7.180598735809326 0.8138909935951233 -2.4021551609039307
-7.195566177368164 0.6687695384025574 -2.4021551609039307
-7.2260637283325195 0.08613342046737671 -2.4021551609039307
-7.223650932312012 -0.20563414692878723 -2.4021551609039307
-7.209470272064209 -0.4970620572566986 -2.4021551609039307
-7.18351936340332 -0.7876861691474915 -2.4021551609039307
-7.166166305541992 -0.9325399398803711 -2.4021551609039307
-7.145868301391602 -1.0770217180252075 -2.4021551609039307
-7.122671127319336 -1.221057653427124 -2.4021551609039307
-7.096568584442139 -1.364603877067566 -2.4021551609039307
-7.035699844360352 -1.6499563455581665 -2.4021551609039307
-7.000955104827881 -1.7916579246520996 -2.4021551609039307
-6.963359832763672 -1.9326223134994507 -2.4021551609039307
-6.92293119430542 -2.072805404663086 -2.4021551609039307
-6.879659652709961 -2.2121362686157227 -2.4021551609039307
-6.833608150482178 -2.3505733013153076 -2.4021551609039307
-6.7326483726501465 -2.6244380474090576 -2.4021551609039307
-6.6787919998168945 -2.7598965167999268 -2.4021551609039307
-6.4994964599609375 -3.1591038703918457 -2.4021551609039307
-6.36667537689209 -3.418898344039917 -2.4021551609039307
-6.223476409912109 -3.6731159687042236 -2.4021551609039307
-6.070127487182617 -3.921348810195923 -2.4021551609039307
-5.821638107299805 -4.281582832336426 -2.4021551609039307
-5.734019756317139 -4.398231029510498 -2.4021551609039307
-5.6440629959106445 -4.513089656829834 -2.4021551609039307
-5.5518083572387695 -4.6261138916015625 -2.4021551609039307
-5.261555194854736 -4.953680515289307 -2.4021551609039307
-5.160531997680664 -5.0588884353637695 -2.4021551609039307
-4.844856262207031 -5.36198091506958 -2.4021551609039307
-4.735604763031006 -5.4586968421936035 -2.4021551609039307
-4.624450206756592 -5.553187847137451 -2.4021551609039307
-4.511404991149902 -5.645410060882568 -2.4021551609039307
-4.279843807220459 -5.822920322418213 -2.4021551609039307
-2.2477221488952637 -3.191185235977173 -1.2974860668182373
-1.825869083404541 -2.9576189517974854 -1.1553815603256226
-1.7115063667297363 -2.9018425941467285 -1.1198638677597046
-1.6110570430755615 -2.86204195022583 -1.0917282104492188
-1.3496655225753784 -2.778900623321533 -1.0269068479537964
-1.0610473155975342 -2.7245192527770996 -0.9719001650810242
-0.99623042345047 -2.7191827297210693 -0.9626246690750122
-0.9321911334991455 -2.7127151489257812 -0.9534773230552673
-0.8081188797950745 -2.701967477798462 -0.9374595284461975
-0.5855212211608887 -2.748955249786377 -0.9342663288116455
-0.36100339889526367 -2.7806410789489746 -0.9320579171180725
-0.30559203028678894 -2.794664144515991 -0.9344996213912964
-0.19521117210388184 -2.843766212463379 -0.9475083947181702
-0.13873291015625 -2.8671743869781494 -0.9541803002357483
-6.089208126068115 2.8361546993255615 -2.4021551609039307
-6.249703884124756 2.4623754024505615 -2.4021551609039307
-6.3440117835998535 2.208087205886841 -2.4021551609039307
-6.501462936401367 1.689130187034607 -2.4021551609039307
-6.564342498779297 1.4253112077713013 -2.4021551609039307
-6.591779708862305 1.2924987077713013 -2.4021551609039307
-6.616531848907471 1.1591650247573853 -2.4021551609039307
-6.638580799102783 1.025352120399475 -2.4021551609039307
-6.674560546875 0.7565343976020813 -2.4021551609039307
-6.6996588706970215 0.4864892363548279 -2.4021551609039307
-6.716821193695068 0.0800628662109375 -2.4021551609039307
-6.7093505859375 -0.32665708661079407 -2.4021551609039307
-6.701394081115723 -0.46203336119651794 -2.4021551609039307
-6.69069242477417 -0.5972293019294739 -2.4021551609039307
-6.620715141296387 -1.1350064277648926 -2.4021551609039307
-6.539871692657471 -1.5336788892745972 -2.4021551609039307
-6.394842624664307 -2.056243658065796 -2.4021551609039307
-6.352025032043457 -2.1849217414855957 -2.4021551609039307
-6.208126544952393 -2.565399408340454 -2.4021551609039307
-6.1550726890563965 -2.690204381942749 -2.4021551609039307
-6.041457176208496 -2.9364724159240723 -2.4021551609039307
-5.852635860443115 -3.2967796325683594 -2.4021551609039307
-5.78488826751709 -3.414260149002075 -2.4021551609039307
-5.5676140785217285 -3.7581608295440674 -2.4021551609039307
-5.329925537109375 -4.0882744789123535 -2.4021551609039307
-5.246309280395508 -4.195037841796875 -2.4021551609039307
-5.072689056396484 -4.403399467468262 -2.4021551609039307
-4.890801906585693 -4.604579448699951 -2.4021551609039307
-4.796854019165039 -4.702375888824463 -2.4021551609039307
-4.700958728790283 -4.7982587814331055 -2.4021551609039307
-4.503451824188232 -4.984106063842773 -2.4021551609039307
-4.401883602142334 -5.074010372161865 -2.4021551609039307
-2.2746264934539795 -2.8463871479034424 -1.302978515625
-1.93017578125 -2.7403504848480225 -1.1986569166183472
-1.5530602931976318 -2.6331982612609863 -1.093233585357666
-1.47451651096344 -2.6194794178009033 -1.0749577283859253
-1.3256847858428955 -2.5948758125305176 -1.0420324802398682
-1.2527331113815308 -2.5793187618255615 -1.0254180431365967
-1.1814379692077637 -2.5629324913024902 -1.0092144012451172
-1.0582983493804932 -2.563197612762451 -0.99167400598526
-0.9977697730064392 -2.5620381832122803 -0.983230710029602
-0.87599116563797 -2.54917311668396 -0.9639256000518799
-0.8161095976829529 -2.540682554244995 -0.9542893767356873
-0.7629027962684631 -2.5507848262786865 -0.9521035552024841
-0.6044458150863647 -2.580937147140503 -0.9479356408119202
-0.5515099763870239 -2.589275360107422 -0.9467150568962097
-0.4455310106277466 -2.6035475730895996 -0.9445815682411194
-0.07588379085063934 -2.694035291671753 -0.9637888669967651
-5.570784568786621 2.8738293647766113 -2.4021551609039307
-5.7345147132873535 2.5313615798950195 -2.4021551609039307
-5.877233982086182 2.1796069145202637 -2.4021551609039307
-5.920034885406494 2.0605180263519287 -2.4021551609039307
-5.960427284240723 1.9405895471572876 -2.4021551609039307
-5.998387336730957 1.819863200187683 -2.4021551609039307
-6.097541332244873 1.453446626663208 -2.4021551609039307
-6.1512451171875 1.2061206102371216 -2.4021551609039307
-6.194919109344482 0.9568273425102234 -2.4021551609039307
-6.2129716873168945 0.8315746784210205 -2.4021551609039307
-6.241477012634277 0.5800952315330505 -2.4021551609039307
-6.259805679321289 0.32767027616500854 -2.4021551609039307
-6.265146732330322 0.20123291015625 -2.4021551609039307
-6.260960102081299 -0.30482542514801025 -2.4021551609039307
-6.24354887008667 -0.5573144555091858 -2.4021551609039307
-6.215942859649658 -0.8088934421539307 -2.4021551609039307
-6.198371887207031 -0.9342159628868103 -2.4021551609039307
-6.102809906005859 -1.4311825037002563 -2.4021551609039307
-6.072673320770264 -1.55409574508667 -2.4021551609039307
-6.00498628616333 -1.7979629039764404 -2.4021551609039307
-5.927512168884277 -2.0389010906219482 -2.4021551609039307
-5.885145664215088 -2.1581456661224365 -2.4021551609039307
-5.840382099151611 -2.2765109539031982 -2.4021551609039307
-5.793275833129883 -2.393958330154419 -2.4021551609039307
-5.522493839263916 -2.9655728340148926 -2.4021551609039307
-5.461500644683838 -3.076453685760498 -2.4021551609039307
-5.265265941619873 -3.401402473449707 -2.4021551609039307
-5.1236724853515625 -3.611168146133423 -2.4021551609039307
-5.0497236251831055 -3.7138688564300537 -2.4021551609039307
-4.973721027374268 -3.815051794052124 -2.4021551609039307
-4.895693302154541 -3.914679765701294 -2.4021551609039307
-4.815664768218994 -4.012718200683594 -2.4021551609039307
-4.563945293426514 -4.296851634979248 -2.4021551609039307
-4.476275444030762 -4.388110160827637 -2.4021551609039307
-4.202657222747803 -4.651014804840088 -2.4021551609039307
-2.0761327743530273 -2.5980007648468018 -1.2744483947753906
-1.8801097869873047 -2.5579769611358643 -1.2165627479553223
-1.6013293266296387 -2.4804394245147705 -1.1314235925674438
-1.52593994140625 -2.4717819690704346 -1.1131937503814697
-1.3810888528823853 -2.4535024166107178 -1.0789533853530884
-1.1727490425109863 -2.414634943008423 -1.028696060180664
-1.1135021448135376 -2.415555953979492 -1.0193023681640625
-1.053839087486267 -2.413109302520752 -1.0090845823287964
-0.7716259360313416 -2.402198076248169 -0.9668920636177063
-0.7218871712684631 -2.4136486053466797 -0.9654374718666077
-0.6720617413520813 -2.424298048019409 -0.9640727043151855
-0.6221557259559631 -2.4341301918029785 -0.9627904891967773
-0.5721765160560608 -2.443145751953125 -0.9615908861160278
-0.47202879190444946 -2.4587347507476807 -0.959438145160675
-0.3716833293437958 -2.4710781574249268 -0.9576142430305481
-0.3215917944908142 -2.4770705699920654 -0.9572248458862305
-0.2725195288658142 -2.492205858230591 -0.9607512950897217
-0.2229943871498108 -2.5066630840301514 -0.964392364025116
-0.17301513254642487 -2.520435094833374 -0.9681493639945984
-0.1225878894329071 -2.5335092544555664 -0.9720227122306824
-5.21610164642334 2.690864086151123 -2.4021551609039307
-5.269378662109375 2.585014581680298 -2.4021551609039307
-5.320486545562744 2.478111505508423 -2.4021551609039307
-5.503052234649658 2.0408403873443604 -2.4021551609039307
-5.543130397796631 1.9293328523635864 -2.4021551609039307
-5.5809478759765625 1.8170397281646729 -2.4021551609039307
-5.649750709533691 1.590269684791565 -2.4021551609039307
-5.735644340515137 1.2453765869140625 -2.4021551609039307
-5.781246662139893 1.0128283500671387 -2.4021551609039307
-5.800515651702881 0.8959094285964966 -2.4021551609039307
-5.831950664520264 0.6610277891159058 -2.4021551609039307
-5.861269950866699 0.30680906772613525 -2.4021551609039307
-5.866269588470459 0.18842101097106934 -2.4021551609039307
-5.86887788772583 0.06995605677366257 -2.4021551609039307
-5.85539436340332 -0.4037051200866699 -2.4021551609039307
-5.846047401428223 -0.521832287311554 -2.4021551609039307
-5.834288120269775 -0.639746367931366 -2.4021551609039307
-5.8202080726623535 -0.7573931813240051 -2.4021551609039307
-5.784904479980469 -0.9917208552360535 -2.4021551609039307
-5.763703346252441 -1.1083062887191772 -2.4021551609039307
-5.7401556968688965 -1.2244354486465454 -2.4021551609039307
-5.68604850769043 -1.455151915550232 -2.4021551609039307
-5.5875420570373535 -1.7966580390930176 -2.4021551609039307
-5.5501322746276855 -1.9090930223464966 -2.4021551609039307
-5.378041744232178 -2.3505892753601074 -2.4021551609039307
-5.278773784637451 -2.5657665729522705 -2.4021551609039307
-5.225908279418945 -2.6718099117279053 -2.4021551609039307
-5.054586887359619 -2.983238458633423 -2.4021551609039307
-4.9933366775512695 -3.0846714973449707 -2.4021551609039307
-4.864748001098633 -3.283724069595337 -2.4021551609039307
-4.797466278076172 -3.381260395050049 -2.4021551609039307
-4.50907039642334 -3.7572460174560547 -2.4021551609039307
-4.4323015213012695 -3.847506523132324 -2.4021551609039307
-4.273378372192383 -4.023288249969482 -2.4021551609039307
-4.191288471221924 -4.108736038208008 -2.4021551609039307
-4.022011756896973 -4.274578094482422 -2.4021551609039307
-3.9348998069763184 -4.354903697967529 -2.4021551609039307
-2.121358633041382 -2.4452693462371826 -1.3249077796936035
-2.0222363471984863 -2.428365707397461 -1.293360710144043
-1.600429654121399 -2.372525930404663 -1.1712886095046997
-1.5280969142913818 -2.3670053482055664 -1.1530952453613281
-1.3929064273834229 -2.3616583347320557 -1.1221615076065063
-1.2633178234100342 -2.3542425632476807 -1.0934944152832031
-1.2006982564926147 -2.350229024887085 -1.0801489353179932
-0.9701904058456421 -2.3498034477233887 -1.0404642820358276
-0.9143871665000916 -2.3479323387145996 -1.0312504768371582
-0.8594616651535034 -2.345874547958374 -1.022516131401062
-0.8064635992050171 -2.3468432426452637 -1.0156337022781372
-0.6005871295928955 -2.3497443199157715 -0.9926080107688904
-0.5503442287445068 -2.3499233722686768 -0.9877883791923523
-0.5005273222923279 -2.349919319152832 -0.9833377003669739
-0.4020349085330963 -2.349370002746582 -0.9755154252052307
-0.3532946705818176 -2.3488287925720215 -0.9721304178237915
-0.3055505156517029 -2.3535125255584717 -0.9713175892829895
-0.2588769495487213 -2.367457866668701 -0.9747167825698853
-0.2117907702922821 -2.38073992729187 -0.9782252311706543
-0.16429199278354645 -2.3933513164520264 -0.9818438291549683
-5.128165245056152 2.0204901695251465 -2.4021551609039307
-5.2055463790893555 1.8118340969085693 -2.4021551609039307
-5.241059303283691 1.7063794136047363 -2.4021551609039307
-5.274440765380859 1.6002240180969238 -2.4021551609039307
-5.305672645568848 1.493420958518982 -2.4021551609039307
-5.408851146697998 1.060552954673767 -2.4021551609039307
-5.4472551345825195 0.8413470387458801 -2.4021551609039307
-5.463129043579102 0.7312109470367432 -2.4021551609039307
-5.476776599884033 0.620770275592804 -2.4021551609039307
-5.488192558288574 0.5100836157798767 -2.4021551609039307
-5.497373104095459 0.39918699860572815 -2.4021551609039307
-5.504310607910156 0.28812316060066223 -2.4021551609039307
-5.511455535888672 0.06569518893957138 -2.4021551609039307
-5.51165771484375 -0.045582275837659836 -2.4021551609039307
-5.509613513946533 -0.15684081614017487 -2.4021551609039307
-5.505325794219971 -0.26803648471832275 -2.4021551609039307
-5.490018367767334 -0.49005216360092163 -2.4021551609039307
-5.450287818908691 -0.8214648365974426 -2.4021551609039307
-5.432593822479248 -0.9313235282897949 -2.4021551609039307
-5.412685394287109 -1.0408092737197876 -2.4021551609039307
-5.366260051727295 -1.2584527730941772 -2.4021551609039307
-5.3110857009887695 -1.4740471839904785 -2.4021551609039307
-5.280246257781982 -1.5809667110443115 -2.4021551609039307
-5.212121486663818 -1.792826771736145 -2.4021551609039307
-5.174867630004883 -1.897679090499878 -2.4021551609039307
-5.135504722595215 -2.001758337020874 -2.4021551609039307
-5.004922389984131 -2.308940887451172 -2.4021551609039307
-4.9076361656188965 -2.509091854095459 -2.4021551609039307
-4.80234956741333 -2.7051565647125244 -2.4021551609039307
-4.746759414672852 -2.801553964614868 -2.4021551609039307
-4.568477630615234 -3.083740472793579 -2.4021551609039307
-4.373445510864258 -3.3546135425567627 -2.4021551609039307
-4.3048319816589355 -3.4422173500061035 -2.4021551609039307
-4.234462261199951 -3.52842378616333 -2.4021551609039307
-4.0885772705078125 -3.6964831352233887 -2.4021551609039307
-3.936033248901367 -3.858509063720703 -2.4021551609039307
-3.8573319911956787 -3.9371862411499023 -2.4021551609039307
-2.094438314437866 -2.317995548248291 -1.361519694328308
-1.9311412572860718 -2.3189761638641357 -1.3151965141296387
-1.8483483791351318 -2.3129589557647705 -1.2903541326522827
-1.492613434791565 -2.3120410442352295 -1.199361801147461
-1.4299657344818115 -2.3163223266601562 -1.1863629817962646
-1.364589810371399 -2.313647508621216 -1.170642375946045
-1.30072021484375 -2.310730457305908 -1.155642032623291
-1.2382787466049194 -2.3075804710388184 -1.1413295269012451
-1.125919222831726 -2.31821608543396 -1.1231753826141357
-1.0682116746902466 -2.317307710647583 -1.1120582818984985
-0.8475085496902466 -2.3132503032684326 -1.0736849308013916
-0.7963842749595642 -2.3175129890441895 -1.0679819583892822
-0.7448254227638245 -2.3187637329101562 -1.0614111423492432
-0.6937804818153381 -2.319674015045166 -1.0552005767822266
-0.6432543992996216 -2.320382595062256 -1.0494005680084229
-0.5436181426048279 -2.321208953857422 -1.0389940738677979
-0.3971826136112213 -2.321014404296875 -1.0262409448623657
-0.30177977681159973 -2.3244740962982178 -1.021546721458435
-0.20681029558181763 -2.32474422454834 -1.017163872718811
-4.612000465393066 2.379215717315674 -2.4021551609039307
-4.747557163238525 2.0956878662109375 -2.4021551609039307
-4.788898944854736 1.999420166015625 -2.4021551609039307
-4.828281879425049 1.9023382663726807 -2.4021551609039307
-4.9345831871032715 1.6065953969955444 -2.4021551609039307
-4.9954118728637695 1.4060900211334229 -2.4021551609039307
-5.0227813720703125 1.3049566745758057 -2.4021551609039307
-5.048097610473633 1.2032946348190308 -2.4021551609039307
-5.092557907104492 0.99853515625 -2.4021551609039307
-5.1287150382995605 0.7921478152275085 -2.4021551609039307
-5.156512260437012 0.5844702124595642 -2.4021551609039307
-5.186858177185059 0.16659851372241974 -2.4021551609039307
-5.18916130065918 0.061854247003793716 -2.4021551609039307
-5.187428951263428 -0.14766906201839447 -2.4021551609039307
-5.183389663696289 -0.2523626685142517 -2.4021551609039307
-5.177240371704102 -0.35694944858551025 -2.4021551609039307
-5.1586127281188965 -0.5656512379646301 -2.4021551609039307
-5.1461405754089355 -0.6696740388870239 -2.4021551609039307
-5.0275092124938965 -1.28662109375 -2.4021551609039307
-4.971475124359131 -1.4885174036026 -2.4021551609039307
-4.940412521362305 -1.588573932647705 -2.4021551609039307
-4.907340049743652 -1.6879894733428955 -2.4021551609039307
-4.835196495056152 -1.8847020864486694 -2.4021551609039307
-4.796164512634277 -1.981931447982788 -2.4021551609039307
-4.52153205871582 -2.5469682216644287 -2.4021551609039307
-4.46917724609375 -2.6377267837524414 -2.4021551609039307
-4.180619239807129 -3.0746777057647705 -2.4021551609039307
-3.986845016479492 -3.3220934867858887 -2.4021551609039307
-3.91896653175354 -3.401900291442871 -2.4021551609039307
-3.705867290496826 -3.632875919342041 -2.4021551609039307
-3.556194305419922 -3.7795097827911377 -2.4021551609039307
-1.8715648651123047 -2.2474353313446045 -1.3537875413894653
-1.7995398044586182 -2.2518811225891113 -1.334306001663208
-1.7292345762252808 -2.255817174911499 -1.3156819343566895
-1.6605578660964966 -2.2592668533325195 -1.297873616218567
-1.4630236625671387 -2.2662065029144287 -1.2485994100570679
-1.0519518852233887 -2.2820351123809814 -1.1631487607955933
-0.8367871046066284 -2.283984661102295 -1.1259427070617676
-0.7354626059532166 -2.2896156311035156 -1.1131631135940552
-0.6352587938308716 -2.2915403842926025 -1.100723147392273
-0.58587646484375 -2.2921910285949707 -1.0951303243637085
-0.5369274616241455 -2.2926387786865234 -1.089942455291748
-0.48838010430336 -2.29288649559021 -1.0851510763168335
-0.44019895792007446 -2.2929375171661377 -1.0807478427886963
-0.39271116256713867 -2.294881820678711 -1.0777075290679932
-0.2986181676387787 -2.300117254257202 -1.0736249685287476
-0.25157225131988525 -2.3006503582000732 -1.0712841749191284
-0.11131225526332855 -2.3004584312438965 -1.0660934448242188
-0.0647875964641571 -2.300065279006958 -1.0650876760482788
-4.519069671630859 1.8867639303207397 -2.4021551609039307
-4.556233882904053 1.7951507568359375 -2.4021551609039307
-4.624985218048096 1.6097655296325684 -2.4021551609039307
-4.686198711395264 1.421755313873291 -2.4021551609039307
-4.739771842956543 1.2314281463623047 -2.4021551609039307
-4.763662815093994 1.135494351387024 -2.4021551609039307
-4.785614967346191 1.039096713066101 -2.4021551609039307
-4.8056182861328125 0.9422723054885864 -2.4021551609039307
-4.839738845825195 0.747514009475708 -2.4021551609039307
-4.865967750549316 0.5515374541282654 -2.4021551609039307
-4.884264945983887 0.35466673970222473 -2.4021551609039307
-4.890429973602295 0.25598999857902527 -2.4021551609039307
-4.896957874298096 -0.04049926623702049 -2.4021551609039307
-4.891331672668457 -0.23814330995082855 -2.4021551609039307
-4.88552713394165 -0.33683714270591736 -2.4021551609039307
-4.867952346801758 -0.5337799191474915 -2.4021551609039307
-4.809022903442383 -0.924729585647583 -2.4021551609039307
-4.767781734466553 -1.1181018352508545 -2.4021551609039307
-4.718756675720215 -1.309651494026184 -2.4021551609039307
-4.630829811096191 -1.5928781032562256 -2.4021551609039307
-4.597729206085205 -1.6860365867614746 -2.4021551609039307
-4.52592134475708 -1.870258092880249 -2.4021551609039307
-4.487245559692383 -1.9612454175949097 -2.4021551609039307
-4.404418468475342 -2.1407828330993652 -2.4021551609039307
-4.2173614501953125 -2.4891042709350586 -2.4021551609039307
-4.113456726074219 -2.6573245525360107 -2.4021551609039307
-4.002831935882568 -2.8212010860443115 -2.4021551609039307
-3.8247270584106445 -3.058317184448242 -2.4021551609039307
-3.6325902938842773 -3.28422474861145 -2.4021551609039307
-3.565552234649658 -3.3568859100341797 -2.4021551609039307
-1.9101635217666626 -2.2018260955810547 -1.4298360347747803
-1.8262243270874023 -2.192988872528076 -1.3998661041259766
-1.7551037073135376 -2.196275472640991 -1.3790615797042847
-1.553594946861267 -2.2057037353515625 -1.3233941793441772
-1.4932994842529297 -2.213712692260742 -1.3098413944244385
-1.433996558189392 -2.2212438583374023 -1.296900749206543
-1.3097106218338013 -2.220600128173828 -1.264600157737732
-1.199337124824524 -2.2350125312805176 -1.2441989183425903
-1.1453466415405273 -2.241882801055908 -1.2348977327346802
-0.9811511039733887 -2.2466673851013184 -1.202549695968628
-0.9273278713226318 -2.2459874153137207 -1.1919209957122803
-0.7261425852775574 -2.2605998516082764 -1.1646803617477417
-0.6272973418235779 -2.2628207206726074 -1.1518279314041138
-0.5302636623382568 -2.264183282852173 -1.1406866312026978
-0.48234373331069946 -2.2645516395568848 -1.1357336044311523
-0.4352709949016571 -2.2672691345214844 -1.1324584484100342
-0.3884851038455963 -2.2701878547668457 -1.1297677755355835
-0.11015380918979645 -2.276538133621216 -1.1180016994476318
-0.06411376595497131 -2.2761712074279785 -1.1169580221176147
-4.11509370803833 2.122875213623047 -2.4021551609039307
-4.157110691070557 2.0393669605255127 -2.4021551609039307
