ply
format ascii 1.0
element vertex 291
property float x
property float y
property float z
end_header
-46.91656494140625 1.0626091957092285 -2.379948616027832
-46.92839431762695 0.13437743484973907 -2.3799421787261963
-46.89717102050781 -1.7219862937927246 -2.3799545764923096
-46.85426330566406 -2.649341344833374 -2.3799736499786377
-46.79334259033203 -3.575676918029785 -2.3800008296966553
-46.713993072509766 -4.500670909881592 -2.3800368309020996
-46.61680221557617 -5.4239654541015625 -2.3800811767578125
-46.50137710571289 -6.345144748687744 -2.380133867263794
-46.04711151123047 -9.092860221862793 -2.3803420066833496
-44.74776077270508 -12.581552505493164 -2.3573458194732666
-42.08266067504883 -12.735666275024414 -2.2297818660736084
-41.82755661010742 -13.567249298095703 -2.230050563812256
-40.29853820800781 -15.769610404968262 -2.19461727142334
-39.994232177734375 -16.570096969604492 -2.1954619884490967
-33.50828170776367 -15.462907791137695 -1.8715567588806152
-32.54161071777344 0.737048327922821 -2.3866331577301025
-32.54523849487305 -0.550691545009613 -2.386630058288574
-32.5280876159668 -1.1943737268447876 -2.3866374492645264
-32.45586013793945 -2.4800944328308105 -2.386669635772705
-32.25287628173828 -4.40092134475708 -2.3867619037628174
-32.16004943847656 -5.038144111633301 -2.3868043422698975
-32.054691314697266 -5.67344331741333 -2.386852741241455
-31.664161682128906 -7.565266132354736 -2.3870322704315186
-31.50933837890625 -8.19037914276123 -2.38710355758667
-30.97123146057129 -10.045865058898926 -2.3873519897460938
-30.324691772460938 -11.866639137268066 -2.387650489807129
-27.695348739624023 -12.780448913574219 -2.2364723682403564
-24.87980842590332 -0.9135494828224182 -2.3901944160461426
-24.856962203979492 -1.4055252075195312 -2.390204429626465
-24.82444953918457 -1.896944284439087 -2.39021897315979
-24.730445861816406 -2.8774447441101074 -2.390261650085449
-24.668962478637695 -3.366095542907715 -2.390289783477783
-24.427021026611328 -4.823572158813477 -2.3904008865356445
-24.327314376831055 -5.3059210777282715 -2.390446662902832
-24.218109130859375 -5.786238193511963 -2.3904967308044434
-24.09947395324707 -6.264308452606201 -2.3905515670776367
-23.971435546875 -6.739956378936768 -2.390610694885254
-23.53145408630371 -8.150568008422852 -2.3908135890960693
-23.36644744873047 -8.614739418029785 -2.390889883041382
-23.19219970703125 -9.0755615234375 -2.390970468521118
-23.008935928344727 -9.532885551452637 -2.391055107116699
-22.615596771240234 -10.436315536499023 -2.3912370204925537
-20.14034652709961 0.05766357108950615 -2.392399311065674
-20.126909255981445 -0.739023745059967 -2.392404794692993
-20.082077026367188 -1.5345537662506104 -2.3924248218536377
-20.047937393188477 -1.9315203428268433 -2.3924403190612793
-20.005962371826172 -2.32773494720459 -2.3924593925476074
-19.956192016601562 -2.7230377197265625 -2.392482042312622
-19.760282516479492 -3.902034282684326 -2.3925719261169434
-19.679561614990234 -4.292228698730469 -2.392609119415283
-19.591136932373047 -4.680752277374268 -2.3926498889923096
-19.16141128540039 -6.215217113494873 -2.392848014831543
-19.035198211669922 -6.593201160430908 -2.3929061889648438
-18.61211585998535 -7.711228370666504 -2.393101692199707
-16.895414352416992 0.04837585240602493 -2.3939082622528076
-16.893047332763672 -0.285849004983902 -2.393908977508545
-16.88412094116211 -0.619956374168396 -2.3939127922058105
-16.868616104125977 -0.9538256525993347 -2.3939197063446045
-16.846513748168945 -1.2873128652572632 -2.3939297199249268
-16.81785011291504 -1.6203176975250244 -2.3939425945281982
-16.7408504486084 -2.284303903579712 -2.393977642059326
-16.6925048828125 -2.6150307655334473 -2.3939998149871826
-16.637712478637695 -2.9447524547576904 -2.3940250873565674
-16.576406478881836 -3.273325204849243 -2.3940532207489014
-16.266727447509766 -4.5736589431762695 -2.394195795059204
-16.17337417602539 -4.894629955291748 -2.3942389488220215
-15.96776008605957 -5.530738830566406 -2.394333839416504
-15.855575561523438 -5.845642566680908 -2.394385576248169
-15.737215995788574 -6.158275127410889 -2.3944404125213623
-15.48206615447998 -6.776258945465088 -2.3945584297180176
-14.538105010986328 0.0416259765625 -2.3950047492980957
-14.536086082458496 -0.24596312642097473 -2.395005226135254
-14.515036582946777 -0.8207387924194336 -2.395014524459839
-14.471324920654297 -1.3942440748214722 -2.395034074783325
-14.405040740966797 -1.9655795097351074 -2.395064353942871
-14.263437271118164 -2.816585063934326 -2.395129442214966
-14.141239166259766 -3.3786537647247314 -2.3951854705810547
-13.996918678283691 -3.935459613800049 -2.395251989364624
-13.916543006896973 -4.211630821228027 -2.395289182662964
-13.830751419067383 -4.48616361618042 -2.3953287601470947
-13.642992973327637 -5.029901027679443 -2.3954155445098877
-5.696082592010498 -2.3599562644958496 -1.0157183408737183
-5.285312175750732 -2.438990831375122 -0.9589346051216125
-12.743216514587402 0.2886273264884949 -2.3958394527435303
-12.74642276763916 0.036494750529527664 -2.3958377838134766
-12.744650840759277 -0.21565185487270355 -2.395838499069214
-12.73791217803955 -0.46771422028541565 -2.395841121673584
-12.709518432617188 -0.971185564994812 -2.3958537578582764
-12.68786334991455 -1.2224156856536865 -2.3958637714385986
-12.661261558532715 -1.4731680154800415 -2.3958756923675537
-12.629727363586426 -1.723333716392517 -2.395890235900879
-12.551840782165527 -2.2215843200683594 -2.395925760269165
-12.2717866897583 -3.450411081314087 -2.396054744720459
-12.126043319702148 -3.933223247528076 -2.3961219787597656
-6.583468914031982 -2.2803115844726562 -1.3095601797103882
-5.812469482421875 -2.2745327949523926 -1.1731879711151123
-5.513800144195557 -2.2844345569610596 -1.1218078136444092
-11.334473609924316 0.2567175328731537 -2.3964946269989014
-11.337324142456055 0.032460328191518784 -2.3964929580688477
-11.329756736755371 -0.4160076677799225 -2.396496057510376
-11.304479598999023 -0.8638229370117188 -2.3965072631835938
-11.28521728515625 -1.087278127670288 -2.3965160846710205
-11.261558532714844 -1.3103084564208984 -2.39652681350708
-11.233500480651855 -1.532820701599121 -2.3965396881103516
-11.201031684875488 -1.7547392845153809 -2.396554470062256
-11.164229393005371 -1.9759883880615234 -2.396571397781372
-11.123040199279785 -2.196455240249634 -2.3965904712677
-11.027663230895996 -2.634751558303833 -2.396634101867676
-10.973490715026855 -2.8523991107940674 -2.3966591358184814
-10.915058135986328 -3.068946361541748 -2.39668607711792
-10.852338790893555 -3.2842955589294434 -2.396714925765991
-6.767439842224121 -2.1950972080230713 -1.503872036933899
-5.616333961486816 -2.1977789402008057 -1.2748414278030396
-10.19648551940918 0.23094238340854645 -2.397023916244507
-10.182854652404785 -0.5757842659950256 -2.397029399871826
-10.169490814208984 -0.7770965695381165 -2.3970353603363037
-10.076431274414062 -1.5785595178604126 -2.397077798843384
-10.043299674987793 -1.7775896787643433 -2.397092819213867
-9.920418739318848 -2.370205879211426 -2.3971495628356934
-9.762663841247559 -2.954521656036377 -2.3972220420837402
-5.235551834106445 -2.1691534519195557 -1.3319038152694702
-5.020952224731445 -2.1975903511047363 -1.2881182432174683
-4.803294658660889 -2.2165544033050537 -1.2432866096496582
-9.257166862487793 0.2096685767173767 -2.397460460662842
-9.259492874145508 0.026511840522289276 -2.3974592685699463
-9.253313064575195 -0.3397674560546875 -2.3974618911743164
-9.244793891906738 -0.5227383375167847 -2.397465705871582
-9.19759750366211 -1.0701605081558228 -2.397486925125122
-9.174668312072754 -1.2518877983093262 -2.3974974155426025
-9.148151397705078 -1.433138370513916 -2.3975095748901367
-9.0844144821167 -1.7938878536224365 -2.397538900375366
-9.047223091125488 -1.9732491970062256 -2.3975558280944824
-8.962238311767578 -2.3296029567718506 -2.397594928741455
-8.914478302001953 -2.5064501762390137 -2.3976171016693115
-5.664870262145996 -2.088526964187622 -1.5632445812225342
-5.369017124176025 -2.101001501083374 -1.4927815198898315
-5.128191947937012 -2.1246731281280518 -1.4372292757034302
-4.915395259857178 -2.151390552520752 -1.3892476558685303
-4.708224773406982 -2.1726837158203125 -1.3425815105438232
-8.468891143798828 -0.14330199360847473 -2.397826671600342
-8.456611633300781 -0.4781744182109833 -2.397832155227661
-8.392457962036133 -1.1451568603515625 -2.3978612422943115
-8.368202209472656 -1.3109545707702637 -2.3978724479675293
-8.309890747070312 -1.6409438848495483 -2.3978991508483887
-8.275860786437988 -1.8050134181976318 -2.3979148864746094
-8.23859691619873 -1.968380093574524 -2.3979318141937256
-8.198108673095703 -2.1309773921966553 -2.3979506492614746
-8.154419898986816 -2.292747735977173 -2.397970676422119
-6.305042743682861 -2.045111894607544 -1.8764612674713135
-5.598242282867432 -2.0639631748199463 -1.6891010999679565
-5.307809829711914 -2.07705020904541 -1.6135549545288086
-5.058006286621094 -2.095595359802246 -1.5499166250228882
-4.838314056396484 -2.1176552772521973 -1.495141625404358
-4.617093563079834 -2.1306307315826416 -1.43952476978302
-7.7948431968688965 0.17654967308044434 -2.3981406688690186
-7.784420013427734 -0.4401644766330719 -2.3981447219848633
-7.774203777313232 -0.5940597653388977 -2.398149251937866
-7.761115074157715 -0.7477203011512756 -2.3981552124023438
-7.744664669036865 -0.9011092782020569 -2.398162841796875
-7.72535514831543 -1.05413019657135 -2.3981716632843018
-7.703022480010986 -1.206747055053711 -2.398181915283203
-7.649339199066162 -1.5105050802230835 -2.3982064723968506
-7.618010520935059 -1.6615322828292847 -2.398221015930176
-7.583702087402344 -1.8119133710861206 -2.3982367515563965
-7.463057518005371 -2.2585790157318115 -2.398292303085327
-5.564198017120361 -2.0514132976531982 -1.8240357637405396
-5.247975826263428 -2.053635597229004 -1.7333544492721558
-4.988854885101318 -2.066943883895874 -1.660949945449829
-4.77566385269165 -2.0902321338653564 -1.603426456451416
-7.214283466339111 -0.1220727488398552 -2.3984103202819824
-7.210458755493164 -0.2647564709186554 -2.398411989212036
-7.203819274902344 -0.40733397006988525 -2.3984148502349854
-7.194364070892334 -0.5497524738311768 -2.398419141769409
-7.182100772857666 -0.6919589042663574 -2.3984246253967285
-7.167029857635498 -0.833901047706604 -2.3984315395355225
-7.149133205413818 -0.9755069017410278 -2.398439645767212
-7.049809455871582 -1.537603735923767 -2.3984851837158203
-6.983560562133789 -1.815273642539978 -2.3985157012939453
-6.30504035949707 -2.045112371444702 -2.2033255100250244
-5.554068565368652 -2.0476784706115723 -1.9676798582077026
-5.226008415222168 -2.0450384616851807 -1.8654253482818604
-4.937358379364014 -2.045606851577759 -1.7764900922775269
-4.508746147155762 -2.0806305408477783 -1.650614857673645
-6.705767631530762 0.15188170969486237 -2.3986470699310303
-6.707460880279541 0.019205322489142418 -2.398646116256714
-6.696805477142334 -0.37866759300231934 -2.398650646209717
-6.688013553619385 -0.5110604763031006 -2.3986544609069824
-6.662598609924316 -0.7752084136009216 -2.3986661434173584
-6.645985126495361 -0.9068499803543091 -2.3986735343933105
-6.626767635345459 -1.038140892982483 -2.3986825942993164
-6.553619384765625 -1.429382562637329 -2.3987159729003906
-6.524096488952637 -1.5587496757507324 -2.3987295627593994
-6.492028713226318 -1.6875078678131104 -2.3987443447113037
-6.380643367767334 -2.069633722305298 -2.3987958431243896
-5.640560150146484 -2.079563856124878 -2.149826765060425
-4.924156188964844 -2.040137529373169 -1.906067132949829
-6.258155345916748 0.1417425572872162 -2.398855209350586
-6.259736061096191 0.017922362312674522 -2.3988542556762695
-6.249788761138916 -0.35339048504829407 -2.3988585472106934
-6.241584300994873 -0.47694578766822815 -2.398862361907959
-6.23094367980957 -0.6003210544586182 -2.398866891860962
-6.217864990234375 -0.7234634160995483 -2.3988728523254395
-6.164069652557373 -1.0909932851791382 -2.398897647857666
-6.141310691833496 -1.212717890739441 -2.3989081382751465
-6.116150856018066 -1.3339675664901733 -2.3989195823669434
-6.088594913482666 -1.4546996355056763 -2.3989322185516357
-6.058665752410889 -1.5748592615127563 -2.3989462852478027
-5.915380954742432 -2.048906087875366 -2.399012327194214
-5.873746395111084 -2.1655354499816895 -2.399031400680542
-5.829809665679932 -2.2813174724578857 -2.3990516662597656
-4.683665752410889 -2.0499651432037354 -1.9592560529708862
-4.464595794677734 -2.0602571964263916 -1.8842991590499878
-5.861657619476318 0.016782226040959358 -2.3990395069122314
-5.860842227935791 -0.09917113929986954 -2.3990397453308105
-5.82244348526001 -0.6774542331695557 -2.399056911468506
-5.79112434387207 -0.9072310924530029 -2.399071216583252
-5.610655307769775 -1.6979787349700928 -2.3991541862487793
-5.576008319854736 -1.8086416721343994 -2.399170398712158
-5.539174556732178 -1.918600082397461 -2.3991873264312744
-5.500181674957275 -2.02781081199646 -2.399205446243286
-5.415760517120361 -2.243813991546631 -2.3992443084716797
-4.747626781463623 -2.0779597759246826 -2.121051549911499
-4.474409103393555 -2.0647857189178467 -2.0168447494506836
-5.505057334899902 0.015761107206344604 -2.399205207824707
-5.504288196563721 -0.09313659369945526 -2.3992056846618652
-5.496304988861084 -0.3107842803001404 -2.3992090225219727
-5.438808441162109 -0.8520376682281494 -2.399235248565674
-5.400888442993164 -1.0665069818496704 -2.3992526531219482
-5.328197956085205 -1.384987711906433 -2.3992860317230225
-5.202118873596191 -1.801866054534912 -2.3993442058563232
-5.086259841918945 -2.1072981357574463 -2.399397611618042
-5.182151794433594 0.1173730418086052 -2.39935564994812
-5.159611701965332 -0.49710386991500854 -2.3993654251098633
-5.148779392242432 -0.5990734696388245 -2.3993701934814453
-5.135933876037598 -0.7008022665977478 -2.399376153945923
-5.085377216339111 -1.0042022466659546 -2.3993992805480957
-5.016926288604736 -1.3040752410888672 -2.399430751800537
-4.990174293518066 -1.4030687808990479 -2.3994431495666504
-4.961472034454346 -1.5015130043029785 -2.39945650100708
-4.93082857131958 -1.5993719100952148 -2.399470567703247
-4.898257732391357 -1.696604609489441 -2.3994855880737305
-4.863771915435791 -1.7931790351867676 -2.3995015621185303
-4.82737922668457 -1.88904869556427 -2.3995184898376465
-4.748957633972168 -2.0785439014434814 -2.39955472946167
-4.890440464019775 0.11076537519693375 -2.399491310119629
-4.890993595123291 -0.08276122808456421 -2.3994908332824707
-4.883901119232178 -0.2761572301387787 -2.39949369430542
-4.816896915435791 -0.852555513381958 -2.399524211883545
-4.7579026222229 -1.1367669105529785 -2.3995513916015625
-4.734499454498291 -1.2306655645370483 -2.399562358856201
-4.709259986877441 -1.3240832090377808 -2.399573802947998
-4.653254508972168 -1.5093356370925903 -2.39959979057312
-4.555622577667236 -1.782705307006836 -2.3996448516845703
-4.519500732421875 -1.872483491897583 -2.3996615409851074
-4.625482082366943 0.013242797926068306 -2.3996143341064453
-4.622387409210205 -0.16972534358501434 -2.399615526199341
-4.612066745758057 -0.3524285852909088 -2.3996200561523438
-4.604197978973389 -0.44359251856803894 -2.3996236324310303
-4.583067417144775 -0.6253616213798523 -2.3996331691741943
-4.569811820983887 -0.7159008383750916 -2.399639368057251
-4.498981952667236 -1.0749069452285767 -2.399672031402588
-4.452988147735596 -1.2520290613174438 -2.399693012237549
-4.427369117736816 -1.3398770093917847 -2.399704933166504
-4.400022983551025 -1.427197813987732 -2.3997175693511963
-4.273540019989014 -1.7705813646316528 -2.399775981903076
-4.237717151641846 -1.8547793626785278 -2.3997926712036133
-4.200225830078125 -1.9382604360580444 -2.3998100757598877
-4.381417274475098 0.012544555589556694 -2.3997278213500977
-4.374453067779541 -0.24735106527805328 -2.399730682373047
-4.368707180023193 -0.33383116126060486 -2.399733304977417
-4.361256122589111 -0.4201873540878296 -2.3997366428375244
-4.352099418640137 -0.5063766241073608 -2.3997409343719482
-4.341238975524902 -0.5923653841018677 -2.3997459411621094
-4.328682899475098 -0.6781268119812012 -2.3997514247894287
-4.280881404876709 -0.9336850047111511 -2.399773597717285
-4.261590480804443 -1.0181865692138672 -2.399782419204712
-4.167845249176025 -1.3518880605697632 -2.3998255729675293
-4.111155986785889 -1.5157028436660767 -2.3998517990112305
-4.048035621643066 -1.677150845527649 -2.39988112449646
-4.014097690582275 -1.7569063901901245 -2.3998968601226807
-3.978581428527832 -1.8359798192977905 -2.3999130725860596
-2.230196475982666 -0.21486876904964447 -1.2935668230056763
-4.106584548950195 -0.643332839012146 -2.399854898452759
-4.093063831329346 -0.7244421243667603 -2.3998610973358154
-4.077945232391357 -0.8052670359611511 -2.3998680114746094
-4.042932033538818 -0.9659444689750671 -2.3998842239379883
-4.023047924041748 -1.0457321405410767 -2.399893283843994
-4.001590251922607 -1.125112533569336 -2.3999032974243164
-3.8710241317749023 -1.5148080587387085 -2.39996337890625
-3.8081235885620117 -1.666756510734558 -2.3999927043914795
-3.7744359970092773 -1.7417718172073364 -2.400008201599121
