ply
format ascii 1.0
element vertex 275
property float x
property float y
property float z
end_header
-19.860109329223633 -10.135990142822266 3.9315855503082275
-19.820011138916016 -11.160435676574707 4.010766983032227
-19.860788345336914 -15.289877891540527 4.419558525085449
-19.860897064208984 -15.289966583251953 2.6914901733398438
-19.86092758178711 -15.289997100830078 2.121798276901245
-19.861082077026367 -15.290111541748047 -0.1411186158657074
-19.861122131347656 -15.290141105651855 -0.705774188041687
-26.973121643066406 -23.5372257232666 -1.0080173015594482
-26.578128814697266 -24.168169021606445 -1.01152765750885
-40.55744171142578 -16.673803329467773 -2.223874807357788
-35.40631103515625 -15.410391807556152 -1.958295226097107
-39.84972381591797 -18.323211669921875 -2.2243521213531494
-38.663204193115234 -20.74049186706543 -2.225080728530884
-38.23509979248047 -21.529760360717773 -2.2253379821777344
-26.048114776611328 -15.377779960632324 -1.5340328216552734
-37.33189392089844 -23.08226203918457 -2.2259209156036377
-28.832807540893555 -23.15192985534668 -1.8752875328063965
-27.339630126953125 -24.860641479492188 -1.8740267753601074
-29.10772705078125 -27.57736587524414 -2.0334911346435547
-26.55643081665039 -26.211994171142578 -1.8923375606536865
-29.12752342224121 -12.67759895324707 -2.3292176723480225
-27.782901763916016 -12.774797439575195 -2.242128610610962
-27.52471923828125 -13.345019340515137 -2.2428691387176514
-27.26441192626953 -13.914923667907715 -2.2443900108337402
-26.64224624633789 -15.001937866210938 -2.241866111755371
-25.338991165161133 -17.138683319091797 -2.242987871170044
-24.622386932373047 -18.165430068969727 -2.2435221672058105
-19.86119842529297 -15.29019832611084 -1.837822675704956
-19.760709762573242 -15.86727237701416 -1.8581873178482056
-23.47108268737793 -19.649930953979492 -2.244438648223877
-21.358566284179688 -21.962427139282227 -2.246265172958374
-23.08016586303711 -9.48862361907959 -2.3957552909851074
-22.881654739379883 -9.95911979675293 -2.395806312561035
-22.45602798461914 -10.887526512145996 -2.395915985107422
-21.992826461791992 -11.79782485961914 -2.396035671234131
-21.485559463500977 -12.684232711791992 -2.3953561782836914
-20.628156661987305 -12.754362106323242 -2.328380584716797
-19.976160049438477 -12.923632621765137 -2.284162759780884
-19.443233489990234 -13.1509370803833 -2.2535321712493896
-19.092267990112305 -13.491066932678223 -2.2443878650665283
-18.81279945373535 -13.879350662231445 -2.2444589138031006
-17.927568435668945 -15.008912086486816 -2.2446794509887695
-17.299646377563477 -15.731013298034668 -2.244837522506714
-16.97476577758789 -16.082305908203125 -2.2449209690093994
-16.83599090576172 -16.61764144897461 -2.2710721492767334
-16.779552459716797 -17.253944396972656 -2.3106112480163574
-16.768451690673828 -17.96377182006836 -2.359220027923584
-18.66272735595703 -7.672605514526367 -2.3969054222106934
-18.15782928466797 -8.803605079650879 -2.39703369140625
-17.78310203552246 -9.539565086364746 -2.397127866744995
-17.584537506103516 -9.901666641235352 -2.3971784114837646
-17.165449142456055 -10.613373756408691 -2.3972864151000977
-16.945066452026367 -10.962656021118164 -2.397343397140503
-16.71760368347168 -11.307390213012695 -2.397402048110962
-15.99367618560791 -12.31279182434082 -2.3975884914398193
-15.738719940185547 -12.63774299621582 -2.397653341293335
-15.477270126342773 -12.957529067993164 -2.3977208137512207
-15.209296226501465 -13.271903991699219 -2.39778995513916
-14.934982299804688 -13.580759048461914 -2.3978610038757324
-14.654406547546387 -13.883931159973145 -2.3979334831237793
-14.074960708618164 -14.472834587097168 -2.3980817794799805
-13.7760009765625 -14.758275032043457 -2.3981573581695557
-15.651095390319824 -6.4344162940979 -2.39768385887146
-15.375161170959473 -7.069614887237549 -2.3977549076080322
-15.227519035339355 -7.382876873016357 -2.3977930545806885
-15.07351303100586 -7.693054676055908 -2.3978326320648193
-14.91319751739502 -8.000035285949707 -2.397873878479004
-14.746627807617188 -8.303665161132812 -2.397916793823242
-14.395055770874023 -8.900450706481934 -2.39800763130188
-14.21020221710205 -9.193325996398926 -2.3980553150177
-14.01938247680664 -9.48237419128418 -2.398104429244995
-13.620180130004883 -10.048426628112793 -2.398207426071167
-13.41207218170166 -10.3253173828125 -2.3982601165771484
-12.978974342346191 -10.865959167480469 -2.398371934890747
-12.52410888671875 -11.388498306274414 -2.3984897136688232
-12.048256874084473 -11.891996383666992 -2.3986124992370605
-13.348490715026855 -5.809856414794922 -2.398282527923584
-13.227001190185547 -6.081877708435059 -2.3983137607574463
-13.09994888305664 -6.351352214813232 -2.398346424102783
-12.96743106842041 -6.618178367614746 -2.3983805179595947
-12.8294677734375 -6.882238388061523 -2.398416042327881
-12.686140060424805 -7.143431663513184 -2.3984529972076416
-12.22458267211914 -7.908729553222656 -2.3985719680786133
-12.06039810180664 -8.15736198425293 -2.3986144065856934
-11.716964721679688 -8.644317626953125 -2.3987021446228027
-11.53783893585205 -8.882437705993652 -2.3987483978271484
-11.353894233703613 -9.116857528686523 -2.3987960815429688
-11.165183067321777 -9.347460746765137 -2.3988447189331055
-10.9718017578125 -9.574188232421875 -2.398894786834717
-10.773810386657715 -9.796905517578125 -2.3989458084106445
-10.571320533752441 -10.015524864196777 -2.398998260498047
-10.364397048950195 -10.229968070983887 -2.3990516662597656
-10.153107643127441 -10.440159797668457 -2.399106502532959
-9.93758487701416 -10.645980834960938 -2.3991622924804688
-11.803080558776855 -4.852431297302246 -2.3986847400665283
-11.701447486877441 -5.092990398406982 -2.3987107276916504
-11.594916343688965 -5.33143424987793 -2.398738145828247
-11.24638843536377 -6.033010005950928 -2.3988280296325684
-11.12071704864502 -6.261958599090576 -2.398860216140747
-10.990409851074219 -6.488308429718018 -2.3988938331604004
-10.716044425964355 -6.932774543762207 -2.3989646434783936
-10.572070121765137 -7.150685787200928 -2.3990020751953125
-10.271000862121582 -7.577542781829834 -2.399078845977783
-10.113962173461914 -7.7862548828125 -2.3991196155548096
-9.952685356140137 -7.991720199584961 -2.3991611003875732
-9.787248611450195 -8.193856239318848 -2.3992037773132324
-9.44412612915039 -8.587785720825195 -2.399292469024658
-9.085192680358887 -8.967358589172363 -2.399385452270508
-8.899965286254883 -9.151582717895508 -2.399433135986328
-8.711012840270996 -9.3319673538208 -2.399482250213623
-10.212660789489746 -4.951479911804199 -2.399097442626953
-10.10931396484375 -5.159481525421143 -2.3991241455078125
-10.00173568725586 -5.365331172943115 -2.3991518020629883
-9.889963150024414 -5.568930625915527 -2.3991806507110596
-9.654032707214355 -5.9690680503845215 -2.3992412090301514
-9.401994705200195 -6.359281539916992 -2.399306058883667
-9.270024299621582 -6.5504279136657715 -2.3993399143218994
-9.134184837341309 -6.738846778869629 -2.3993752002716064
-8.994516372680664 -6.924447536468506 -2.399411201477051
-8.240854263305664 -7.807590007781982 -2.3996059894561768
-8.079513549804688 -7.974719047546387 -2.3996477127075195
-9.360669136047363 -4.074183464050293 -2.399319648742676
-9.27542495727539 -4.2649078369140625 -2.399341344833374
-8.99654483795166 -4.826108932495117 -2.3994133472442627
-8.896002769470215 -5.009244441986084 -2.3994390964508057
-8.216105461120605 -6.061524391174316 -2.3996143341064453
-8.090468406677246 -6.228470325469971 -2.399646759033203
-7.961430549621582 -6.3928046226501465 -2.3996801376342773
-7.554535865783691 -6.869533538818359 -2.399785280227661
-7.412502288818359 -7.022775173187256 -2.3998219966888428
-7.26736307144165 -7.173103332519531 -2.399859666824341
-7.119162559509277 -7.320432662963867 -2.399897813796997
-8.497590065002441 -3.698533535003662 -2.3995440006256104
-8.420205116271973 -3.871671438217163 -2.399563789367676
-8.339277267456055 -4.0431976318359375 -2.3995847702026367
-8.167011260986328 -4.381112098693848 -2.3996291160583496
-7.981064319610596 -4.711709976196289 -2.3996775150299072
-7.781760215759277 -5.034432888031006 -2.399728298187256
-7.569423675537109 -5.348740577697754 -2.399783134460449
-7.458478927612305 -5.502577781677246 -2.3998117446899414
-7.344413757324219 -5.654117107391357 -2.399841070175171
-7.227270126342773 -5.803291320800781 -2.399871349334717
-7.107097148895264 -5.950045585632324 -2.39990234375
-6.462616920471191 -6.645325660705566 -2.400068998336792
-7.772536277770996 -3.3829569816589355 -2.3997323513031006
-7.627721786499023 -3.698209047317505 -2.3997697830200195
-7.470141410827637 -4.00727653503418 -2.399810552597046
-7.300051212310791 -4.309663772583008 -2.3998541831970215
-6.923505783081055 -4.89232063293457 -2.399951219558716
-6.154677391052246 -5.831089973449707 -2.4001498222351074
-7.154262542724609 -3.1138579845428467 -2.399893283843994
-7.089098930358887 -3.2596232891082764 -2.3999099731445312
-7.020978927612305 -3.4040400981903076 -2.3999276161193848
-6.94989013671875 -3.547013521194458 -2.3999462127685547
-6.875907897949219 -3.68851375579834 -2.399965524673462
-6.799047470092773 -3.8284716606140137 -2.399984836578369
-6.551516056060791 -4.238521099090576 -2.4000487327575684
-5.983442306518555 -5.009326457977295 -2.400195360183716
-5.879750728607178 -5.130775451660156 -2.400222063064575
-5.773593425750732 -5.2500786781311035 -2.400249481201172
-5.5540771484375 -5.482043743133545 -2.400306224822998
-5.440798282623291 -5.5946197509765625 -2.4003355503082275
-5.325248718261719 -5.7048516273498535 -2.4003655910491943
-6.431171894073486 -3.2822747230529785 -2.400081157684326
-6.217814922332764 -3.6707541942596436 -2.4001359939575195
-6.1414475440979 -3.797250986099243 -2.400155544281006
-6.062509536743164 -3.9221599102020264 -2.4001760482788086
-5.981035232543945 -4.045429706573486 -2.4001970291137695
-5.721728324890137 -4.404892444610596 -2.400264024734497
-5.536816120147705 -4.635409355163574 -2.4003119468688965
-5.242146015167236 -4.9665398597717285 -2.40038800239563
-4.927719593048096 -5.27899169921875 -2.4004693031311035
-6.154062271118164 -2.678527355194092 -2.400153636932373
-6.0979905128479 -2.803900957107544 -2.4001684188842773
-6.039381980895996 -2.9281203746795654 -2.4001832008361816
-5.77990198135376 -3.412229537963867 -2.40024995803833
-5.708910942077637 -3.5298149585723877 -2.400268077850342
-5.635531902313232 -3.645923376083374 -2.40028715133667
-5.559790134429932 -3.7605090141296387 -2.4003067016601562
-5.481720924377441 -3.873520612716675 -2.40032696723938
-5.318732738494873 -4.094642639160156 -2.400369167327881
-5.233879089355469 -4.202658176422119 -2.400390863418579
-5.146835803985596 -4.308919429779053 -2.4004135131835938
-4.872910022735596 -4.616715908050537 -2.400484323501587
-5.743031978607178 -2.4996261596679688 -2.4002609252929688
-5.457839012145996 -3.0732555389404297 -2.400333881378174
-5.327595233917236 -3.2940471172332764 -2.400367498397827
-5.188429832458496 -3.5093300342559814 -2.4004034996032715
-5.115573406219482 -3.614790678024292 -2.4004223346710205
-5.040578365325928 -3.718742847442627 -2.4004416465759277
-4.9634690284729 -3.821141242980957 -2.400461435317993
-4.719794750213623 -4.1185784339904785 -2.400524616241455
-4.634572505950928 -4.214338779449463 -2.4005465507507324
-4.547407150268555 -4.308326244354248 -2.400569200515747
-5.328615665435791 -2.4501397609710693 -2.4003682136535645
-5.168339729309082 -2.7725048065185547 -2.400409460067749
-5.110554218292236 -2.8777003288269043 -2.4004244804382324
-5.050634860992432 -2.9816982746124268 -2.400439739227295
-4.858278751373291 -3.286025285720825 -2.400489330291748
-4.790056228637695 -3.3847734928131104 -2.4005072116851807
-4.647622108459473 -3.5779881477355957 -2.4005439281463623
-4.573469161987305 -3.672369956970215 -2.4005630016326904
-4.419450759887695 -3.856492757797241 -2.4006028175354004
-4.339643478393555 -3.9461538791656494 -2.400623321533203
-4.258027076721191 -4.034160614013672 -2.400644540786743
-4.174626350402832 -4.120485782623291 -2.4006662368774414
-4.089467525482178 -4.205090522766113 -2.4006881713867188
-4.002604961395264 -4.28792667388916 -2.4007105827331543
-5.094182014465332 -2.094299793243408 -2.4004294872283936
-4.905986309051514 -2.5038647651672363 -2.400477886199951
-4.743200778961182 -2.8002007007598877 -2.400519847869873
-4.295068264007568 -3.4488232135772705 -2.4006357192993164
-4.2236328125 -3.5360162258148193 -2.4006540775299072
-4.075473308563232 -3.705935478210449 -2.4006924629211426
-3.7589404582977295 -4.026893138885498 -2.4007742404937744
-4.796442985534668 -1.9718950986862183 -2.4005069732666016
-4.755109786987305 -2.069638729095459 -2.400517702102661
-4.666491508483887 -2.2624902725219727 -2.400540351867676
-4.570055961608887 -2.4515621662139893 -2.4005653858184814
-4.518957614898682 -2.5445773601531982 -2.400578498840332
-4.35439920425415 -2.8170909881591797 -2.400620937347412
-4.173437595367432 -3.0790038108825684 -2.400667428970337
-3.8372509479522705 -3.489314556121826 -2.400754451751709
-3.616022825241089 -3.7182586193084717 -2.4008116722106934
-3.5392112731933594 -3.7915031909942627 -2.400831460952759
-4.446433067321777 -2.044503927230835 -2.4005978107452393
-4.312675476074219 -2.313493013381958 -2.400632381439209
-4.214450359344482 -2.4880456924438477 -2.4006576538085938
-4.162675857543945 -2.573779582977295 -2.4006707668304443
-4.053925514221191 -2.7419776916503906 -2.4006989002227783
-3.9969944953918457 -2.824375629425049 -2.4007136821746826
-3.7527709007263184 -3.141815423965454 -2.4007768630981445
-3.6877219676971436 -3.21797513961792 -2.4007935523986816
-3.6211254596710205 -3.2927870750427246 -2.400810718536377
-3.5530176162719727 -3.366217613220215 -2.4008283615112305
-3.4834179878234863 -3.438242197036743 -2.400846242904663
-3.412355899810791 -3.508831024169922 -2.400864839553833
-3.3398680686950684 -3.577950954437256 -2.400883674621582
-4.279904842376709 -1.7595369815826416 -2.400641441345215
-4.243022441864014 -1.8467528820037842 -2.400650978088379
-4.204360485076904 -1.9331988096237183 -2.400660753250122
-4.077885627746582 -2.1875433921813965 -2.400693416595459
-4.032289981842041 -2.2705392837524414 -2.400705099105835
-3.984999895095825 -2.352588653564453 -2.400717258453369
-3.936049699783325 -2.4336540699005127 -2.4007298946380615
-3.7793798446655273 -2.670604705810547 -2.400770425796509
-3.7239646911621094 -2.7473974227905273 -2.400784730911255
-3.666987180709839 -2.823045015335083 -2.40079927444458
-3.548454523086548 -2.9707586765289307 -2.400830030441284
-3.4239697456359863 -3.113507032394409 -2.400862216949463
-3.359565258026123 -3.1829371452331543 -2.40087890625
-3.2265625 -3.317786693572998 -2.4009132385253906
-4.053981781005859 -1.6666561365127563 -2.400700092315674
-4.01904296875 -1.7492693662643433 -2.4007091522216797
-3.982426643371582 -1.831150770187378 -2.4007184505462646
-3.862622022628784 -2.0720670223236084 -2.400749444961548
-3.5798704624176025 -2.5296266078948975 -2.400822401046753
-3.417985677719116 -2.7445473670959473 -2.4008641242980957
-3.302858829498291 -2.8821394443511963 -2.4008939266204834
-3.243215322494507 -2.9491419792175293 -2.400909423828125
-3.1822094917297363 -3.014906167984009 -2.4009251594543457
-2.9913012981414795 -3.204533100128174 -2.4009745121002197
-3.812756299972534 -1.6594829559326172 -2.4007627964019775
-3.6643552780151367 -1.96570885181427 -2.400800943374634
-3.6233813762664795 -2.040289878845215 -2.4008116722106934
-3.5368945598602295 -2.1868607997894287 -2.40083384513855
-3.4444897174835205 -2.3297717571258545 -2.40085768699646
-3.396113157272339 -2.3997793197631836 -2.4008700847625732
-3.295114755630493 -2.5367555618286133 -2.4008963108062744
-3.2425341606140137 -2.603665828704834 -2.400909900665283
-3.133317708969116 -2.7341933250427246 -2.400938034057617
-3.01885986328125 -2.8601412773132324 -2.400967597961426
-2.959723949432373 -2.9213366508483887 -2.4009828567504883
-2.8993382453918457 -2.981309652328491 -2.400998592376709
-2.8377439975738525 -3.0400335788726807 -2.401014566421509
