ply
format ascii 1.0
element vertex 421
property float x
property float y
property float z
end_header
-4.633549690246582 -16.550756454467773 3.030552864074707
-3.242729425430298 -16.550737380981445 2.9738268852233887
-2.888369083404541 -16.47041893005371 2.9484965801239014
-2.5645408630371094 -16.55072784423828 2.953165292739868
-1.8946679830551147 -16.550718307495117 2.937396764755249
-1.5621386766433716 -16.55071258544922 2.931309223175049
-1.2308545112609863 -16.55070686340332 2.926398277282715
-0.9005566239356995 -16.550703048706055 2.92265248298645
-0.5709667801856995 -16.550697326660156 2.9200713634490967
0.41612792015075684 -16.55068588256836 2.9192559719085693
1.564916968345642 -24.084362030029297 4.255679607391357
2.046279191970825 -24.084352493286133 4.262022018432617
2.5292625427246094 -24.0843448638916 4.2700724601745605
3.0142576694488525 -24.084335327148438 4.279846668243408
3.5016894340515137 -24.084325790405273 4.291366100311279
-4.633549690246582 -16.550756454467773 2.63297176361084
-4.280756950378418 -16.550750732421875 2.618917226791382
-3.931572198867798 -16.550745010375977 2.606034994125366
-3.242729425430298 -16.550737380981445 2.5836870670318604
-2.888369083404541 -16.47041893005371 2.5616846084594727
-2.228706121444702 -16.550722122192383 2.5583603382110596
-1.8946582078933716 -16.550718307495117 2.5520362854003906
-1.2308545112609863 -16.55070686340332 2.542478322982788
-0.9005468487739563 -16.550703048706055 2.5392260551452637
-0.2418261617422104 -16.55069351196289 2.535745143890381
0.41612792015075684 -16.550683975219727 2.5362722873687744
0.7454785108566284 -16.55068016052246 2.538041830062866
1.5512059926986694 -23.87333106994629 3.6649718284606934
2.0283446311950684 -23.873321533203125 3.6704368591308594
3.47100567817688 -23.873292922973633 3.6957080364227295
3.9569530487060547 -23.87328338623047 3.707148313522339
4.446117877960205 -23.873273849487305 3.720135450363159
4.938930511474609 -23.87326431274414 3.734694719314575
-4.633544921875 -16.550756454467773 2.23812198638916
-3.93157696723938 -16.55074691772461 2.2152247428894043
-3.242729425430298 -16.550737380981445 2.196227788925171
-0.2418212890625 -16.55069351196289 2.155474901199341
0.08711425215005875 -16.550687789916992 2.15527606010437
-4.633549690246582 -16.550756454467773 1.8455817699432373
-3.931572198867798 -16.55074691772461 1.826704502105713
-3.242729425430298 -16.550737380981445 1.811034917831421
-2.88836407661438 -16.47041893005371 1.7956129312515259
-2.5645360946655273 -16.55072784423828 1.7984532117843628
-2.228706121444702 -16.550722122192383 1.7932844161987305
-1.8946582078933716 -16.550718307495117 1.788849949836731
-0.9005468487739563 -16.550703048706055 1.7798728942871094
-0.5709618926048279 -16.550697326660156 1.7782979011535645
0.08711913973093033 -16.550689697265625 1.7772642374038696
0.7454785108566284 -16.550678253173828 1.7790409326553345
-3.912490129470825 -16.470434188842773 1.4330650568008423
-3.5682666301727295 -16.470428466796875 1.426612377166748
-2.888369083404541 -16.47041893005371 1.4155442714691162
-2.217890501022339 -16.470409393310547 1.4068485498428345
-1.8854687213897705 -16.47040557861328 1.4033695459365845
-1.5545556545257568 -16.470399856567383 1.400461196899414
-1.2248828411102295 -16.470396041870117 1.3981140851974487
-0.8961816430091858 -16.47039222717285 1.3963252305984497
-0.568188488483429 -16.470388412475586 1.3950932025909424
-0.24065428972244263 -16.470382690429688 1.3944129943847656
0.41411131620407104 -16.470373153686523 1.3947044610977173
0.7418554425239563 -16.470367431640625 1.395674228668213
-3.9124951362609863 -16.470434188842773 1.0497584342956543
-2.88836407661438 -16.47041893005371 1.0369257926940918
-2.5520946979522705 -16.470415115356445 1.0335261821746826
-2.217885732650757 -16.47041130065918 1.0305536985397339
-1.2248828411102295 -16.47039794921875 1.024153232574463
-0.8961816430091858 -16.47039222717285 1.0228428840637207
-0.24065428972244263 -16.470382690429688 1.021443247795105
0.7418554425239563 -16.470367431640625 1.022368311882019
-4.259985446929932 -16.470441818237305 0.6708167791366577
-2.888373851776123 -16.47041893005371 0.6593562364578247
-2.5520946979522705 -16.470417022705078 0.6571958661079407
-2.2178955078125 -16.47041130065918 0.6553068161010742
-1.5545556545257568 -16.470401763916016 0.6523323059082031
-1.2248828411102295 -16.47039794921875 0.6512385606765747
-0.5681982040405273 -16.470388412475586 0.6498316526412964
0.08669433742761612 -16.470378875732422 0.6494520306587219
0.7418554425239563 -16.470367431640625 0.6501039266586304
9.655668258666992 -46.67252731323242 1.8793144226074219
-4.611059665679932 -16.47044563293457 0.28891250491142273
-4.259980201721191 -16.470441818237305 0.2873695194721222
-3.9124951362609863 -16.470436096191406 0.28595930337905884
-3.5682666301727295 -16.47043228149414 0.28467056155204773
-3.226992130279541 -16.470426559448242 0.28350630402565
-2.888373851776123 -16.470422744750977 0.282460480928421
-2.5520946979522705 -16.470417022705078 0.281534880399704
-1.8854687213897705 -16.470407485961914 0.2800331115722656
-1.5545605421066284 -16.470401763916016 0.27945175766944885
-0.8961816430091858 -16.47039222717285 0.27862808108329773
-0.5681933760643005 -16.470388412475586 0.27837905287742615
0.08668944984674454 -16.470378875732422 0.2782191336154938
0.41411131620407104 -16.470373153686523 0.27830490469932556
0.7418554425239563 -16.470367431640625 0.2784980833530426
-4.798163890838623 -17.13874053955078 -0.10020461678504944
-4.071249961853027 -17.138731002807617 -0.09917876869440079
-3.7130613327026367 -17.13872528076172 -0.09873352199792862
-2.3078808784484863 -17.138702392578125 -0.0973651111125946
-1.961977481842041 -17.138700485229492 -0.09712264686822891
-1.5545556545257568 -16.470401763916016 -0.09314132481813431
-0.98316890001297 -18.069047927856445 -0.10188049077987671
-0.6233447194099426 -18.069042205810547 -0.10179351270198822
-0.2640087902545929 -18.069034576416016 -0.10174010694026947
0.09510742127895355 -18.069032669067383 -0.10173385590314865
0.7418603301048279 -16.47037124633789 -0.09282562136650085
-4.798159122467041 -17.13874053955078 -0.5011457800865173
-4.071245193481445 -17.138731002807617 -0.4960166811943054
-3.7130467891693115 -17.13872528076172 -0.4937863051891327
-2.3078808784484863 -17.13870620727539 -0.48694518208503723
-1.9619725942611694 -17.138700485229492 -0.4857412576675415
-0.6233447194099426 -18.069042205810547 -0.5090893507003784
-0.2640087902545929 -18.06903839111328 -0.5088394284248352
0.09510742127895355 -18.069032669067383 -0.508790910243988
0.45430663228034973 -18.06902503967285 -0.5089451670646667
0.7418603301048279 -16.47037124633789 -0.46424055099487305
-4.798163890838623 -17.138742446899414 -0.9025980830192566
-4.432831764221191 -17.138734817504883 -0.8977787494659424
-3.7130515575408936 -17.13872528076172 -0.889340341091156
-3.005566358566284 -17.138715744018555 -0.8824390769004822
-1.9619725942611694 -17.138700485229492 -0.8748533725738525
-1.5545556545257568 -16.470401763916016 -0.8389967083930969
-1.224877953529358 -16.47039794921875 -0.8375898599624634
-0.9831640124320984 -18.069047927856445 -0.9177140593528748
-0.2640136778354645 -18.06903839111328 -0.9164552092552185
0.09511230140924454 -18.069032669067383 -0.9163686633110046
0.45430663228034973 -18.06902503967285 -0.9166462421417236
4.640815258026123 -44.191219329833984 -2.2534494400024414
5.518300533294678 -44.09197235107422 -2.253537893295288
7.266650199890137 -43.8414306640625 -2.2537169456481934
6.849194049835205 -36.7764778137207 -1.8971565961837769
6.862660884857178 -33.17198181152344 -1.7178993225097656
-4.432837009429932 -17.138736724853516 -1.2979995012283325
-4.071245193481445 -17.138731002807617 -1.291616439819336
-3.005571126937866 -17.138715744018555 -1.2758240699768066
-2.3078808784484863 -17.13870620727539 -1.2679890394210815
-1.5545556545257568 -16.47040557861328 -1.2130132913589478
-1.224877953529358 -16.470399856567383 -1.2109787464141846
-0.9831640124320984 -18.069047927856445 -1.3268232345581055
-0.2640087902545929 -18.06903839111328 -1.3250033855438232
0.09510742127895355 -18.069032669067383 -1.3248786926269531
0.45430174469947815 -18.069028854370117 -1.325277328491211
6.231986999511719 -30.12342643737793 -2.2554831504821777
-4.432837009429932 -17.138736724853516 -1.699548602104187
-3.7130565643310547 -17.13872528076172 -1.6835741996765137
-3.3579344749450684 -17.13871955871582 -1.6766855716705322
-2.655644416809082 -17.138710021972656 -1.6650359630584717
-1.9619725942611694 -17.138700485229492 -1.65614652633667
-1.5545556545257568 -16.47040557861328 -1.5882688760757446
-1.224877953529358 -16.470399856567383 -1.585605263710022
0.09511230140924454 -18.069032669067383 -1.7347403764724731
0.45430174469947815 -18.069028854370117 -1.7352648973464966
1.9885156154632568 -23.40458106994629 -2.255049467086792
2.4533300399780273 -23.361310958862305 -2.255134344100952
3.841425657272339 -23.17620277404785 -2.255387783050537
4.301396369934082 -23.096147537231445 -2.255471706390381
4.759716510772705 -23.00696563720703 -2.2555556297302246
-4.798159122467041 -17.138742446899414 -2.1141178607940674
-4.432837009429932 -17.138736724853516 -2.1028342247009277
-4.071245193481445 -17.13873291015625 -2.0924925804138184
-3.7130565643310547 -17.13872718811035 -2.083069324493408
-3.3579394817352295 -17.138723373413086 -2.0745482444763184
-2.655649423599243 -17.138710021972656 -2.060131549835205
-2.3078856468200684 -17.13870620727539 -2.054213762283325
-1.5545556545257568 -16.470401763916016 -1.965147614479065
-1.2248828411102295 -16.470399856567383 -1.9618548154830933
-0.9831640124320984 -18.069049835205078 -2.1495251655578613
-0.2640136778354645 -18.06903839111328 -2.146575450897217
1.230859398841858 -18.943082809448242 -2.2549195289611816
1.6071044206619263 -18.915470123291016 -2.254988193511963
1.9827587604522705 -18.880388259887695 -2.255056858062744
2.3576414585113525 -18.837799072265625 -2.2551252841949463
2.7316064834594727 -18.787818908691406 -2.2551934719085693
3.1045262813568115 -18.730388641357422 -2.2552616596221924
3.4762401580810547 -18.665555953979492 -2.2553296089172363
3.8466062545776367 -18.593326568603516 -2.255397319793701
-4.284160137176514 -15.302736282348633 -2.2516021728515625
-3.9795751571655273 -15.386274337768555 -2.2518086433410645
-3.3655662536621094 -15.534879684448242 -2.2521896362304688
-3.05645489692688 -15.599909782409668 -2.252363920211792
-2.746044874191284 -15.65868854522705 -2.2525274753570557
-2.4344725608825684 -15.71123218536377 -2.2526800632476807
-2.1219139099121094 -15.757513999938965 -2.252821683883667
-1.4942235946655273 -15.83113956451416 -2.2530717849731445
-0.8640331625938416 -15.879465103149414 -2.253277540206909
-0.5483056306838989 -15.894105911254883 -2.253363609313965
-0.23250000178813934 -15.90239429473877 -2.2534384727478027
0.7157177329063416 -15.889086723327637 -2.2535951137542725
1.661074161529541 -15.818588256835938 -2.2536494731903076
2.6007518768310547 -15.69115161895752 -2.2536020278930664
2.9120166301727295 -15.636110305786133 -2.253563404083252
3.222114086151123 -15.574809074401855 -2.2535133361816406
-3.759829044342041 -13.429810523986816 -2.29748272895813
-3.4743895530700684 -13.430808067321777 -2.285388231277466
-1.5521923303604126 -13.56380558013916 -2.2490856647491455
-1.2829052209854126 -13.592287063598633 -2.249133825302124
-1.0125536918640137 -13.615653991699219 -2.2492265701293945
-0.4707568287849426 -13.646097183227539 -2.2493836879730225
-0.1994970589876175 -13.653143882751465 -2.249447822570801
1.156040072441101 -13.606642723083496 -2.2496230602264404
1.4262157678604126 -13.580949783325195 -2.2496185302734375
1.6958690881729126 -13.550280570983887 -2.249677896499634
-3.1988964080810547 -12.36793327331543 -2.40118670463562
-2.9529783725738525 -12.429296493530273 -2.401231288909912
-2.7060742378234863 -12.485758781433105 -2.4012763500213623
-2.206743001937866 -12.583853721618652 -2.4013671875
-1.9563231468200684 -12.625473022460938 -2.4014129638671875
-1.7050341367721558 -12.662088394165039 -2.401458740234375
-1.453163981437683 -12.693731307983398 -2.4015045166015625
-0.9475732445716858 -12.741923332214355 -2.401596784591675
-0.6941601634025574 -12.758479118347168 -2.4016430377960205
0.06734862923622131 -12.777921676635742 -2.4017817974090576
0.8285790681838989 -12.751945495605469 -2.401920795440674
1.0818896293640137 -12.73320484161377 -2.4019670486450195
1.8387938737869263 -12.646842002868652 -2.4021050930023193
2.589716672897339 -12.515520095825195 -2.4022421836853027
-2.6253271102905273 -11.052490234375 -2.401292562484741
-1.9621435403823853 -11.18985652923584 -2.4014134407043457
-1.7400829792022705 -11.226934432983398 -2.401453733444214
-1.516664981842041 -11.259474754333496 -2.4014945030212402
-0.8426415920257568 -11.330328941345215 -2.4016172885894775
0.05926269292831421 -11.36229133605957 -2.4017817974090576
0.2855810523033142 -11.358996391296387 -2.4018232822418213
0.9619872570037842 -11.322380065917969 -2.401946544647217
1.1868212223052979 -11.301220893859863 -2.4019875526428223
1.6356396675109863 -11.245450973510742 -2.402069568634033
2.3023290634155273 -11.128674507141113 -2.402191162109375
-0.960253894329071 -10.173357963562012 -2.401597261428833
-0.7578662037849426 -10.190573692321777 -2.4016342163085938
0.053789060562849045 -10.21920108795166 -2.4017820358276367
0.4598486125469208 -10.209311485290527 -2.4018561840057373
0.8652538657188416 -10.183276176452637 -2.401930093765259
1.4705077409744263 -10.114105224609375 -2.402040719985962
1.6712499856948853 -10.083036422729492 -2.4020771980285645
1.8713232278823853 -10.047986030578613 -2.402113676071167
2.0706541538238525 -10.00897216796875 -2.4021501541137695
-1.963808536529541 -9.064526557922363 -2.4014153480529785
-1.7833056449890137 -9.101893424987793 -2.4014482498168945
-1.4202489852905273 -9.165815353393555 -2.4015142917633057
-1.237831950187683 -9.19235610961914 -2.40154767036438
-1.054931640625 -9.21527099609375 -2.401580810546875
-0.31980955600738525 -9.27046012878418 -2.401715040206909
-0.13551758229732513 -9.275107383728027 -2.4017486572265625
0.233154296875 -9.273430824279785 -2.40181565284729
0.6014941334724426 -9.257102966308594 -2.401883125305176
1.152075171470642 -9.205192565917969 -2.4019834995269775
1.3347948789596558 -9.180612564086914 -2.4020168781280518
1.51699697971344 -9.152396202087402 -2.402050018310547
1.6985790729522705 -9.120573997497559 -2.402083158493042
-2.2868406772613525 -8.168506622314453 -2.401357412338257
-2.124082088470459 -8.21243667602539 -2.4013869762420654
-1.9605028629302979 -8.253125190734863 -2.401416778564453
-1.7961132526397705 -8.290560722351074 -2.40144681930542
-1.4652929306030273 -8.355591773986816 -2.4015071392059326
-1.2989842891693115 -8.383169174194336 -2.4015371799468994
-0.2925048768520355 -8.478814125061035 -2.4017207622528076
-0.12395507842302322 -8.483059883117676 -2.4017515182495117
0.04465331882238388 -8.483953475952148 -2.401782274246216
0.38175779581069946 -8.475700378417969 -2.401843786239624
0.5501269698143005 -8.466551780700684 -2.401874542236328
0.71827632188797 -8.454051971435547 -2.401905059814453
1.053676724433899 -8.419045448303223 -2.4019663333892822
1.2207958698272705 -8.396550178527832 -2.4019968509674072
1.3874316215515137 -8.37073802947998 -2.4020273685455322
1.7189990282058716 -8.3092041015625 -2.402087688446045
-1.653164029121399 -7.630654335021973 -2.4014735221862793
-1.1955761909484863 -7.7158708572387695 -2.401556968688965
-1.042016625404358 -7.73819637298584 -2.4015848636627197
-0.5790917873382568 -7.786808490753174 -2.4016692638397217
-0.42424315214157104 -7.796874046325684 -2.4016973972320557
-0.2692236304283142 -7.803859233856201 -2.4017257690429688
-0.11408691108226776 -7.807757377624512 -2.401754140853882
0.041093748062849045 -7.808574676513672 -2.401782274246216
0.19627441465854645 -7.80630350112915 -2.401810646057129
0.5063329935073853 -7.792524814605713 -2.401867151260376
0.8156054615974426 -7.766432285308838 -2.401923656463623
1.1236034631729126 -7.728068828582764 -2.401979923248291
1.2769726514816284 -7.704302787780762 -2.402007818222046
-1.8090429306030273 -6.9942851066589355 -2.4014456272125244
-1.6696972846984863 -7.028927326202393 -2.4014711380004883
-1.3890966176986694 -7.089874267578125 -2.401522397994995
-1.2479443550109863 -7.116157531738281 -2.401547908782959
-0.9641942977905273 -7.160283088684082 -2.401599645614624
-0.8217333555221558 -7.178106307983398 -2.401625633239746
-0.6789159774780273 -7.193095684051514 -2.401651620864868
-0.39255857467651367 -7.214548587799072 -2.4017038345336914
-0.2491162121295929 -7.221006870269775 -2.4017300605773926
-0.1055615246295929 -7.224607944488525 -2.4017562866210938
0.32512205839157104 -7.218297004699707 -2.401834726333618
0.468505859375 -7.210490703582764 -2.4018609523773193
0.754687488079071 -7.186332702636719 -2.4019131660461426
1.1815966367721558 -7.12882661819458 -2.401991128921509
1.3230419158935547 -7.104012489318848 -2.4020168781280518
-1.5520458221435547 -6.533637046813965 -2.4014930725097656
-1.421913981437683 -6.5632548332214355 -2.401516914367676
-1.1600146293640137 -6.614704608917236 -2.401564598083496
-0.89625483751297 -6.655710697174072 -2.4016127586364746
-0.7638232111930847 -6.672274589538574 -2.401636838912964
-0.6310790777206421 -6.6862006187438965 -2.401660919189453
-0.4980761706829071 -6.69749116897583 -2.4016852378845215
-0.23155273497104645 -6.712129592895508 -2.401733875274658
-0.09812499582767487 -6.715474605560303 -2.4017579555511475
0.03535156324505806 -6.716165542602539 -2.401782512664795
0.16880859434604645 -6.714203834533691 -2.4018068313598633
0.3022119104862213 -6.709590435028076 -2.4018311500549316
0.43549802899360657 -6.702328205108643 -2.40185546875
0.701489269733429 -6.6798624992370605 -2.4019038677215576
0.8341162204742432 -6.664670467376709 -2.401928186416626
1.2297899723052979 -6.603326797485352 -2.4020004272460938
1.3607958555221558 -6.577648639678955 -2.402024269104004
-1.6894335746765137 -6.034557342529297 -2.401468515396118
-1.5691943168640137 -6.066993713378906 -2.4014904499053955
-1.3268896341323853 -6.124670505523682 -2.4015345573425293
-1.0824902057647705 -6.172673225402832 -2.4015791416168213
-0.9596191048622131 -6.193025588989258 -2.401601552963257
-0.7127685546875 -6.226382732391357 -2.401646614074707
-0.46479979157447815 -6.249907493591309 -2.4016916751861572
-0.09157226234674454 -6.2666754722595215 -2.401759624481201
0.032988280057907104 -6.267317771911621 -2.401782512664795
0.1575292944908142 -6.265482425689697 -2.4018051624298096
0.2820068299770355 -6.261175632476807 -2.4018280506134033
0.4063818156719208 -6.254390716552734 -2.401850700378418
0.5306054353713989 -6.245137691497803 -2.4018733501434326
1.02490234375 -6.183513164520264 -2.401963472366333
1.1475927829742432 -6.16198205947876 -2.4019858837127686
1.2698436975479126 -6.13801383972168 -2.402008295059204
-1.5818945169448853 -5.65040922164917 -2.4014885425567627
-1.4692968130111694 -5.6807780265808105 -2.4015092849731445
-1.2424169778823853 -5.734776496887207 -2.40155029296875
-0.8985204696655273 -5.798769950866699 -2.4016129970550537
-0.6673925518989563 -5.82999324798584 -2.4016551971435547
-0.31882810592651367 -5.859560012817383 -2.401718854904175
-0.2023290991783142 -5.864790916442871 -2.401740074157715
0.3804980516433716 -5.856189250946045 -2.401846170425415
0.6129345297813416 -5.836545944213867 -2.401888608932495
0.7288036942481995 -5.823264122009277 -2.401909828186035
0.9596533179283142 -5.789804935455322 -2.401952028274536
1.1889843940734863 -5.747199058532715 -2.401993989944458
-1.2735400199890137 -5.361258506774902 -2.401545286178589
-1.0594482421875 -5.407718181610107 -2.4015841484069824
-0.9516991972923279 -5.427748203277588 -2.4016036987304688
-0.8436816334724426 -5.445637226104736 -2.401623487472534
-0.626635730266571 -5.4749555587768555 -2.401663064956665
-0.5177001953125 -5.486374855041504 -2.4016828536987305
-0.40871092677116394 -5.495632171630859 -2.401702880859375
-0.08051757514476776 -5.5103559494018555 -2.4017627239227295
0.13844726979732513 -5.509296894073486 -2.4018025398254395
0.35738280415534973 -5.499529838562012 -2.4018423557281494
0.4665820300579071 -5.491389274597168 -2.401862382888794
0.7929394245147705 -5.4539666175842285 -2.4019219875335693
0.9012304544448853 -5.437175750732422 -2.4019417762756348
-1.2991503477096558 -5.022912979125977 -2.401540994644165
-1.1990869045257568 -5.047778129577637 -2.4015591144561768
-0.9975634813308716 -5.091517448425293 -2.4015958309173584
-0.8961962461471558 -5.110373497009277 -2.4016144275665283
-0.7944677472114563 -5.127213478088379 -2.401632785797119
-0.6924267411231995 -5.142029762268066 -2.401651382446289
-0.4875536859035492 -5.165565013885498 -2.401688814163208
-0.1788964867591858 -5.1855597496032715 -2.401744842529297
-0.07581054419279099 -5.188130855560303 -2.401763916015625
0.02730468660593033 -5.1886515617370605 -2.401782512664795
0.13041503727436066 -5.187126159667969 -2.401801347732544
0.33644041419029236 -5.177927017211914 -2.401839017868042
0.439277321100235 -5.170259952545166 -2.401857852935791
0.5419482588768005 -5.160549163818359 -2.401876449584961
0.7465869188308716 -5.135018348693848 -2.40191388130188
0.8484911918640137 -5.119205951690674 -2.40193247795105
1.0512744188308716 -5.0815253257751465 -2.4019694328308105
-1.1315282583236694 -4.7633867263793945 -2.401571750640869
-0.6534130573272705 -4.852318286895752 -2.401658773422241
-0.5568603277206421 -4.864380836486816 -2.4016764163970947
-0.4600878655910492 -4.874522686004639 -2.4016940593719482
-0.16881346702575684 -4.8933844566345215 -2.401747226715088
-0.07154297083616257 -4.895808696746826 -2.4017648696899414
0.025761717930436134 -4.896298885345459 -2.401782512664795
0.22032226622104645 -4.891480445861816 -2.40181827545166
0.3174804747104645 -4.886170387268066 -2.4018359184265137
0.6080859303474426 -4.858677864074707 -2.401888847351074
0.7045214772224426 -4.845671653747559 -2.4019064903259277
0.8006835579872131 -4.830749034881592 -2.4019241333007812
0.9920312166213989 -4.7951860427856445 -2.40195894241333
-1.248022437095642 -4.457830429077148 -2.401550769805908
-1.1591894626617432 -4.481782913208008 -2.401566982269287
-1.0699071884155273 -4.503963470458984 -2.401583194732666
-0.34334471821784973 -4.6168012619018555 -2.4017157554626465
-0.15962402522563934 -4.626863956451416 -2.4017491340637207
-0.06764648109674454 -4.629153251647949 -2.401765823364258
0.02436523325741291 -4.62961483001709 -2.401782512664795
0.2083154320716858 -4.625056743621826 -2.4018161296844482
0.30019041895866394 -4.620035171508789 -2.4018330574035645
0.39194822311401367 -4.61318826675415 -2.4018497467041016
0.5749560594558716 -4.594031810760498 -2.401883125305176
0.6661474704742432 -4.58173131942749 -2.401899814605713
0.847705066204071 -4.551706790924072 -2.401932954788208
0.9379931688308716 -4.533991813659668 -2.401949405670166
-1.0979833602905273 -4.245120048522949 -2.401578426361084
-1.0134081840515137 -4.266129016876221 -2.4015936851501465
-0.7574169635772705 -4.319018363952637 -2.4016404151916504
-0.6714404225349426 -4.333244323730469 -2.401656150817871
-0.32521483302116394 -4.372996807098389 -2.401719093322754
-0.1511865258216858 -4.382523536682129 -2.4017508029937744
-0.06406737864017487 -4.38469123840332 -2.401766777038574
0.023081054911017418 -4.385127544403076 -2.401782751083374
0.11021972447633743 -4.3838300704956055 -2.401798725128174
0.1973242163658142 -4.380805969238281 -2.4018144607543945
0.3712548613548279 -4.369558811187744 -2.401846170425415
0.4580126702785492 -4.361348628997803 -2.401862144470215
0.5445947051048279 -4.351412296295166 -2.4018778800964355
0.6309765577316284 -4.339759349822998 -2.4018936157226562
0.8029345273971558 -4.311316967010498 -2.4019250869750977
0.8884570002555847 -4.2945356369018555 -2.4019408226013184
-1.041601538658142 -4.027153015136719 -2.4015889167785645
-0.8807616829872131 -4.065412998199463 -2.401618242263794
-0.71852046251297 -4.097250938415527 -2.4016478061676025
-0.636962890625 -4.110744953155518 -2.401662588119507
-0.5551513433456421 -4.122617721557617 -2.4016776084899902
-0.4731200933456421 -4.132862567901611 -2.4016923904418945
-0.3908984363079071 -4.141473293304443 -2.401707410812378
-0.30851560831069946 -4.148449420928955 -2.4017224311828613
0.10456542670726776 -4.15872049331665 -2.4017977714538574
0.5985693335533142 -4.116905212402344 -2.401887893676758
0.6802685260772705 -4.10422420501709 -2.401902914047241
0.7617040872573853 -4.089919567108154 -2.4019176959991455
