ply
format ascii 1.0
element vertex 330
property float x
property float y
property float z
end_header
8.440985679626465 27.021137237548828 4.991614818572998
8.3610200881958 31.098060607910156 5.678153038024902
7.774159908294678 24.886537551879883 3.9941656589508057
8.3704833984375 28.814550399780273 4.59670877456665
8.435888290405273 37.28327560424805 5.855967044830322
8.304892539978027 40.459510803222656 6.327391624450684
7.754262447357178 23.17823600769043 3.182717800140381
7.834628582000732 25.080106735229492 3.421595335006714
7.834677696228027 26.97012710571289 3.6572582721710205
8.360605239868164 31.096548080444336 4.193231105804443
8.360678672790527 33.78654861450195 4.532394886016846
8.435883522033691 37.28327941894531 4.977786064147949
8.36227035522461 45.33954620361328 6.003732204437256
7.754106044769287 23.177778244018555 2.624467611312866
7.83450174331665 26.969511032104492 3.015751361846924
7.940292835235596 35.09295654296875 3.863600492477417
8.360605239868164 40.73093795776367 4.4649457931518555
8.362275123596191 45.33954620361328 4.950753211975098
7.834301471710205 25.079057693481445 2.2241828441619873
7.834325790405273 26.968910217285156 2.377370595932007
9.435087203979492 35.09296798706055 3.0762133598327637
8.683969497680664 35.09296798706055 3.06032395362854
7.754213809967041 37.776702880859375 3.2645769119262695
7.7542724609375 42.04298782348633 3.6190764904022217
7.753823280334473 24.82139015197754 1.6125340461730957
9.435087203979492 35.09296798706055 2.253404378890991
7.753969669342041 37.77553176879883 2.39131236076355
7.754008769989014 42.04153823852539 2.6509783267974854
7.756972312927246 47.3674201965332 2.976390838623047
7.753652095794678 23.17640495300293 0.9636591672897339
7.753662109375 26.69121551513672 1.0959690809249878
9.43508243560791 35.09296798706055 1.4328947067260742
8.6839599609375 35.09296417236328 1.4254908561706543
7.940297603607178 35.09295654296875 1.4187290668487549
7.753739833831787 42.040122985839844 1.6856412887573242
7.756962776184082 47.3674201965332 1.892626404762268
7.753500938415527 23.17593765258789 0.4128120243549347
7.753490924835205 26.690649032592773 0.4694947600364685
7.939980506896973 35.09157943725586 0.6077470183372498
7.753476619720459 42.03862762451172 0.7220878601074219
8.070771217346191 24.124296188354492 -0.14322173595428467
9.434711456298828 35.091590881347656 -0.20458495616912842
8.683623313903809 35.09158706665039 -0.20352919399738312
7.939980506896973 35.09157943725586 -0.20256301760673523
7.925883769989014 42.973514556884766 -0.24602630734443665
7.925815105438232 48.39849090576172 -0.27611997723579407
7.753173828125 24.819345474243164 -0.7321778535842896
8.68361759185791 35.09158706665039 -1.0179088115692139
7.946620941162109 38.71409225463867 -1.1128332614898682
8.17885684967041 28.154911041259766 -1.4868810176849365
9.434711456298828 35.09158706665039 -1.8428393602371216
8.68361759185791 35.09157943725586 -1.833319067955017
7.769052505493164 37.8489875793457 -1.9595028162002563
7.925341606140137 42.97050857543945 -2.2159693241119385
2.748852491378784 44.28399658203125 -2.250154733657837
0.08513915538787842 47.35994338989258 -2.4018232822418213
-0.864990234375 47.34690475463867 -2.4015612602233887
-1.8146313428878784 47.31499481201172 -2.401299476623535
-6.540937423706055 46.86976623535156 -2.399995803833008
8.070761680603027 24.124292373657227 -1.8652046918869019
7.769145488739014 26.744497299194336 -2.0420281887054443
6.173998832702637 30.07826042175293 -2.2513864040374756
5.56835412979126 30.191137313842773 -2.2510156631469727
4.960881233215332 30.293235778808594 -2.2507495880126953
3.7409446239471436 30.4632568359375 -2.250413417816162
2.515378475189209 30.58424186706543 -2.250075578689575
2.0298728942871094 32.701229095458984 -2.402343988418579
0.7161620855331421 32.75144958496094 -2.401981830596924
-1.9114354848861694 32.69356918334961 -2.401257276535034
-2.5668187141418457 32.64622116088867 -2.401076555252075
7.442646503448486 22.246767044067383 -2.2521541118621826
5.173901081085205 22.866601943969727 -2.250800371170044
4.713803768157959 22.96452522277832 -2.250673532485962
2.8567724227905273 23.26323699951172 -2.25016188621521
1.55020010471344 24.97359848022461 -2.4022035598754883
0.04497314244508743 25.017333984375 -2.4017884731292725
-0.45695555210113525 25.011743545532227 -2.4016501903533936
-1.4598925113677979 24.97039031982422 -2.4013736248016357
-1.9604955911636353 24.934608459472656 -2.401235342025757
-2.4602415561676025 24.888866424560547 -2.4010977745056152
5.650546550750732 18.08843994140625 -2.251051425933838
4.919579982757568 18.297945022583008 -2.250725507736206
4.181128025054932 18.478919982910156 -2.2505221366882324
3.8093481063842773 18.55824851989746 -2.2504196166992188
3.4360716342926025 18.630088806152344 -2.250316619873047
3.0614330768585205 18.694412231445312 -2.250213623046875
2.685605525970459 18.751209259033203 -2.250109910964966
2.3087353706359863 18.800472259521484 -2.2500059604644775
1.6576415300369263 20.155115127563477 -2.4022281169891357
0.03635253757238388 20.21938133239746 -2.4017810821533203
-0.3693188428878784 20.215078353881836 -2.4016692638397217
-0.7748144268989563 20.20267105102539 -2.401557445526123
-1.1799486875534058 20.18209457397461 -2.4014456272125244
-2.3916308879852295 20.071760177612305 -2.401111364364624
-2.7937402725219727 20.018814086914062 -2.401000499725342
5.039814472198486 15.064485549926758 -2.2507550716400146
4.736361980438232 15.161983489990234 -2.250671625137329
3.8152122497558594 15.417750358581543 -2.250417947769165
2.8804516792297363 15.617542266845703 -2.2501602172851562
0.7105786204338074 16.937421798706055 -2.401963472366333
0.37058836221694946 16.947622299194336 -2.401869773864746
-0.6495702862739563 16.937232971191406 -2.4015884399414062
-1.3284789323806763 16.89622688293457 -2.4014010429382324
-1.66714346408844 16.865522384643555 -2.4013078212738037
4.334267616271973 12.95555591583252 -2.250558376312256
3.8107616901397705 13.118173599243164 -2.2504141330718994
3.546682119369507 13.191560745239258 -2.2503414154052734
3.0143823623657227 13.322368621826172 -2.250194787979126
2.207219123840332 13.478252410888672 -2.2499725818634033
2.061052083969116 14.390517234802246 -2.3948733806610107
1.1951855421066284 14.532135009765625 -2.402094602584839
0.9033373594284058 14.552706718444824 -2.4020140171051025
0.3187231421470642 14.576258659362793 -2.401853084564209
0.026213377714157104 14.579218864440918 -2.4017722606658936
-0.5586987137794495 14.567557334899902 -2.401610851287842
-1.1426219940185547 14.532427787780762 -2.4014499187469482
-1.433923363685608 14.506104469299316 -2.401369571685791
-2.0146191120147705 14.435935020446777 -2.4012093544006348
3.3397679328918457 11.496818542480469 -2.2502825260162354
3.10833740234375 11.56119155883789 -2.2502188682556152
2.8756566047668457 11.620882034301758 -2.250154733657837
2.641843318939209 11.675912857055664 -2.2500903606414795
2.406975030899048 11.726226806640625 -2.250025510787964
1.5577441453933716 12.684990882873535 -2.4021925926208496
1.0475049018859863 12.736519813537598 -2.4020519256591797
0.7917187213897705 12.754612922668457 -2.4019813537597656
-0.2334033101797104 12.775525093078613 -2.401698589324951
-0.7457275390625 12.755127906799316 -2.401557445526123
-1.2567895650863647 12.714187622070312 -2.401416540145874
-1.5115892887115479 12.686040878295898 -2.401346206665039
-1.7657666206359863 12.65278434753418 -2.401276111602783
2.969614267349243 10.222597122192383 -2.2501792907714844
2.349064826965332 10.381940841674805 -2.2500081062316895
2.1402342319488525 10.426719665527344 -2.249950647354126
2.0596044063568115 11.1669921875 -2.40028977394104
1.6112035512924194 11.249600410461426 -2.4022057056427
1.3851318359375 11.279373168945312 -2.4021434783935547
1.158510684967041 11.304604530334473 -2.40208101272583
0.24840086698532104 11.359902381896973 -2.4018301963806152
-0.20754393935203552 11.360133171081543 -2.4017043113708496
-0.4354248046875 11.35338306427002 -2.401641368865967
-0.6631127595901489 11.34206485748291 -2.401578664779663
-1.1175634860992432 11.305742263793945 -2.4014532566070557
-1.3441455364227295 11.280744552612305 -2.40139102935791
-1.5701708793640137 11.251214027404785 -2.4013285636901855
2.670778751373291 9.193877220153809 -2.250095844268799
2.485712766647339 9.245397567749023 -2.250044822692871
2.2996580600738525 9.293195724487305 -2.2499935626983643
2.055288076400757 10.012900352478027 -2.402326822280884
1.4490892887115479 10.117712020874023 -2.4021599292755127
1.245766520500183 10.144515037536621 -2.402103900909424
1.0419481992721558 10.16722297668457 -2.402047634124756
0.42836669087409973 10.21077823638916 -2.4018783569335938
0.01837158203125 10.219261169433594 -2.4017653465270996
-0.3916259706020355 10.211288452148438 -2.4016523361206055
-0.5964111089706421 10.201133728027344 -2.4015958309173584
-1.4122387170791626 10.11953067779541 -2.4013707637786865
2.5912206172943115 8.294984817504883 -2.250072956085205
2.4242210388183594 8.345135688781738 -2.2500267028808594
2.2562522888183594 8.391925811767578 -2.2499806880950928
2.088559627532959 8.440117835998535 -2.251210927963257
1.865576148033142 9.088631629943848 -2.402273416519165
1.6828100681304932 9.124046325683594 -2.4022231101989746
1.4993700981140137 9.155789375305176 -2.402172565460205
1.1307836771011353 9.208173751831055 -2.402070999145508
0.9457861185073853 9.228816032409668 -2.40201997756958
0.5747387409210205 9.25893783569336 -2.4019179344177246
0.016679687425494194 9.27614688873291 -2.401763916015625
-0.35548338294029236 9.268950462341309 -2.4016613960266113
-0.5413720607757568 9.259756088256836 -2.4016101360321045
-0.7270336747169495 9.246834754943848 -2.4015588760375977
-0.9123950004577637 9.230184555053711 -2.40150785446167
-1.0973827838897705 9.20982551574707 -2.401456594467163
-1.281923770904541 9.185755729675293 -2.4014058113098145
2.521660089492798 7.537482738494873 -2.2500526905059814
2.073972225189209 7.713946342468262 -2.261314868927002
2.0384252071380615 8.237513542175293 -2.402320384979248
1.8727025985717773 8.276596069335938 -2.4022746086120605
1.7062304019927979 8.312342643737793 -2.402228832244873
1.2029955387115479 8.399449348449707 -2.402090072631836
0.6954687237739563 8.456116676330566 -2.4019503593444824
0.3556298613548279 8.476880073547363 -2.4018566608428955
-0.6649535894393921 8.457245826721191 -2.4015750885009766
-1.0036840438842773 8.423428535461426 -2.4014816284179688
-1.1724681854248047 8.401433944702148 -2.401435136795044
2.0633227825164795 7.102784156799316 -2.2749764919281006
2.02789306640625 7.542565822601318 -2.4023165702819824
1.7235913276672363 7.617586612701416 -2.4022328853607178
1.416540503501892 7.680336952209473 -2.4021482467651367
0.9518676400184631 7.751225471496582 -2.402020215988159
0.7961401343345642 7.768625259399414 -2.401977300643921
0.4838036894798279 7.794030666351318 -2.4018912315368652
0.32732176780700684 7.80203104019165 -2.401848077774048
-0.14263182878494263 7.807170391082764 -2.4017186164855957
-0.29924559593200684 7.802595138549805 -2.4016754627227783
-0.9237914681434631 7.752934455871582 -2.401503086090088
2.147473096847534 6.418993949890137 -2.249948263168335
2.072888135910034 6.635693073272705 -2.310859203338623
2.0160839557647705 6.940152645111084 -2.402312755584717
1.5948339700698853 7.048530101776123 -2.4021966457366943
1.4530688524246216 7.078996658325195 -2.402157783508301
1.3107225894927979 7.106607437133789 -2.402118444442749
1.1678515672683716 7.131359577178955 -2.4020791053771973
0.8807714581489563 7.172235012054443 -2.4019999504089355
0.7366723418235779 7.188343524932861 -2.4019601345062256
0.44767576456069946 7.211872577667236 -2.4018805027008057
0.15797607600688934 7.223785400390625 -2.4018008708953857
0.01299316342920065 7.225383281707764 -2.4017608165740967
-0.27690184116363525 7.219849586486816 -2.4016809463500977
-0.5663183331489563 7.202685356140137 -2.4016010761260986
-0.7107006907463074 7.189754486083984 -2.4015612602233887
-0.99854975938797 7.15521240234375 -2.4014816284179688
2.1043334007263184 6.290048599243164 -2.3719067573547363
2.003056526184082 6.412150859832764 -2.402308702468872
1.8739672899246216 6.450952053070068 -2.402272939682007
1.7441381216049194 6.487159252166748 -2.4022374153137207
1.4824193716049194 6.551713943481445 -2.402165174484253
1.35064697265625 6.580037593841553 -2.4021289348602295
1.085537075996399 6.628726482391357 -2.4020559787750244
0.8186938166618347 6.666739463806152 -2.401982307434082
0.6847509741783142 6.681718826293945 -2.4019453525543213
0.41611814498901367 6.703602313995361 -2.4018714427948
0.14682860672473907 6.714693546295166 -2.40179705619812
0.012075195088982582 6.716185092926025 -2.4017601013183594
-0.391975075006485 6.704438209533691 -2.40164852142334
-0.5264062285423279 6.695116996765137 -2.401611328125
-0.9281859993934631 6.651015281677246 -2.401500701904297
1.9888646602630615 5.944900989532471 -2.402304172515869
1.7487059831619263 6.019739627838135 -2.402238130569458
1.13690185546875 6.164185523986816 -2.402069568634033
1.0129809379577637 6.1856689453125 -2.4020352363586426
0.6389917135238647 6.23513650894165 -2.4019322395324707
0.5137475728988647 6.246612548828125 -2.40189790725708
0.3883032202720642 6.255572319030762 -2.4018630981445312
-0.616467297077179 6.236496448516846 -2.4015862941741943
-0.7414648532867432 6.222784519195557 -2.4015517234802246
1.8622167110443115 5.566330432891846 -2.402268886566162
1.7501391172409058 5.602498531341553 -2.402237892150879
1.4098608493804932 5.697419166564941 -2.402144193649292
1.1801122426986694 5.749245643615723 -2.40208101272583
1.0645043849945068 5.771690368652344 -2.4020493030548096
0.9484765529632568 5.791813850402832 -2.402017116546631
0.8320727348327637 5.809593200683594 -2.4019851684570312
0.7153344750404358 5.825042724609375 -2.4019529819488525
0.3635839819908142 5.857291221618652 -2.401855945587158
0.010549316182732582 5.868316650390625 -2.4017586708068848
-0.2248876839876175 5.863855838775635 -2.401693820953369
-0.45995116233825684 5.849954605102539 -2.4016292095184326
-0.8110180497169495 5.811456203460693 -2.4015324115753174
1.5376098155975342 5.293094158172607 -2.402179002761841
1.3239867687225342 5.350381851196289 -2.402120351791382
1.2163622379302979 5.375805377960205 -2.402090549468994
1.1082323789596558 5.399063587188721 -2.4020607471466064
0.9996728301048279 5.420142650604248 -2.4020309448242188
0.8907104134559631 5.439043045043945 -2.402000904083252
0.3414404094219208 5.500558853149414 -2.4018495082855225
0.1204833984375 5.509688377380371 -2.4017887115478516
-0.21119140088558197 5.506747722625732 -2.4016973972320557
-0.32163572311401367 5.50132942199707 -2.4016668796539307
-0.5420751571655273 5.483858585357666 -2.401606321334839
1.6464965343475342 4.921533107757568 -2.4022085666656494
1.547402262687683 4.953521728515625 -2.402181386947632
1.2465527057647705 5.037465572357178 -2.4020986557006836
0.941210925579071 5.103155612945557 -2.4020144939422607
0.4253247082233429 5.171459674835205 -2.401872396469116
0.32147216796875 5.178891658782959 -2.401844024658203
0.21749022603034973 5.184235572814941 -2.401815176010132
0.009333495981991291 5.188664436340332 -2.4017579555511475
-0.19884276390075684 5.184736251831055 -2.401700735092163
-0.3028295934200287 5.179640769958496 -2.401671886444092
-0.4066869914531708 5.172459602355957 -2.4016435146331787
-0.5103759765625 5.163199424743652 -2.4016146659851074
-0.6138647198677063 5.151856422424316 -2.4015862941741943
-0.7170971632003784 5.138444900512695 -2.4015579223632812
1.5537109375 4.644180774688721 -2.4021828174591064
1.460205078125 4.674368858337402 -2.4021573066711426
1.3661059141159058 4.702673435211182 -2.4021313190460205
1.271459937095642 4.72908353805542 -2.4021050930023193
1.0806835889816284 4.77618408203125 -2.402052640914917
0.9846240282058716 4.796853065490723 -2.402026414871216
0.8881762623786926 4.815590858459473 -2.4019997119903564
0.7913622856140137 4.832386493682861 -2.401973009109497
0.5968285799026489 4.860137939453125 -2.4019196033477783
0.4013598561286926 4.880058288574219 -2.4018657207489014
0.30335935950279236 4.887077331542969 -2.401838779449463
0.10704589635133743 4.89520263671875 -2.401784658432007
-0.08943603187799454 4.895444393157959 -2.401730537414551
-0.18764403462409973 4.892608642578125 -2.4017035961151123
-0.2857641577720642 4.887804985046387 -2.401676654815674
-0.5792773365974426 4.861598014831543 -2.4015955924987793
-0.6766943335533142 4.848940372467041 -2.40156888961792
1.4690698385238647 4.391185283660889 -2.4021594524383545
1.3806567192077637 4.419733047485352 -2.402135133743286
1.112221598625183 4.4946465492248535 -2.4020612239837646
1.021813988685608 4.516013145446777 -2.402036428451538
0.93098384141922 4.535558223724365 -2.4020113945007324
0.8397924900054932 4.553276062011719 -2.4019863605499268
0.7482519149780273 4.569162368774414 -2.401961088180542
0.656420886516571 4.583208084106445 -2.4019358158111572
0.47200194001197815 4.60575532913208 -2.4018850326538086
0.37949705123901367 4.614248752593994 -2.4018595218658447
0.2868286073207855 4.62088680267334 -2.401834011077881
0.1940600574016571 4.6256608963012695 -2.401808500289917
0.10121093690395355 4.628574848175049 -2.401782989501953
0.00832519493997097 4.62962532043457 -2.4017574787139893
-0.455390602350235 4.606933116912842 -2.401629686355591
1.3914965391159058 4.1592512130737305 -2.4021379947662354
0.8818188309669495 4.296011447906494 -2.4019978046417236
0.7954369783401489 4.3127970695495605 -2.4019739627838135
0.5345239043235779 4.3527069091796875 -2.401902198791504
0.4470751881599426 4.362514495849609 -2.4018778800964355
0.35944822430610657 4.370561599731445 -2.4018537998199463
0.27168455719947815 4.37684965133667 -2.401829719543457
0.007885742001235485 4.385134220123291 -2.40175724029541
-0.08010009676218033 4.384365081787109 -2.401732921600342
-0.25593504309654236 4.377532958984375 -2.401684522628784
-0.3437133729457855 4.371471881866455 -2.401660203933716
-0.4313451945781708 4.363654613494873 -2.4016361236572266
1.3200219869613647 3.945641279220581 -2.40211820602417
1.2405859231948853 3.9712955951690674 -2.4020965099334717
1.1606322526931763 3.9953503608703613 -2.4020745754241943
0.8365527391433716 4.075390338897705 -2.4019851684570312
0.6723388433456421 4.105595588684082 -2.401939868927002
0.5898217558860779 4.118218898773193 -2.4019172191619873
0.5070776343345642 4.129187107086182 -2.4018945693969727
0.3410009741783142 4.146125793457031 -2.401848793029785
0.09096191078424454 4.159010410308838 -2.401779890060425
-0.32606443762779236 4.147007942199707 -2.401664972305298
-0.4091894328594208 4.139592170715332 -2.401642084121704
-0.4921801686286926 4.130509376525879 -2.4016194343566895
