ply
format ascii 1.0
element vertex 388
property float x
property float y
property float z
end_header
-23.50995635986328 -8.72347640991211 4.421613693237305
-23.509931564331055 -9.810778617858887 4.491903781890869
-23.550058364868164 -10.953702926635742 4.579712867736816
-23.550033569335938 -12.122632026672363 4.670375823974609
-23.550004959106445 -13.340765953063965 4.772494792938232
-23.549983978271484 -13.970548629760742 4.828197956085205
-23.549951553344727 -15.276586532592773 4.949655532836914
-23.549917221069336 -16.652286529541016 5.085731029510498
-23.526166915893555 -18.08992576599121 5.232860565185547
-23.54985237121582 -18.869935989379883 5.321071147918701
-26.0328369140625 -22.628175735473633 6.0819878578186035
-25.004091262817383 -22.62815284729004 5.946267604827881
-23.076684951782227 -22.62812042236328 5.6988420486450195
-22.27446746826172 -22.73359489440918 5.6119890213012695
-23.510019302368164 -8.723509788513184 3.8415489196777344
-23.510009765625 -9.26286506652832 3.871067523956299
-23.510000228881836 -9.810803413391113 3.902613401412964
-23.509984970092773 -10.367973327636719 3.9362707138061523
-23.50996971130371 -10.935064315795898 3.972121477127075
-23.50995635986328 -11.512818336486816 4.010245323181152
-23.509916305541992 -13.318065643310547 4.139328479766846
-23.509897232055664 -13.94676685333252 4.1876397132873535
-23.50986671447754 -15.250597953796387 4.292980194091797
-23.50981330871582 -17.33991813659668 4.475228786468506
-26.032827377319336 -22.628177642822266 5.284079551696777
-30.033103942871094 -11.14394474029541 4.171487808227539
-26.70371437072754 -11.14356803894043 3.768012523651123
-26.703685760498047 -12.420549392700195 3.8351218700408936
-26.703651428222656 -13.746007919311523 3.911044120788574
-26.703632354736328 -14.429160118103027 3.952549934387207
-26.70359230041504 -15.841365814208984 4.04319953918457
-25.51420783996582 -16.550790786743164 3.9603025913238525
-24.42912483215332 -16.550771713256836 3.842529773712158
-23.406322479248047 -16.55075454711914 3.733006000518799
-22.439823150634766 -16.550737380981445 3.6309728622436523
-21.8775577545166 -18.260738372802734 3.7109081745147705
-21.877470016479492 -21.45223045349121 3.9899938106536865
-21.872718811035156 -22.32356834411621 4.06980562210083
-29.216644287109375 -16.55085563659668 3.60575795173645
-27.88926124572754 -16.544740676879883 3.482119083404541
-22.439838409423828 -16.550735473632812 2.994147300720215
-21.877670288085938 -16.822343826293945 2.9634692668914795
-21.877573013305664 -20.609941482543945 3.2275266647338867
-21.87273406982422 -22.32356834411621 3.356010675430298
-44.72339630126953 -16.59483528137207 4.038191318511963
-29.216644287109375 -16.55085563659668 2.842543363571167
-26.66838836669922 -16.550811767578125 2.656980037689209
-25.51420783996582 -16.550792694091797 2.574477195739746
-23.337064743041992 -16.501779556274414 2.4195380210876465
-21.877742767333984 -16.822404861450195 2.336216688156128
-21.877723693847656 -17.53009796142578 2.37320613861084
-21.877710342407227 -18.26087188720703 2.4123733043670654
-21.877689361572266 -19.016435623168945 2.4538490772247314
-21.87765121459961 -20.610015869140625 2.544379711151123
-21.87272834777832 -22.32356834411621 2.645662784576416
-30.6302490234375 -16.55088233947754 2.158942937850952
-29.21665382385254 -16.55085563659668 2.0822393894195557
-27.889427185058594 -16.544830322265625 2.0108437538146973
-25.51421356201172 -16.550792694091797 1.8858730792999268
-24.429134368896484 -16.55077362060547 1.8297884464263916
-23.40631866455078 -16.55075454711914 1.7776358127593994
-22.330923080444336 -16.47042465209961 1.7206552028656006
-21.877811431884766 -16.822460174560547 1.7113412618637085
-21.877798080444336 -17.530160903930664 1.7384395599365234
-21.877748489379883 -19.79888153076172 1.8297070264816284
-21.877729415893555 -20.610088348388672 1.863832950592041
-21.877710342407227 -21.452455520629883 1.9000295400619507
-29.074867248535156 -16.470542907714844 1.3176254034042358
-23.292749404907227 -16.470441818237305 1.124871850013733
-21.877885818481445 -16.822513580322266 1.0882107019424438
-21.877870559692383 -17.530214309692383 1.1054425239562988
-21.877826690673828 -19.7989501953125 1.1634752750396729
-21.872724533081055 -22.32356834411621 1.232344627380371
-30.48162078857422 -16.47056770324707 0.5852530002593994
-29.074886322021484 -16.470544815063477 0.5644598007202148
-26.53899383544922 -16.47049903869629 0.5276089310646057
-25.390409469604492 -16.47047996520996 0.5112255811691284
-24.310575485229492 -16.470458984375 0.4960177540779114
-23.292743682861328 -16.470441818237305 0.4818832278251648
-22.330936431884766 -16.47042465209961 0.46871429681777954
-21.877201080322266 -16.821989059448242 0.46616271138191223
-21.877187728881836 -17.529661178588867 0.4735445976257324
-21.877172470092773 -18.260412216186523 0.48135924339294434
-21.87715721130371 -19.015995025634766 0.48963409662246704
-30.481645584106445 -16.470569610595703 -0.19508589804172516
-30.254629135131836 -17.13885498046875 -0.19577209651470184
-28.890716552734375 -17.138832092285156 -0.18912672996520996
-24.310575485229492 -16.470460891723633 -0.16531433165073395
-23.87190818786621 -16.879981994628906 -0.16460342705249786
-21.877269744873047 -16.822038650512695 -0.15537521243095398
-21.87724494934082 -18.260469436645508 -0.16043975949287415
-21.877222061157227 -19.79840660095215 -0.1661248803138733
-21.877206802368164 -20.609601974487305 -0.16921965777873993
-21.87272834777832 -22.32357406616211 -0.17597198486328125
-30.481624603271484 -16.470569610595703 -0.9755834937095642
-30.2546329498291 -17.138856887817383 -0.979101836681366
-23.871976852416992 -17.607025146484375 -0.8352373838424683
-21.87733268737793 -17.52979278564453 -0.78938227891922
-21.8773193359375 -18.260547637939453 -0.802405834197998
-21.877309799194336 -19.016124725341797 -0.8162035942077637
-21.877300262451172 -19.7984619140625 -0.8308203220367432
-21.87728500366211 -20.609682083129883 -0.8463200330734253
-21.877269744873047 -21.4520263671875 -0.8627537488937378
-44.3067626953125 -16.440223693847656 -2.3966760635375977
-43.96957778930664 -17.3238582611084 -2.3967137336730957
-43.61471176147461 -18.200559616088867 -2.3967535495758057
-43.242645263671875 -19.070262908935547 -2.3967955112457275
-42.85305404663086 -19.932037353515625 -2.3968393802642822
-42.022830963134766 -21.63170623779297 -2.396933078765869
-30.481624603271484 -16.470571517944336 -1.7570992708206177
-30.25461769104004 -17.138858795166016 -1.7634294033050537
-28.890722274780273 -17.13883399963379 -1.7035855054855347
-26.4206485748291 -17.138790130615234 -1.5971306562423706
-23.87204933166504 -17.60708999633789 -1.5043245553970337
-21.877416610717773 -16.822145462036133 -1.3995709419250488
-21.87740707397461 -17.52983283996582 -1.4217312335968018
-21.877382278442383 -19.016199111938477 -1.4700415134429932
-21.877363204956055 -20.6097412109375 -1.5242807865142822
-21.872718811035156 -22.32357406616211 -1.5849767923355103
-30.4321231842041 -11.990156173706055 -2.398292064666748
-29.928627014160156 -13.198614120483398 -2.398348569869995
-27.24750518798828 -14.025951385498047 -2.2470016479492188
-26.97347640991211 -14.574965476989746 -2.2480108737945557
-26.6882266998291 -15.1185302734375 -2.249011754989624
-26.39198112487793 -15.656513214111328 -2.2500038146972656
-26.08467674255371 -16.1886043548584 -2.2509872913360596
-25.764354705810547 -16.713056564331055 -2.251757860183716
-24.31059455871582 -16.470462799072266 -2.1530773639678955
-23.87213897705078 -16.880138397216797 -2.143738031387329
-21.877479553222656 -17.52989387512207 -2.0555317401885986
-21.877460479736328 -19.016260147094727 -2.1253821849823
-21.931835174560547 -21.505537033081055 -2.2521896362304688
-21.497539520263672 -21.940643310546875 -2.2522389888763428
-23.428504943847656 -8.69326400756836 -2.3991012573242188
-23.25005340576172 -9.160444259643555 -2.3991212844848633
-23.062280654907227 -9.623968124389648 -2.3991425037384033
-22.65912628173828 -10.539311408996582 -2.3991878032684326
-21.49396514892578 -12.750920295715332 -2.3993194103240967
-19.110790252685547 -13.514052391052246 -2.247192859649658
-18.282812118530273 -14.64962387084961 -2.249210834503174
-17.9915714263916 -15.017176628112793 -2.2498998641967773
-17.692777633666992 -15.378849983215332 -2.2505791187286377
-17.386474609375 -15.734501838684082 -2.251248836517334
-17.07325553894043 -16.08400535583496 -2.251908302307129
-16.75282096862793 -16.427194595336914 -2.2525575160980225
-16.422704696655273 -16.761215209960938 -2.2528321743011475
-18.93941307067871 -7.027556419372559 -2.3996193408966064
-18.643301010131836 -7.779916286468506 -2.3996527194976807
-18.31734275817871 -8.519837379455566 -2.399689197540283
-18.143301010131836 -8.884778022766113 -2.3997089862823486
-17.9620304107666 -9.246148109436035 -2.3997294902801514
-17.577959060668945 -9.957684516906738 -2.399772882461548
-17.375356674194336 -10.307570457458496 -2.3997957706451416
-17.16578483581543 -10.653329849243164 -2.3998196125030518
-16.949281692504883 -10.99482536315918 -2.399844169616699
-16.726030349731445 -11.33193588256836 -2.399869441986084
-15.511269569396973 -12.946905136108398 -2.400007486343384
-15.249095916748047 -13.25487995147705 -2.4000372886657715
-14.194364547729492 -13.371953964233398 -2.316448926925659
-13.243866920471191 -13.516849517822266 -2.2478675842285156
-15.75930118560791 -6.209115505218506 -2.3999860286712646
-15.631972312927246 -6.523273944854736 -2.4000003337860107
-15.35863208770752 -7.143669128417969 -2.400031328201294
-15.212695121765137 -7.449649333953857 -2.400047779083252
-15.060673713684082 -7.752638816833496 -2.400064706802368
-14.73861312866211 -8.349236488342285 -2.4001011848449707
-14.568696022033691 -8.642574310302734 -2.400120496749878
-14.392929077148438 -8.93247127532959 -2.4001402854919434
-14.024209022521973 -9.501426696777344 -2.4001822471618652
-13.83138656616211 -9.780256271362305 -2.4002041816711426
-13.220009803771973 -10.59286880493164 -2.400273561477661
-12.331093788146973 -11.616594314575195 -2.4003746509552
-12.0963134765625 -11.861176490783691 -2.4004013538360596
-11.856635093688965 -12.101018905639648 -2.4004287719726562
-13.659838676452637 -5.06854772567749 -2.40022873878479
-13.446210861206055 -5.611149311065674 -2.4002528190612793
-13.331294059753418 -5.8791351318359375 -2.400265693664551
-13.211034774780273 -6.144773483276367 -2.4002792835235596
-12.818774223327637 -6.926546096801758 -2.4003236293792725
-12.677675247192383 -7.181739330291748 -2.4003396034240723
-12.224160194396973 -7.929677486419678 -2.400390863418579
-12.063115119934082 -8.172781944274902 -2.40040922164917
-11.897255897521973 -8.412615776062012 -2.400428056716919
-11.726615905761719 -8.649086952209473 -2.400447368621826
-10.997797966003418 -9.559467315673828 -2.4005300998687744
-10.804388999938965 -9.777727127075195 -2.400552272796631
-10.198486328125 -10.408706665039062 -2.400621175765991
-11.973207473754883 -4.44270658493042 -2.400423526763916
-11.785937309265137 -4.918313026428223 -2.400444507598877
-11.685209274291992 -5.1532111167907715 -2.400455951690674
-11.355116844177246 -5.845165729522705 -2.4004931449890137
-11.235941886901855 -6.071274280548096 -2.4005064964294434
-11.112250328063965 -6.2949442863464355 -2.4005205631256104
-10.984110832214355 -6.5161027908325195 -2.4005351066589355
-10.851581573486328 -6.73465633392334 -2.400550127029419
-10.714706420898438 -6.950507640838623 -2.4005656242370605
-10.573530197143555 -7.16358757019043 -2.4005815982818604
-10.428129196166992 -7.3737993240356445 -2.4005980491638184
-10.278559684753418 -7.581062316894531 -2.4006149768829346
-10.124868392944336 -7.78528356552124 -2.400632619857788
-9.967108726501465 -7.986408710479736 -2.4006505012512207
-9.805365562438965 -8.184331893920898 -2.4006688594818115
-9.11977481842041 -8.94251823425293 -2.400747060775757
-10.480810165405273 -4.373677730560303 -2.400595188140869
-10.391240119934082 -4.5825629234313965 -2.4006052017211914
-10.297494888305664 -4.789611339569092 -2.400615930557251
-10.097670555114746 -5.197889804840088 -2.4006383419036865
-9.991689682006836 -5.398946285247803 -2.4006505012512207
-9.649872779846191 -5.988859176635742 -2.400689125061035
-9.528154373168945 -6.180808067321777 -2.400702953338623
-9.40262222290039 -6.37028694152832 -2.40071702003479
-9.273305892944336 -6.557211875915527 -2.4007318019866943
-8.719477653503418 -7.277963638305664 -2.400794744491577
-8.5721435546875 -7.451048851013184 -2.4008116722106934
-8.109789848327637 -7.952149868011475 -2.4008641242980957
-9.426942825317383 -3.9338958263397217 -2.40071702003479
-9.082304954528809 -4.675215721130371 -2.4007558822631836
-8.98696231842041 -4.856051445007324 -2.400766611099243
-8.88802719116211 -5.034948825836182 -2.400777816772461
-8.679521560668945 -5.3866376876831055 -2.400801420211792
-8.457094192504883 -5.7296977043151855 -2.4008266925811768
-8.340790748596191 -5.897820949554443 -2.4008398056030273
-7.842631816864014 -6.546080589294434 -2.4008963108062744
-7.435859203338623 -7.005006790161133 -2.400942802429199
-7.294233322143555 -7.152449607849121 -2.400958776473999
-7.14968729019165 -7.297052383422852 -2.400975227355957
-8.693290710449219 -3.2256860733032227 -2.4008021354675293
-8.627026557922363 -3.3990190029144287 -2.4008095264434814
-8.557304382324219 -3.5709917545318604 -2.400817394256592
-8.407611846923828 -3.9105803966522217 -2.400834321975708
-8.327699661254883 -4.078073501586914 -2.400843381881714
-8.068090438842773 -4.570469856262207 -2.4008727073669434
-7.975043773651123 -4.731033802032471 -2.400883197784424
-7.878808498382568 -4.889706611633301 -2.4008939266204834
-7.67690896987915 -5.201115608215332 -2.4009170532226562
-7.462705135345459 -5.504202365875244 -2.4009413719177246
-7.351113319396973 -5.652468204498291 -2.400954008102417
-7.689897060394287 -3.5767576694488525 -2.4009170532226562
-7.616811275482178 -3.729944944381714 -2.400925397872925
-7.540658950805664 -3.881638765335083 -2.4009339809417725
-7.461508750915527 -4.031779766082764 -2.4009430408477783
-7.294248104095459 -4.3271636962890625 -2.4009618759155273
-7.206220626831055 -4.4722900390625 -2.4009718894958496
-7.115312576293945 -4.615625381469727 -2.400982141494751
-6.825639724731445 -5.034318447113037 -2.401015043258667
-6.723549842834473 -5.169923782348633 -2.401026487350464
-6.618871688842773 -5.303471565246582 -2.401038408279419
-6.4012451171875 -5.564135551452637 -2.4010634422302246
-6.173608303070068 -5.815892219543457 -2.4010891914367676
-5.936005592346191 -6.058351516723633 -2.401116371154785
-7.262660980224609 -2.8614649772644043 -2.4009671211242676
-7.203959941864014 -3.006235361099243 -2.4009735584259033
-7.142377853393555 -3.1498069763183594 -2.4009807109832764
-7.077929496765137 -3.2921159267425537 -2.4009878635406494
-6.940561294555664 -3.5727293491363525 -2.401003360748291
-6.867709636688232 -3.7109248638153076 -2.4010117053985596
-6.713764667510986 -3.982802629470825 -2.401029109954834
-6.632734298706055 -4.11637544631958 -2.40103816986084
-6.462753772735596 -4.378527641296387 -2.401057481765747
-6.282426834106445 -4.633669853210449 -2.40107798576355
-5.993149280548096 -5.00235652923584 -2.401110887527466
-5.891870021820068 -5.121311664581299 -2.4011223316192627
-5.788232326507568 -5.238223075866699 -2.4011340141296387
-5.463579177856445 -5.576185703277588 -2.4011712074279785
-6.772006511688232 -2.5127878189086914 -2.4010238647460938
-6.549448013305664 -3.046309471130371 -2.4010488986968994
-6.487196922302246 -3.1767773628234863 -2.4010560512542725
-6.422353267669678 -3.3059749603271484 -2.4010634422302246
-6.354907035827637 -3.433838129043579 -2.401071071624756
-6.284945964813232 -3.5603442192077637 -2.401078701019287
-6.212470531463623 -3.6854166984558105 -2.4010870456695557
-6.137490272521973 -3.8090202808380127 -2.4010956287384033
-5.980195045471191 -4.05159330368042 -2.401113271713257
-5.89794397354126 -4.170471668243408 -2.401122570037842
-5.813334941864014 -4.287681579589844 -2.401132345199585
-5.545654296875 -4.628833770751953 -2.401162624359131
-6.29491662979126 -2.335759162902832 -2.401078939437866
-6.196435451507568 -2.5857930183410645 -2.401090145111084
-6.143466472625732 -2.7092833518981934 -2.4010958671569824
-6.088027000427246 -2.83168888092041 -2.401102304458618
-6.03014612197876 -2.952960729598999 -2.401108741760254
-5.907187461853027 -3.19191837310791 -2.401122570037842
-5.558871746063232 -3.7661406993865967 -2.4011621475219727
-5.239980220794678 -4.198672771453857 -2.401198387145996
-5.067812442779541 -4.405026912689209 -2.4012179374694824
-4.978671550750732 -4.505580902099609 -2.401228189468384
-4.699404239654541 -4.796265602111816 -2.4012598991394043
-5.874340534210205 -2.179701805114746 -2.401127576828003
-5.829560279846191 -2.2968239784240723 -2.401132583618164
-5.782441139221191 -2.4130337238311768 -2.4011378288269043
-5.681264400482178 -2.642496347427368 -2.401149272918701
-5.627265453338623 -2.7556676864624023 -2.4011552333831787
-5.571001052856445 -2.867734670639038 -2.4011616706848145
-5.451821327209473 -3.0883870124816895 -2.4011752605438232
-5.388940334320068 -3.19687557220459 -2.401182174682617
-5.323915958404541 -3.3040966987609863 -2.4011895656585693
-5.256738185882568 -3.409985303878784 -2.4011971950531006
-5.187456130981445 -3.514510154724121 -2.401205062866211
-5.116103172302246 -3.617626667022705 -2.4012131690979004
-5.042700290679932 -3.719299793243408 -2.401221513748169
-4.810492992401123 -4.01522159576416 -2.401247978210449
-4.385400295257568 -4.47579288482666 -2.401296377182007
-5.500439167022705 -2.040961980819702 -2.401170492172241
-5.368105411529541 -2.3673481941223145 -2.4011855125427246
-5.216415882110596 -2.685201644897461 -2.40120267868042
-5.16165018081665 -2.7890655994415283 -2.4012088775634766
-4.922138690948486 -3.1929352283477783 -2.401235818862915
-4.857275485992432 -3.2908101081848145 -2.4012434482574463
-4.651108264923096 -3.5763635635375977 -2.4012668132781982
-4.504296779632568 -3.7596435546875 -2.4012832641601562
-4.350273132324219 -3.936903238296509 -2.4013009071350098
-4.189291954040527 -4.107858180999756 -2.4013192653656006
-5.165536880493164 -1.9166985750198364 -2.4012093544006348
-4.99575662612915 -2.3236474990844727 -2.401228427886963
-4.948266506195068 -2.423165798187256 -2.401233673095703
-4.738691329956055 -2.8111352920532227 -2.4012575149536133
-4.681499004364014 -2.905409574508667 -2.401263952255249
-4.498779296875 -3.1811132431030273 -2.401284694671631
-4.29983377456665 -3.4453516006469727 -2.4013073444366455
-4.230043888092041 -3.5307250022888184 -2.401315212249756
-4.158549785614014 -3.614680051803589 -2.4013233184814453
-4.085390567779541 -3.6971893310546875 -2.401331663131714
-4.010595798492432 -3.7782201766967773 -2.4013400077819824
-3.9342041015625 -3.857733726501465 -2.4013490676879883
-3.8562304973602295 -3.935710906982422 -2.401357889175415
-4.826464653015137 -1.901611566543579 -2.4012484550476074
-4.658979415893555 -2.2814993858337402 -2.4012672901153564
-4.612397193908691 -2.374281644821167 -2.4012725353240967
-4.56396484375 -2.466111898422241 -2.401277780532837
-4.461650371551514 -2.6467840671539307 -2.401289463043213
-4.407802581787109 -2.735548257827759 -2.4012956619262695
-4.352187633514404 -2.8232171535491943 -2.401301860809326
-4.174985408782959 -3.079301357269287 -2.4013218879699707
-3.915419816970825 -3.4033432006835938 -2.4013514518737793
-3.7041893005371094 -3.6321849822998047 -2.4013757705688477
-4.517763614654541 -1.885278582572937 -2.4012837409973145
-4.479145526885986 -1.9753109216690063 -2.4012882709503174
-4.352572917938232 -2.2405309677124023 -2.4013023376464844
-4.306860446929932 -2.3271889686584473 -2.4013075828552246
-4.259438514709473 -2.412919521331787 -2.401313066482544
-4.210307598114014 -2.4976799488067627 -2.4013185501098633
-4.107011795043945 -2.664175271987915 -2.4013304710388184
-4.052895545959473 -2.7458388805389404 -2.401336431503296
-3.9971580505371094 -2.8264050483703613 -2.4013426303863525
-3.6298437118530273 -3.2849247455596924 -2.4013845920562744
-3.5633885860443115 -3.3569157123565674 -2.4013922214508057
-3.4955127239227295 -3.427565336227417 -2.401399850845337
-3.426225423812866 -3.496845245361328 -2.4014077186584473
-4.339648246765137 -1.610245943069458 -2.4013047218322754
-4.306562423706055 -1.6967711448669434 -2.401308298110962
-4.2352294921875 -1.8677468299865723 -2.4013164043426514
-4.157109260559082 -2.0357353687286377 -2.401325225830078
-4.115541934967041 -2.118520498275757 -2.40132999420166
-4.02749490737915 -2.281522274017334 -2.4013397693634033
-3.981025218963623 -2.3616669178009033 -2.4013452529907227
-3.88335919380188 -2.5190911293029785 -2.4013562202453613
-3.8321776390075684 -2.5963082313537598 -2.4013619422912598
-3.7794628143310547 -2.6724846363067627 -2.4013679027557373
-3.6695311069488525 -2.82159686088562 -2.4013803005218506
-3.4321727752685547 -3.1060380935668945 -2.401407480239868
-3.369335889816284 -3.1741063594818115 -2.401414632797241
-3.2396435737609863 -3.306417226791382 -2.4014294147491455
-4.110512733459473 -1.5252251625061035 -2.4013311862945557
-4.079179763793945 -1.6071813106536865 -2.401334524154663
-4.046205997467041 -1.6884942054748535 -2.4013383388519287
-4.011606216430664 -1.7691311836242676 -2.4013421535491943
-3.937612295150757 -1.9282491207122803 -2.401350498199463
-3.814833879470825 -2.1610543727874756 -2.401364326477051
-3.629838705062866 -2.4592220783233643 -2.401385545730591
-3.475781202316284 -2.672616481781006 -2.4014029502868652
-3.1306347846984863 -3.069782257080078 -2.401442289352417
-3.0685839653015137 -3.131831407546997 -2.401449203491211
-3.899487257003784 -1.4469213485717773 -2.401355504989624
-3.8697509765625 -1.52466881275177 -2.4013588428497314
-3.805654287338257 -1.6783034801483154 -2.4013659954071045
-3.771303653717041 -1.7541275024414062 -2.40136981010437
-3.7354588508605957 -1.8292522430419922 -2.401374101638794
-3.6592822074890137 -1.9772710800170898 -2.4013824462890625
-3.618974447250366 -2.0501067638397217 -2.4013872146606445
-3.4434814453125 -2.332963466644287 -2.40140700340271
-3.297319173812866 -2.5353972911834717 -2.401423692703247
-3.245927572250366 -2.6008834838867188 -2.4014294147491455
-3.193247079849243 -2.665329933166504 -2.401435375213623
-3.1392674446105957 -2.72870135307312 -2.4014415740966797
-3.08404278755188 -2.7909865379333496 -2.4014477729797363
-3.027582883834839 -2.8521482944488525 -2.401454210281372
-2.969897508621216 -2.912172555923462 -2.401460886001587
-2.9110302925109863 -2.9710354804992676 -2.4014675617218018
