ply
format ascii 1.0
element vertex 415
property float x
property float y
property float z
end_header
-16.88241195678711 4.930568695068359 3.1011810302734375
-16.93596076965332 4.575284481048584 3.093318462371826
-16.902103424072266 4.199976921081543 3.070931911468506
-16.88253402709961 4.930607795715332 2.2902989387512207
-38.74290084838867 6.346340179443359 5.112372875213623
-39.28986358642578 -14.123126983642578 5.436868667602539
-16.882596969604492 4.930624961853027 1.888616919517517
-34.955711364746094 6.457076072692871 3.817111015319824
-16.882659912109375 4.930644512176514 1.4888677597045898
-38.743064880371094 6.34637451171875 3.3234190940856934
-39.24229049682617 -13.213004112243652 3.505220890045166
-38.74317169189453 6.346385478973389 2.434499740600586
-38.743228912353516 6.346408367156982 1.5480538606643677
-38.74333572387695 6.346418380737305 0.663169264793396
-16.882963180541992 4.930727481842041 -0.495246559381485
-38.74352264404297 6.346447467803955 -1.1054731607437134
-44.03020477294922 -2.6852190494537354 -1.2421010732650757
-16.883026123046875 4.930753231048584 -0.891977846622467
-43.02731704711914 9.769021034240723 -2.2376277446746826
-43.38077926635742 8.013358116149902 -2.237243890762329
-43.974632263183594 5.381375789642334 -2.246779680252075
-44.030330657958984 4.483233451843262 -2.2445068359375
-44.06765365600586 3.5850329399108887 -2.242238759994507
-47.16578674316406 1.9149565696716309 -2.393947124481201
-47.19484329223633 0.9572747349739075 -2.3939414024353027
-47.20454788208008 -0.0008111572242341936 -2.3939385414123535
-42.72469711303711 -3.477246046066284 -2.1739158630371094
-46.962249755859375 -4.783369541168213 -2.3939738273620605
-46.73006820678711 -6.685462474822998 -2.394010305404663
-46.23813247680664 -9.51715087890625 -2.3940892219543457
-46.036190032958984 -10.453819274902344 -2.3941218852996826
-45.57524490356445 -12.313908576965332 -2.3941965103149414
-43.466854095458984 -12.696258544921875 -2.296492576599121
-42.19778060913086 -13.26083755493164 -2.2432050704956055
-41.68570327758789 -14.984344482421875 -2.246488094329834
-41.37429428100586 -15.8278226852417 -2.246562957763672
-31.719972610473633 7.882055282592773 -2.3965067863464355
-31.873111724853516 7.236535549163818 -2.3964805603027344
-32.01307678222656 6.58807373046875 -2.396456718444824
-32.139888763427734 5.936927318572998 -2.396437168121338
-32.35390853881836 4.627609729766846 -2.396402359008789
-32.44104766845703 3.9699602127075195 -2.3963894844055176
-32.51473617553711 3.310699939727783 -2.396376371383667
-32.62203598022461 1.9883581399917603 -2.396357297897339
-32.65562438964844 1.3258239030838013 -2.3963510990142822
-32.68242645263672 -0.0005584716564044356 -2.396345376968384
-32.65547180175781 -1.326945185661316 -2.396348476409912
-32.621971130371094 -1.989479899406433 -2.396353244781494
-32.57487487792969 -2.6511764526367188 -2.396360397338867
-32.440757751464844 -3.971043825149536 -2.396381139755249
-32.35368728637695 -4.628700256347656 -2.396394968032837
-32.25328826904297 -5.284437656402588 -2.3964109420776367
-32.1396484375 -5.938011169433594 -2.3964290618896484
-32.01276397705078 -6.5891642570495605 -2.396449565887451
-31.87270736694336 -7.237598896026611 -2.3964719772338867
-31.719581604003906 -7.883106708526611 -2.3964967727661133
-31.182228088378906 -9.799148559570312 -2.396582841873169
-30.759647369384766 -11.056862831115723 -2.3966517448425293
-16.883148193359375 4.930787086486816 -1.6885757446289062
-24.55923080444336 4.536609172821045 -2.397695541381836
-24.646100997924805 4.037195205688477 -2.397681474685669
-24.722843170166016 3.5361289978027344 -2.3976686000823975
-24.78937530517578 3.0335936546325684 -2.3976569175720215
-24.927824020385742 1.5193853378295898 -2.397632598876953
-24.95343017578125 1.0131194591522217 -2.397627592086792
-24.973962783813477 -0.0004302978341002017 -2.397623300552368
-24.891780853271484 -2.0258595943450928 -2.3976352214813232
-24.845600128173828 -2.5306715965270996 -2.397642135620117
-24.78921127319336 -3.034428358078003 -2.397650957107544
-24.72263526916504 -3.5369560718536377 -2.3976614475250244
-24.461994171142578 -5.034994125366211 -2.397702932357788
-24.23786163330078 -6.023717403411865 -2.3977391719818115
-24.11081886291504 -6.514459133148193 -2.3977599143981934
-23.973873138427734 -7.002538681030273 -2.3977818489074707
-23.82701301574707 -7.487736701965332 -2.397805690765381
-23.504024505615234 -8.448758125305176 -2.3978583812713623
-23.32798957824707 -8.924169540405273 -2.3978869915008545
-18.352584838867188 4.560394763946533 -2.246326446533203
-18.441247940063477 4.1869425773620605 -2.246311664581299
-19.85564613342285 3.667764186859131 -2.3984756469726562
-19.98796844482422 2.858893871307373 -2.3984532356262207
-20.087371826171875 2.0453217029571533 -2.3984367847442627
-20.12468910217285 1.6372021436691284 -2.3984298706054688
-20.174474716186523 0.8190881013870239 -2.398420810699463
-20.186941146850586 0.40945982933044434 -2.398418426513672
-20.186927795410156 -0.41014647483825684 -2.3984174728393555
-20.17444610595703 -0.8197842240333557 -2.398419141769409
-20.153667449951172 -1.2290902137756348 -2.3984220027923584
-20.124629974365234 -1.6378811597824097 -2.3984265327453613
-20.087263107299805 -2.046004295349121 -2.3984322547912598
-19.987817764282227 -2.8595705032348633 -2.3984477519989014
-19.925739288330078 -3.26466703414917 -2.3984575271606445
-19.855472564697266 -3.668430805206299 -2.3984689712524414
-19.777023315429688 -4.070685386657715 -2.3984813690185547
-19.4930419921875 -5.266787052154541 -2.3985273838043213
-19.1368408203125 -6.443464279174805 -2.398585081100464
-18.85993766784668 -7.214913845062256 -2.3986310958862305
-15.474565505981445 3.513381242752075 -2.248382329940796
-16.8442325592041 1.7151055335998535 -2.398987293243408
-16.875526428222656 1.3728704452514648 -2.3989810943603516
-16.899887084960938 1.0300695896148682 -2.3989758491516113
-16.917274475097656 0.6868481040000916 -2.3989715576171875
-16.927709579467773 0.34335386753082275 -2.398968458175659
-16.917226791381836 -0.6874178647994995 -2.3989689350128174
-16.875438690185547 -1.3734426498413086 -2.398975372314453
-16.76070213317871 -2.397885799407959 -2.398993730545044
-16.64972686767578 -3.0761525630950928 -2.3990120887756348
-16.43189811706543 -4.083742141723633 -2.399048089981079
-16.25284194946289 -4.74730920791626 -2.399077892303467
-16.04701042175293 -5.403082370758057 -2.399113178253174
-15.934179306030273 -5.727777004241943 -2.399132251739502
-15.814775466918945 -6.049970626831055 -2.3991520404815674
-13.10628890991211 3.8277409076690674 -2.249316930770874
-13.245078086853027 3.2912511825561523 -2.248340606689453
-13.306244850158691 3.02107834815979 -2.247850179672241
-14.37328052520752 2.354440212249756 -2.3994009494781494
-14.516737937927246 1.180979609489441 -2.3993756771087646
-14.537694931030273 0.8860949277877808 -2.399371862411499
-14.5616455078125 0.29536008834838867 -2.399367332458496
-14.561620712280273 -0.29585692286491394 -2.399366617202759
-14.537651062011719 -0.8865899443626404 -2.399369955062866
-14.417973518371582 -2.0627167224884033 -2.3993887901306152
-14.203378677368164 -3.2252752780914307 -2.399423122406006
-14.060922622680664 -3.799095869064331 -2.3994462490081787
-13.980996131896973 -4.08372163772583 -2.39945912361145
-13.8953218460083 -4.366664409637451 -2.399473190307617
-13.803905487060547 -4.647813320159912 -2.3994879722595215
-13.70682144165039 -4.927057266235352 -2.3995039463043213
-11.547587394714355 3.119598388671875 -2.2483041286468506
-11.60631275177002 2.884039878845215 -2.247875928878784
-12.018974304199219 2.4734277725219727 -2.306438446044922
-12.599081993103027 2.0638110637664795 -2.399695634841919
-12.63833999633789 1.8076739311218262 -2.399688720703125
-12.743212699890137 0.7767181396484375 -2.399670124053955
-12.764213562011719 0.2589007616043091 -2.3996663093566895
-12.743168830871582 -0.7771502733230591 -2.3996684551239014
-12.701171875 -1.2936867475509644 -2.399675130844116
-12.67232894897461 -1.5512093305587769 -2.39967942237854
-12.554540634155273 -2.3195364475250244 -2.399698257446289
-12.325248718261719 -3.3301360607147217 -2.399735450744629
-12.255189895629883 -3.579627513885498 -2.399746894836426
-12.180068016052246 -3.8276383876800537 -2.39975905418396
-12.014814376831055 -4.318848609924316 -2.3997857570648193
-11.92477035522461 -4.5618438720703125 -2.3998007774353027
-10.266332626342773 2.7734696865081787 -2.247891664505005
-10.874921798706055 2.469069242477417 -2.3572463989257812
-11.164770126342773 2.062371253967285 -2.3999340534210205
-11.239198684692383 1.6075537204742432 -2.399921178817749
-11.269501686096191 1.379102110862732 -2.399915933609009
-11.332480430603027 0.6907318234443665 -2.399904727935791
-11.353500366210938 -0.00019714355585165322 -2.399900436401367
-11.34414005279541 -0.46096616983413696 -2.3999016284942627
-11.332446098327637 -0.6911169290542603 -2.3999032974243164
-11.316093444824219 -0.9209854006767273 -2.3999056816101074
-11.239130973815918 -1.607932686805725 -2.3999178409576416
-11.20421314239502 -1.8357174396514893 -2.399923324584961
-11.120532035827637 -2.288930654525757 -2.3999366760253906
-10.960756301879883 -2.9614696502685547 -2.3999626636505127
-10.831635475158691 -3.403888463973999 -2.3999836444854736
-10.760366439819336 -3.62304425239563 -2.3999953269958496
-10.684667587280273 -3.840715169906616 -2.400007486343384
-9.261523246765137 2.5020153522491455 -2.2547035217285156
-10.042372703552246 1.85504150390625 -2.400120496749878
-10.077934265136719 1.6508361101150513 -2.4001142978668213
-10.159663200378418 1.0344702005386353 -2.4001002311706543
-10.178549766540527 0.8280541896820068 -2.400096893310547
-10.203754425048828 0.4142773449420929 -2.400092124938965
-10.212148666381836 -0.00017700194439385086 -2.400090217590332
-10.210043907165527 -0.20744140446186066 -2.400090456008911
-10.2037353515625 -0.4146270751953125 -2.4000914096832275
-10.193217277526855 -0.6216427683830261 -2.400092840194702
-10.136528015136719 -1.2408056259155273 -2.400101661682129
-10.042299270629883 -1.855383276939392 -2.400116443634033
-9.802812576293945 -2.8633110523223877 -2.4001553058624268
-9.742714881896973 -3.061688184738159 -2.40016508102417
-8.526103019714355 2.490079402923584 -2.2997817993164062
-9.148447036743164 1.498578429222107 -2.400268793106079
-9.201704025268555 1.1260558366775513 -2.400259494781494
-9.239799499511719 0.7516839504241943 -2.4002528190612793
-9.262685775756836 0.376068115234375 -2.4002487659454346
-9.268403053283691 0.1879931539297104 -2.40024733543396
-9.27029800415039 -0.00016174315533135086 -2.400247097015381
-9.268388748168945 -0.18831297755241394 -2.400247097015381
-9.253125190734863 -0.5643103122711182 -2.4002490043640137
-9.17691421508789 -1.3129006624221802 -2.4002609252929688
-9.148407936096191 -1.498889446258545 -2.400265693664551
-9.11611270904541 -1.6842635869979858 -2.400270700454712
-9.040297508239746 -2.052854299545288 -2.400283098220825
-8.996787071228027 -2.2359273433685303 -2.400290012359619
-8.7860107421875 -2.958244562149048 -2.4003243446350098
-8.72412109375 -3.135976552963257 -2.400334358215332
-8.139301300048828 2.3771159648895264 -2.400437593460083
-8.185853958129883 2.211418390274048 -2.4004297256469727
-8.268803596496582 1.8773669004440308 -2.4004154205322266
-8.305190086364746 1.709153413772583 -2.40040922164917
-8.367666244506836 1.3706780672073364 -2.4003984928131104
-8.393744468688965 1.2005645036697388 -2.4003939628601074
-8.416372299194336 1.0299499034881592 -2.400390148162842
-8.451220512390137 0.6875311136245728 -2.400383949279785
-8.472138404846191 0.3439715504646301 -2.4003801345825195
-8.479116439819336 -0.00014648436626885086 -2.400378465652466
-8.472124099731445 -0.3442632853984833 -2.400379180908203
-8.451186180114746 -0.6878164410591125 -2.4003825187683105
-8.435492515563965 -0.8592047095298767 -2.4003849029541016
-8.39370059967041 -1.2008495330810547 -2.4003915786743164
-8.3676118850708 -1.3709642887115479 -2.400395631790161
-8.268725395202637 -1.8776485919952393 -2.400411367416382
-8.228930473327637 -2.0450963973999023 -2.4004178047180176
-8.139208793640137 -2.3773903846740723 -2.400432586669922
-8.0360689163208 -2.7057695388793945 -2.400449275970459
-7.919677734375 -3.0297036170959473 -2.400468349456787
-7.534506797790527 2.0354673862457275 -2.4005377292633057
-7.574282169342041 1.882119059562683 -2.400531053543091
-7.644448280334473 1.5731652975082397 -2.4005191326141357
-7.746723651885986 0.9480004906654358 -2.400501251220703
-7.764003753662109 0.790545642375946 -2.400498390197754
-7.778857231140137 0.6328313946723938 -2.400495767593384
-7.798046588897705 0.3166033923625946 -2.400491952896118
-7.804477214813232 -0.00013488769764080644 -2.4004907608032227
-7.790009498596191 -0.4750814735889435 -2.4004926681518555
-7.778774261474609 -0.6330907940864563 -2.400494337081909
-7.764326095581055 -0.7908440828323364 -2.400496482849121
-7.746684551239014 -0.9482671618461609 -2.4004993438720703
-7.72585916519165 -1.1053038835525513 -2.4005026817321777
-7.674663066864014 -1.4179418087005615 -2.400510787963867
-7.574193954467773 -1.8823760747909546 -2.400527000427246
-7.491601467132568 -2.188227415084839 -2.400540351867676
-7.445668697357178 -2.339834451675415 -2.400547981262207
-7.34463357925415 -2.6401000022888184 -2.400564432144165
-7.008847713470459 1.7416155338287354 -2.4006247520446777
-7.07372522354126 1.4557225704193115 -2.400613784790039
-7.101894378662109 1.3118523359298706 -2.400609016418457
-7.149145126342773 1.022546410560608 -2.4006009101867676
-7.18459939956665 0.7315478324890137 -2.400594472885132
-7.198051452636719 0.5855810642242432 -2.400592088699341
-7.20849084854126 0.4393694996833801 -2.400590419769287
-7.221860408782959 -0.00012451171642169356 -2.400587558746338
-7.220370769500732 -0.14670105278491974 -2.400587797164917
-7.215908050537109 -0.29321837425231934 -2.400588274002075
-7.198071002960205 -0.5858306884765625 -2.4005908966064453
-7.126879692077637 -1.1676815748214722 -2.400602102279663
-7.073647499084473 -1.45596182346344 -2.4006106853485107
-7.008759498596191 -1.741852045059204 -2.400621175765991
-6.932338714599609 -2.0248706340789795 -2.4006335735321045
-6.889823913574219 -2.1651570796966553 -2.4006404876708984
-6.84447717666626 -2.304558277130127 -2.4006478786468506
-6.515117168426514 1.6189342737197876 -2.4007067680358887
-6.575488090515137 1.3531811237335205 -2.4006965160369873
-6.624867916107178 1.0852007865905762 -2.4006879329681396
-6.645619869232178 0.9505230784416199 -2.400684356689453
-6.691059589385986 0.5443365573883057 -2.4006762504577637
-6.711762428283691 -0.13636963069438934 -2.400672197341919
-6.707612037658691 -0.27256345748901367 -2.4006729125976562
-6.678613185882568 -0.6802542209625244 -2.40067720413208
-6.663442134857178 -0.8156661987304688 -2.400679588317871
-6.645517349243164 -0.9507449269294739 -2.4006824493408203
-6.624858379364014 -1.0854278802871704 -2.4006857872009277
-6.546567440032959 -1.4865792989730835 -2.40069842338562
-6.444003582000732 -1.8822344541549683 -2.400714874267578
-6.404501914978027 -2.012643337249756 -2.400721311569214
-6.270205020904541 -2.398679256439209 -2.400743246078491
-6.013603210449219 1.7562944889068604 -2.4007904529571533
-6.047983169555664 1.633872628211975 -2.400784492492676
-6.109267234802246 1.3870660066604614 -2.4007740020751953
-6.18236780166626 1.0127111673355103 -2.400761604309082
-6.201650142669678 0.8870245218276978 -2.4007582664489746
-6.232480525970459 0.634600818157196 -2.4007527828216553
-6.259535789489746 -0.25435301661491394 -2.400747299194336
-6.253095626831055 -0.3813488781452179 -2.4007482528686523
-6.244057655334473 -0.5081863403320312 -2.400749683380127
-6.232446193695068 -0.6348177790641785 -2.4007513523101807
-6.218300819396973 -0.7611782550811768 -2.4007537364959717
-6.201581954956055 -0.8872332572937012 -2.400756359100342
-6.182304382324219 -1.012919545173645 -2.40075945854187
-6.1361083984375 -1.2629950046539307 -2.4007668495178223
-6.109233379364014 -1.387274146080017 -2.400771141052246
-5.976645469665527 -1.878190517425537 -2.4007925987243652
-5.937319278717041 -1.999111533164978 -2.400799036026001
-5.89553689956665 -2.1192095279693604 -2.400805950164795
-5.851327896118164 -2.238438367843628 -2.400813102722168
-5.692968845367432 1.4146349430084229 -2.400843381881714
-5.768100261688232 1.0655443668365479 -2.4008305072784424
-5.806933403015137 0.8305694460868835 -2.4008238315582275
-5.835619926452637 0.5941942930221558 -2.4008188247680664
-5.846611022949219 0.47563475370407104 -2.4008166790008545
-5.864804744720459 -0.11915954202413559 -2.400813102722168
-5.861176490783691 -0.23816710710525513 -2.400813579559326
-5.846693992614746 -0.47584348917007446 -2.400815725326538
-5.835829734802246 -0.5944128036499023 -2.400817394256592
-5.822563171386719 -0.7127352952957153 -2.4008195400238037
-5.806909084320068 -0.8307675123214722 -2.4008219242095947
-5.788862228393555 -0.9484567046165466 -2.400824785232544
-5.76842737197876 -1.065755844116211 -2.4008281230926514
-5.745615005493164 -1.182613492012024 -2.400831937789917
-5.720429420471191 -1.2989879846572876 -2.4008357524871826
-5.559453010559082 -1.8718862533569336 -2.400861978530884
-5.520341873168945 -1.9843389987945557 -2.4008684158325195
-5.478940486907959 -2.0959794521331787 -2.4008750915527344
-5.288071155548096 1.5444042682647705 -2.4009108543395996
-5.318354606628418 1.436753511428833 -2.4009056091308594
-5.346376895904541 1.328515648841858 -2.4009008407592773
-5.372367858886719 1.2197271585464478 -2.4008963108062744
-5.395834922790527 1.110435128211975 -2.400892496109009
-5.417231559753418 1.0006884336471558 -2.400888681411743
-5.436621189117432 0.8905389308929443 -2.4008853435516357
-5.452949047088623 0.7799743413925171 -2.4008824825286865
-5.468710899353027 0.6692071557044983 -2.4008798599243164
-5.507763385772705 0.11171508580446243 -2.4008727073669434
-5.508915901184082 -9.277343633584678e-05 -2.4008724689483643
-5.507768630981445 -0.11190368235111237 -2.4008724689483643
-5.504345417022705 -0.22366942465305328 -2.4008729457855225
-5.480561256408691 -0.5582250952720642 -2.400876522064209
-5.468095779418945 -0.6693456768989563 -2.400878429412842
-5.453383445739746 -0.7801958918571472 -2.400880813598633
-5.436445236206055 -0.8907155990600586 -2.400883674621582
-5.417245864868164 -1.00087308883667 -2.4008865356445312
-5.395824909210205 -1.110620141029358 -2.4008901119232178
-5.372182369232178 -1.2199065685272217 -2.4008939266204834
-5.346323013305664 -1.3286980390548706 -2.400897979736328
-5.31826639175415 -1.4369341135025024 -2.40090274810791
-5.288017272949219 -1.5445834398269653 -2.400907516479492
-5.184257507324219 -1.863533854484558 -2.4009244441986084
-5.145380973815918 -1.9683761596679688 -2.400930643081665
-5.007431507110596 1.3527673482894897 -2.4009573459625244
-5.080346584320068 1.0455187559127808 -2.400944709777832
-5.100610256195068 0.9421917796134949 -2.4009413719177246
-5.134120941162109 0.7343743443489075 -2.400935649871826
-5.148417949676514 0.6300384402275085 -2.400933027267456
-5.169750690460205 0.4205712676048279 -2.4009294509887695
-5.177270412445068 0.3155615031719208 -2.400928020477295
-5.182631492614746 0.210418701171875 -2.4009268283843994
-5.185810565948486 0.10518615692853928 -2.400926351547241
-5.186874866485596 -8.972167415777221e-05 -2.400926113128662
-5.17724609375 -0.3157409727573395 -2.4009273052215576
-5.16018533706665 -0.5255950689315796 -2.4009299278259277
-5.148451805114746 -0.6302191019058228 -2.4009315967559814
-5.134604454040527 -0.7345861792564392 -2.4009339809417725
-5.118647575378418 -0.8386492729187012 -2.4009363651275635
-5.100575923919678 -0.9423660039901733 -2.4009392261505127
-5.033793926239014 -1.2510266304016113 -2.4009501934051514
-5.007377624511719 -1.352936029434204 -2.400954484939575
-4.9483642578125 -1.5550484657287598 -2.4009640216827393
-4.881201267242432 -1.7545989751815796 -2.400974988937378
-4.698525428771973 1.3722180128097534 -2.4010086059570312
-4.725385665893555 1.276569128036499 -2.4010040760040283
-4.750307559967041 1.180397868156433 -2.4009997844696045
-4.773281097412109 1.0837353467941284 -2.400995969772339
-4.794281959533691 0.9866338968276978 -2.4009923934936523
-4.813793659210205 0.8891497850418091 -2.400989055633545
-4.830429553985596 0.7912518382072449 -2.4009861946105957
-4.845258712768555 0.6930316090583801 -2.4009835720062256
-4.869545936584473 0.49582335352897644 -2.4009792804718018
-4.878608226776123 0.39688840508461 -2.400977611541748
-4.88564920425415 0.29778867959976196 -2.4009764194488525
-4.893715858459473 0.09926147013902664 -2.400974750518799
-4.890688419342041 -0.19873107969760895 -2.400974988937378
-4.869531154632568 -0.4959893822669983 -2.4009780883789062
-4.830336570739746 -0.7914120554924011 -2.400984525680542
-4.813285827636719 -0.8892871141433716 -2.400987148284912
-4.794248104095459 -0.9867953062057495 -2.4009902477264404
-4.773241996765137 -1.0838983058929443 -2.400993585586548
-4.750263690948486 -1.1805599927902222 -2.4009974002838135
-4.725337028503418 -1.2767281532287598 -2.401001453399658
-4.698456764221191 -1.372375726699829 -2.401005744934082
-4.669643402099609 -1.467456579208374 -2.401010274887085
-4.638901233673096 -1.5619350671768188 -2.401015520095825
-4.606259822845459 -1.655766248703003 -2.4010207653045654
-4.571713924407959 -1.7489190101623535 -2.401026487350464
-4.491664886474609 1.1161260604858398 -2.4010426998138428
-4.513349533081055 1.0247271060943604 -2.4010391235351562
-4.567353248596191 0.7481628060340881 -2.4010298252105713
-4.581601619720459 0.6553106307983398 -2.401027202606201
-4.61965799331665 0.2815753221511841 -2.4010205268859863
-4.628183364868164 -8.300781337311491e-05 -2.4010188579559326
-4.6243896484375 -0.1879107654094696 -2.401019334793091
-4.604389667510986 -0.4689846634864807 -2.401022434234619
-4.581567287445068 -0.6554659605026245 -2.4010260105133057
-4.567333698272705 -0.7483169436454773 -2.4010281562805176
-4.551206111907959 -0.840865433216095 -2.4010307788848877
-4.533203125 -0.9330657720565796 -2.401033639907837
-4.513339519500732 -1.0248806476593018 -2.4010369777679443
-4.491616249084473 -1.1162790060043335 -2.401040554046631
-4.32278299331665 -1.6536916494369507 -2.4010679721832275
-4.232172966003418 1.1433336734771729 -2.40108585357666
-4.254526138305664 1.0572009086608887 -2.4010820388793945
-4.339672565460205 0.6207098364830017 -2.4010674953460693
-4.351410865783691 0.5325036644935608 -2.4010653495788574
-4.369438171386719 0.35546568036079407 -2.401062250137329
-4.380263805389404 0.17784179747104645 -2.4010603427886963
-4.382968425750732 0.08890136331319809 -2.401059865951538
-4.383862018585205 -7.568359433207661e-05 -2.401059627532959
-4.382958889007568 -0.0890515148639679 -2.401059627532959
-4.380258560180664 -0.17798949778079987 -2.401059865951538
-4.37576150894165 -0.266854852437973 -2.4010605812072754
-4.351391315460205 -0.5326507687568665 -2.401064395904541
-4.339672565460205 -0.6208630204200745 -2.401066303253174
-4.275058269500732 -0.9707732796669006 -2.401076555252075
-4.154746055603027 -1.398915410041809 -2.4010961055755615
-4.014941215515137 1.084641695022583 -2.4011220932006836
-4.073085784912109 0.838275134563446 -2.4011120796203613
-4.089716911315918 0.7554498314857483 -2.401109218597412
-2.2420897483825684 0.3206884562969208 -1.307647705078125
-2.223749876022339 0.09028564393520355 -1.2849403619766235
-2.217836856842041 0.04498535022139549 -1.2807340621948242
-2.217851400375366 -0.04506164416670799 -1.2807416915893555
-2.223759651184082 -0.09036193788051605 -1.2849475145339966
-2.229672908782959 -0.22710570693016052 -1.2939635515213013
-2.226450204849243 -0.27253782749176025 -1.295037031173706
-4.073451995849609 -0.8384347558021545 -2.4011104106903076
-4.055605411529541 -0.9209383726119995 -2.4011130332946777
-4.036078929901123 -1.0030666589736938 -2.401116371154785
-4.014892578125 -1.0847784280776978 -2.4011197090148926
-3.9675779342651367 -1.2468295097351074 -2.401127338409424
-3.9137158393859863 -1.4068270921707153 -2.4011361598968506
-3.8843700885772705 -1.4859728813171387 -2.4011409282684326
