ply
format ascii 1.0
element vertex 220
property float x
property float y
property float z
end_header
-40.06228256225586 10.199742317199707 7.2894110679626465
-44.091712951660156 10.263150215148926 7.98239278793335
-34.330013275146484 10.263598442077637 5.489177703857422
-36.96474075317383 10.22651195526123 5.875494480133057
-40.06228256225586 10.19974136352539 6.333101749420166
-29.831655502319336 10.275469779968262 4.10865592956543
-34.116661071777344 10.199800491333008 4.636998176574707
-37.09351348876953 10.262160301208496 5.011794090270996
-34.116634368896484 10.199799537658691 3.8237242698669434
-44.091732025146484 10.26314640045166 4.861217021942139
-33.977867126464844 10.925850868225098 3.0213708877563477
-37.093509674072266 10.262158393859863 3.258021831512451
-40.062255859375 10.199738502502441 3.499568462371826
-43.81923294067383 10.199716567993164 3.808582067489624
-39.46737289428711 5.814639568328857 3.377401113510132
-31.7965087890625 10.22442626953125 2.0711421966552734
-37.093509674072266 10.262158393859863 2.3865835666656494
-44.09172821044922 10.263144493103027 2.807231903076172
-29.820472717285156 10.27160358428955 1.2436150312423706
-31.796693801879883 10.2244873046875 1.3170009851455688
-34.11664581298828 10.199796676635742 1.404093861579895
-36.86806869506836 10.199776649475098 1.5083526372909546
-43.81918716430664 10.199713706970215 1.7740230560302734
-35.47743606567383 12.220149040222168 0.6338366270065308
-41.94599533081055 12.540535926818848 0.7395321726799011
-47.927337646484375 12.202166557312012 0.8354021906852722
-39.43883514404297 5.810431957244873 0.673388659954071
-35.47745132446289 12.220155715942383 -0.21126265823841095
-36.60561752319336 11.770833015441895 -0.21649353206157684
-39.43136978149414 5.809332370758057 -0.2244023084640503
-36.605613708496094 11.770833015441895 -1.0827168226242065
-39.427005767822266 5.808696269989014 -1.122164011001587
-41.30824279785156 12.349871635437012 -2.1865365505218506
-41.5473518371582 11.494333267211914 -2.1861929893493652
-41.76938247680664 10.634369850158691 -2.1858766078948975
-42.16142654418945 8.902242660522461 -2.185328960418701
-32.558815002441406 5.484445571899414 -1.67445707321167
-43.59046936035156 5.507039546966553 -2.2282299995422363
-43.67393493652344 4.60557222366333 -2.227170467376709
-46.84129333496094 2.027147054672241 -2.377742052078247
-28.43764305114746 9.79530143737793 -2.205335855484009
-28.62987518310547 9.206151008605957 -2.205063819885254
-28.81014060974121 8.613329887390137 -2.204805850982666
-29.144474029541016 7.420103549957275 -2.2051031589508057
-29.81910514831543 6.296214580535889 -2.2346081733703613
-30.1434383392334 4.440966606140137 -2.2340385913848877
-31.20707893371582 3.290897846221924 -2.300858974456787
-32.46231460571289 2.075716495513916 -2.38506817817688
-17.040016174316406 5.479359149932861 -1.7184221744537354
-22.900897979736328 4.344614028930664 -2.2378129959106445
-22.9831485748291 3.8714420795440674 -2.2375807762145996
-24.688217163085938 3.119004487991333 -2.3890302181243896
-24.746896743774414 2.609653949737549 -2.3889997005462646
-24.832977294921875 1.5878722667694092 -2.3889548778533936
-16.06403350830078 5.533236026763916 -2.0182156562805176
-17.974241256713867 5.779755592346191 -2.2427568435668945
-18.094585418701172 5.40971565246582 -2.2433862686157227
-18.19405174255371 5.033503532409668 -2.242380380630493
-18.525224685668945 3.51448655128479 -2.2397854328155518
-19.340408325195312 3.2578325271606445 -2.32973313331604
-19.91765785217285 2.9344024658203125 -2.391460657119751
-19.9735050201416 2.523371458053589 -2.3914315700531006
-14.978307723999023 5.159251689910889 -2.244633436203003
-15.07576847076416 4.847733020782471 -2.243791341781616
-15.166752815246582 4.534378528594971 -2.2429487705230713
-15.330683708190918 3.9031498432159424 -2.2414891719818115
-15.504465103149414 3.273721218109131 -2.2452542781829834
-16.594194412231445 3.148139476776123 -2.3931541442871094
-16.709367752075195 2.461747407913208 -2.393094778060913
-16.796289443969727 1.771229863166809 -2.393049716949463
-16.829103469848633 1.4247796535491943 -2.3930325508117676
-16.85479736328125 1.0777331590652466 -2.393019199371338
-16.87335777282715 0.7302282452583313 -2.3930091857910156
-12.879398345947266 4.436281204223633 -2.244079828262329
-12.963886260986328 4.168642520904541 -2.2433559894561768
-13.042953491210938 3.899432897567749 -2.242655038833618
-13.921751022338867 3.2405388355255127 -2.3547704219818115
-14.220768928527832 3.002664089202881 -2.3943631649017334
-14.332018852233887 2.4141900539398193 -2.394305944442749
-14.419047355651855 1.8216418027877808 -2.394260883331299
-14.453397750854492 1.5241625308990479 -2.394243001937866
-14.50375747680664 0.9274011254310608 -2.394216775894165
-11.286086082458496 3.8874735832214355 -2.243659496307373
-11.362810134887695 3.653801202774048 -2.243464708328247
-12.349736213684082 3.1442081928253174 -2.3953166007995605
-12.566083908081055 2.1167218685150146 -2.39520525932312
-12.606917381286621 1.8573485612869263 -2.395184278488159
-12.642413139343262 1.597192406654358 -2.3951659202575684
-11.0902681350708 2.3416833877563477 -2.3959574699401855
-11.136100769042969 2.1126697063446045 -2.3959338665008545
-11.177163124084473 1.8827605247497559 -2.3959126472473145
-11.213497161865234 1.652058720588684 -2.3958940505981445
-11.245078086853027 1.4206548929214478 -2.3958775997161865
-11.271891593933105 1.1886584758758545 -2.3958637714385986
-11.311196327209473 0.7232629060745239 -2.395843267440796
-11.323674201965332 0.4900549352169037 -2.395836591720581
-9.388480186462402 3.233846426010132 -2.3337361812591553
-9.828113555908203 2.7190098762512207 -2.3966009616851807
-9.881939888000488 2.5159149169921875 -2.396573543548584
-10.055150985717773 1.6937627792358398 -2.396484136581421
-10.116263389587402 1.2780468463897705 -2.3964526653289795
-10.140390396118164 1.0693408250808716 -2.396440029144287
-10.160229682922363 0.8601818680763245 -2.3964297771453857
-10.175764083862305 0.6506579518318176 -2.3964216709136963
-8.813754081726074 2.834132671356201 -2.397117853164673
-8.922826766967773 2.4685540199279785 -2.397062063217163
-8.971692085266113 2.284169912338257 -2.3970367908477783
-9.016769409179688 2.09881591796875 -2.3970136642456055
-9.158670425415039 1.3493255376815796 -2.3969404697418213
-9.206385612487793 0.9708471298217773 -2.396915912628174
-9.224405288696289 0.7809545993804932 -2.396906614303589
-9.238508224487305 0.5907323956489563 -2.3968992233276367
-9.248697280883789 0.4002557396888733 -2.3968937397003174
-8.007335662841797 2.758120059967041 -2.397528886795044
-8.062385559082031 2.592524290084839 -2.397500514984131
-8.162215232849121 2.258115768432617 -2.397449254989624
-8.20688247680664 2.089451313018799 -2.3974263668060303
-8.248119354248047 1.919899821281433 -2.3974051475524902
-8.285856246948242 1.749530553817749 -2.397385835647583
-8.37794303894043 1.234302282333374 -2.397338390350342
-8.4015531539917 1.0614190101623535 -2.3973259925842285
-8.421599388122559 0.8880877494812012 -2.397315502166748
-8.438082695007324 0.7143829464912415 -2.3973071575164795
-8.45098876953125 0.5403741598129272 -2.3973002433776855
-8.460307121276855 0.3661370873451233 -2.3972952365875244
-7.370901107788086 2.5388951301574707 -2.397852659225464
-7.421566009521484 2.386462450027466 -2.397826671600342
-7.554598331451416 1.9233801364898682 -2.3977584838867188
-7.592566967010498 1.7673052549362183 -2.3977389335632324
-7.627308368682861 1.610482096672058 -2.397721290588379
-7.658815860748291 1.4529833793640137 -2.397704839706421
-7.712092876434326 1.1362054347991943 -2.397677421569824
-7.752283096313477 0.8175073266029358 -2.3976566791534424
-7.767458438873291 0.6576074361801147 -2.397648811340332
-6.868063926696777 2.208482503890991 -2.398108720779419
-6.991194725036621 1.77993643283844 -2.398045539855957
-7.157070159912109 0.9041955471038818 -2.3979599475860596
-7.174153804779053 0.7565398812294006 -2.397951126098633
-7.199193000793457 0.46033263206481934 -2.3979380130767822
-6.384706974029541 2.053053617477417 -2.3983547687530518
-6.425596714019775 1.9210516214370728 -2.398333787918091
-6.588860988616943 1.249996304512024 -2.398249864578247
-6.634696006774902 0.977476179599762 -2.398226261138916
-6.653395652770996 0.8405633568763733 -2.398216485977173
-6.669284343719482 0.7033001780509949 -2.3982081413269043
-6.6823410987854 0.5657379031181335 -2.3982014656066895
-6.699947357177734 0.2899523973464966 -2.3981921672821045
-5.917856216430664 2.0383942127227783 -2.398592472076416
-5.958547115325928 1.9160186052322388 -2.398571729660034
-6.032326698303223 1.668882966041565 -2.398533821105957
-6.065390586853027 1.5442315340042114 -2.398516893386841
-6.09588098526001 1.4189269542694092 -2.39850115776062
-6.149089336395264 1.1665655374526978 -2.3984737396240234
-6.19187593460083 0.9122344851493835 -2.398451805114746
-6.209331035614014 0.7844598293304443 -2.3984427452087402
-6.245886325836182 0.3993755877017975 -2.398423671722412
-6.252779483795166 0.2706005871295929 -2.3984200954437256
-5.579634666442871 1.7941759824752808 -2.3987646102905273
-5.615376949310303 1.678821325302124 -2.3987462520599365
-5.679693698883057 1.4460357427597046 -2.3987133502960205
-5.758080959320068 1.092385172843933 -2.3986728191375732
-5.798145771026611 0.8542266488075256 -2.3986523151397705
-5.828381061553955 0.6146246194839478 -2.39863657951355
-5.204418659210205 1.7926537990570068 -2.398955821990967
-5.240207195281982 1.6850310564041138 -2.398937463760376
-5.273776531219482 1.5766942501068115 -2.3989202976226807
-5.334183216094971 1.3580700159072876 -2.3988893032073975
-5.385548114776611 1.1371417045593262 -2.398862838745117
-5.407808780670166 1.025936245918274 -2.3988513946533203
-5.42777681350708 0.9142919778823853 -2.398841142654419
-5.445437908172607 0.8022662401199341 -2.398831844329834
-5.460792064666748 0.6898950338363647 -2.3988239765167236
-5.473834037780762 0.5772356986999512 -2.398817300796509
-5.492948055267334 0.35123106837272644 -2.3988072872161865
-4.934097766876221 1.5865991115570068 -2.3990931510925293
-4.9952073097229 1.3819568157196045 -2.399061918258667
-5.022592544555664 1.2787389755249023 -2.3990478515625
-5.047843933105469 1.174976110458374 -2.3990347385406494
-5.070955753326416 1.0707159042358398 -2.3990230560302734
-5.127353191375732 0.755401611328125 -2.398993968963623
-5.154090404510498 0.5435168147087097 -2.398980140686035
-5.164185523986816 0.4372088611125946 -2.398974895477295
-5.172088623046875 0.3307165503501892 -2.39897084236145
-4.624557018280029 1.5929211378097534 -2.3992509841918945
-4.656359672546387 1.497290015220642 -2.3992347717285156
-4.739879131317139 1.2067601680755615 -2.3991918563842773
-4.805308818817139 0.9116332530975342 -2.399158000946045
-4.823052883148193 0.8124291896820068 -2.399149179458618
-4.838751316070557 0.7128838896751404 -2.3991408348083496
-4.863985538482666 0.512925386428833 -2.399127960205078
-4.880970478057861 0.31210020184516907 -2.3991191387176514
-4.886357307434082 0.21146728098392487 -2.399116039276123
-4.40298318862915 1.4158141613006592 -2.3993637561798096
-4.481960296630859 1.1410949230194092 -2.3993232250213623
-4.504497051239014 1.0485039949417114 -2.3993115425109863
-4.525125503540039 0.9554644823074341 -2.399301052093506
-4.560610294342041 0.7682207822799683 -2.399282693862915
-4.599321365356445 0.4850146472454071 -2.3992626667022705
-4.608328819274902 0.39014890789985657 -2.3992581367492676
-4.620477199554443 0.19996093213558197 -2.399251699447632
-4.142176628112793 1.4267675876617432 -2.399496555328369
-4.170666217803955 1.3411126136779785 -2.399482011795044
-4.222329139709473 1.1681346893310547 -2.3994555473327637
-4.266829967498779 0.9931817650794983 -2.39943265914917
-4.30409049987793 0.8165441751480103 -2.3994133472442627
-4.334050178527832 0.6385266184806824 -2.3993980884552
-4.346272945404053 0.5490911602973938 -2.3993916511535645
-4.356656551361084 0.45942503213882446 -2.399386167526245
-4.365189075469971 0.36956480145454407 -2.3993818759918213
-4.376696586608887 0.18941040337085724 -2.3993759155273438
-3.9296557903289795 1.3535643815994263 -2.3996047973632812
-3.956685781478882 1.272304654121399 -2.3995909690856934
-3.9820396900177 1.1905040740966797 -2.3995778560638428
-4.005699157714844 1.1082030534744263 -2.3995659351348877
-4.027666091918945 1.0254321098327637 -2.399554491043091
-4.083271503448486 0.7746527194976807 -2.3995258808135986
-4.098349571228027 0.6903558373451233 -2.3995182514190674
-2.2474217414855957 0.33110716938972473 -1.3115551471710205
-2.2283458709716797 0.142486572265625 -1.2891621589660645
-2.224398136138916 0.09626464545726776 -1.285457730293274
