ply
format ascii 1.0
element vertex 835
property float x
property float y
property float z
end_header
-24.400590896606445 15.858298301696777 1.1474878787994385
-41.74831008911133 22.579198837280273 1.8715201616287231
-41.748291015625 20.45162010192871 1.8330906629562378
-41.74828338623047 19.419471740722656 1.815555214881897
-41.74827575683594 18.406423568725586 1.7990760803222656
-42.31170654296875 17.646265029907227 1.8076832294464111
-41.748260498046875 16.432636260986328 1.7691078186035156
-41.748252868652344 15.469443321228027 1.7555537223815918
-18.27865219116211 6.357520580291748 0.7631000876426697
-41.76914596557617 10.852154731750488 1.7016831636428833
-46.948020935058594 10.19954776763916 1.8943891525268555
-42.3389892578125 20.74101448059082 0.7963905334472656
-42.3389778137207 19.69424057006836 0.7887730002403259
-42.33897018432617 18.666847229003906 0.7816089987754822
-42.33895492553711 17.657621383666992 0.774887204170227
-42.338951110839844 16.66513442993164 0.7685936093330383
-43.59723663330078 13.221933364868164 0.7695582509040833
-44.53929901123047 12.534255981445312 0.7815769910812378
-45.304237365722656 11.770626068115234 0.7906797528266907
-20.43891143798828 36.42877960205078 -0.23517486453056335
-28.620145797729492 29.33745002746582 -0.2307511866092682
-36.3803596496582 29.23796844482422 -0.2627731263637543
-42.339271545410156 20.74114227294922 -0.26544052362442017
-42.339256286621094 19.69436264038086 -0.26290449500083923
-42.33921813964844 16.66525650024414 -0.25617873668670654
-18.278757095336914 6.357554912567139 -0.10895705968141556
-43.597412109375 13.22199535369873 -0.2564999461174011
-20.246109008789062 32.9066047668457 -1.0879077911376953
-20.15029525756836 31.320165634155273 -1.0486608743667603
-21.0909423828125 28.799877166748047 -1.005143404006958
-22.081634521484375 28.913124084472656 -1.0244065523147583
-22.88071632385254 28.740966796875 -1.0344198942184448
-24.150785446166992 29.113698959350586 -1.0651222467422485
-24.87700653076172 28.78940200805664 -1.0713669061660767
-27.083740234375 28.90444564819336 -1.1153507232666016
-28.31780242919922 29.027545928955078 -1.1418652534484863
-29.520233154296875 29.065771102905273 -1.1665221452713013
-30.493602752685547 28.83842658996582 -1.1818002462387085
-31.68350601196289 28.77778434753418 -1.2052115201950073
-35.806365966796875 31.23039436340332 -1.3378463983535767
-35.95721435546875 28.897897720336914 -1.2989327907562256
-22.960662841796875 17.704092025756836 -0.8163946270942688
-39.02265167236328 28.85515785217285 -1.3665691614151
-42.339534759521484 19.69447898864746 -1.3148516416549683
-42.33948516845703 16.665355682373047 -1.2812185287475586
-42.33946990966797 15.688515663146973 -1.2714011669158936
-18.27880096435547 6.357574462890625 -0.5449333190917969
-43.59761047363281 13.222047805786133 -1.2828246355056763
-44.53968811035156 12.534368515014648 -1.3028594255447388
-45.30426788330078 11.770623207092285 -1.318016767501831
-48.31226348876953 5.495561599731445 -1.3691338300704956
-20.006834030151367 39.2856330871582 -2.2358174324035645
-20.176782608032227 35.96160125732422 -2.0912082195281982
-20.167959213256836 34.308555603027344 -2.018284320831299
-20.257644653320312 32.92538070678711 -1.9605185985565186
-20.160356521606445 31.33577537536621 -1.8896498680114746
-20.36669158935547 29.018861770629883 -1.7979589700698853
-22.15996551513672 29.01571273803711 -1.8515740633010864
-24.218530654907227 29.19536781311035 -1.9237333536148071
-27.19314193725586 29.02120018005371 -2.0169363021850586
-21.30794906616211 21.84200096130371 -1.5474902391433716
-22.17275619506836 21.831401824951172 -1.5781588554382324
-21.3599796295166 20.200563430786133 -1.4909487962722778
-21.35994529724121 18.630197525024414 -1.4373972415924072
-21.35991668701172 17.166418075561523 -1.389729380607605
-21.359901428222656 16.469789505004883 -1.3678730726242065
-21.35988998413086 15.794477462768555 -1.3472301959991455
-21.359865188598633 14.50192928314209 -1.3093223571777344
-25.909687042236328 16.106605529785156 -1.5472033023834229
-25.37397003173828 13.723284721374512 -1.462965965270996
-40.012611389160156 17.64120864868164 -2.2176785469055176
-40.6755485534668 16.01042938232422 -2.216871500015259
-43.00053787231445 7.543630123138428 -2.214052200317383
-40.810813903808594 5.476576805114746 -2.0882391929626465
-43.93701171875 4.103788375854492 -2.2379236221313477
-44.84054183959961 3.2791502475738525 -2.280120611190796
-47.04871368408203 2.4895951747894287 -2.3893768787384033
-47.08918762207031 1.5419530868530273 -2.3893651962280273
-47.09628677368164 -1.3032302856445312 -2.389360189437866
-47.06062316894531 -2.251084804534912 -2.389368772506714
-23.700868606567383 -2.5743823051452637 -1.2090418338775635
-23.648944854736328 -3.051581382751465 -1.2092797756195068
-23.721891403198242 -3.5478758811950684 -1.2164164781570435
-46.44945526123047 -7.906131267547607 -2.38952374458313
-46.281654357910156 -8.839744567871094 -2.3895668983459473
-46.09529113769531 -9.769872665405273 -2.389615058898926
-45.89022445678711 -10.696076393127441 -2.3896679878234863
-45.66677474975586 -11.618046760559082 -2.389725923538208
-45.424705505371094 -12.535310745239258 -2.3897886276245117
-42.039886474609375 -13.444414138793945 -2.2383978366851807
-41.794212341308594 -14.299419403076172 -2.240187883377075
-41.333740234375 -15.077860832214355 -2.231306314468384
-40.86112976074219 -15.844732284545898 -2.2225871086120605
-14.840975761413574 29.141902923583984 -2.3978750705718994
-15.423632621765137 28.83535385131836 -2.397721290588379
-16.045698165893555 26.079565048217773 -2.245154619216919
-17.08041763305664 25.409433364868164 -2.2448811531066895
-18.08477783203125 24.694950103759766 -2.2443058490753174
-20.89693832397461 22.30173683166504 -2.240888833999634
-21.30794334411621 21.841999053955078 -2.2373454570770264
-21.409509658813477 19.44603157043457 -2.1206648349761963
-21.360097885131836 17.886083602905273 -2.042738437652588
-21.36008071899414 17.16655158996582 -2.009272813796997
-21.360063552856445 16.46992301940918 -1.9776766300201416
-21.360048294067383 15.794594764709473 -1.9478341341018677
-21.190454483032227 13.771974563598633 -1.853037714958191
-24.354808807373047 13.81290340423584 -2.0529584884643555
-25.373964309692383 13.723285675048828 -2.1151068210601807
-27.078521728515625 13.94803524017334 -2.2333731651306152
-27.610082626342773 12.84300422668457 -2.232726812362671
-28.097299575805664 11.718097686767578 -2.2321410179138184
-28.539358139038086 10.574992179870605 -2.2316055297851562
-18.278907775878906 6.357607364654541 -1.4190019369125366
-21.390289306640625 5.55747652053833 -1.6204497814178467
-29.897480010986328 6.495289325714111 -2.2432854175567627
-27.355323791503906 5.368709564208984 -2.0440192222595215
-30.16163444519043 5.291244983673096 -2.245286464691162
-30.24089813232422 4.679698467254639 -2.243720531463623
-32.49817657470703 3.0353832244873047 -2.3932108879089355
-32.55251693725586 2.380530834197998 -2.393195629119873
-32.636531829833984 0.411285400390625 -2.393171548843384
-32.6381950378418 -0.24583618342876434 -2.3931703567504883
-32.62662887573242 -0.9028347730636597 -2.3931727409362793
-32.601951599121094 -1.5594799518585205 -2.3931784629821777
-32.564109802246094 -2.215486764907837 -2.3931877613067627
-23.372596740722656 -2.063582181930542 -1.720398187637329
-22.351444244384766 -2.427809953689575 -1.6484977006912231
-22.290800094604492 -2.876330614089966 -1.64795982837677
-22.302490234375 -3.3355963230133057 -1.6534545421600342
-22.469755172729492 -3.8245561122894287 -1.671225905418396
-31.932201385498047 -6.768019676208496 -2.3933494091033936
-31.634897232055664 -8.04820728302002 -2.3934264183044434
-31.467050552368164 -8.68356704711914 -2.393470048904419
-31.093231201171875 -9.943624496459961 -2.3935670852661133
-30.887401580810547 -10.567779541015625 -2.393620729446411
-30.66920280456543 -11.187708854675293 -2.3936774730682373
-11.338876724243164 22.265132904052734 -2.3987905979156494
-12.224772453308105 21.788532257080078 -2.398556709289551
-12.660297393798828 21.536951065063477 -2.3984415531158447
-13.515742301940918 21.00789451599121 -2.3982155323028564
-13.935277938842773 20.73060417175293 -2.3981049060821533
-15.601801872253418 18.80792999267578 -2.3460476398468018
-15.611433029174805 18.066631317138672 -2.2923271656036377
-15.643954277038574 17.38418960571289 -2.245251178741455
-16.32974624633789 16.739015579223633 -2.245069742202759
-16.66278839111328 16.40625 -2.244981527328491
-17.308380126953125 15.721014976501465 -2.2448108196258545
-17.62067985534668 15.368785858154297 -2.2447280883789062
-17.924585342407227 15.009333610534668 -2.244486093521118
-18.220176696777344 14.643094062805176 -2.244126796722412
-18.508394241333008 14.271121978759766 -2.243776559829712
-18.789100646972656 13.893529891967773 -2.2434351444244385
-19.06214141845703 13.51046085357666 -2.243103265762329
-19.327470779418945 13.122084617614746 -2.2427804470062256
-19.58497428894043 12.728556632995605 -2.2424674034118652
-19.834585189819336 12.330060958862305 -2.242163896560669
-20.076183319091797 11.926702499389648 -2.2418715953826904
-20.30963134765625 11.518668174743652 -2.241588592529297
-21.16067886352539 9.84302806854248 -2.2405574321746826
-21.352397918701172 9.41407299041748 -2.240328550338745
-21.875545501708984 8.105783462524414 -2.2397005558013916
-18.27895164489746 6.357626914978027 -1.8579840660095215
-22.229536056518555 7.23341178894043 -2.2442846298217773
-22.521657943725586 6.338054180145264 -2.2461788654327393
-22.9554386138916 4.505197525024414 -2.245877265930176
-23.029218673706055 4.040008068084717 -2.2446813583374023
-23.09355926513672 3.57366681098938 -2.243485689163208
-24.005001068115234 3.221330404281616 -2.32525634765625
-24.78928565979004 2.8198022842407227 -2.3952414989471436
-24.84087371826172 2.320173978805542 -2.3952271938323975
-24.882423400878906 1.8196313381195068 -2.3952157497406006
-24.913949966430664 1.318328857421875 -2.395206928253174
-24.935375213623047 0.8165130615234375 -2.3952009677886963
-24.946701049804688 0.31437498331069946 -2.3951973915100098
-24.93916893005371 -0.6901071071624756 -2.395198345184326
-24.891298294067383 -1.6934661865234375 -2.395209789276123
-22.21224021911621 -2.412686824798584 -2.1450276374816895
-22.128252029418945 -2.855360269546509 -2.1420345306396484
-22.335058212280273 -3.801633834838867 -2.175114631652832
-24.50684928894043 -4.6807861328125 -2.395307779312134
-24.40792465209961 -5.173252582550049 -2.3953335285186768
-24.29910659790039 -5.663626670837402 -2.3953616619110107
-24.180341720581055 -6.151684284210205 -2.395392417907715
-23.766138076782227 -7.600414752960205 -2.3954999446868896
-23.60869026184082 -8.077449798583984 -2.395540952682495
-9.166444778442383 17.99934959411621 -2.3993582725524902
-9.526552200317383 17.81045913696289 -2.3992631435394287
-10.235002517700195 17.411184310913086 -2.399076223373413
-10.926740646362305 16.98375129699707 -2.398893356323242
-11.600692749023438 16.528911590576172 -2.3987154960632324
-12.575876235961914 15.79686450958252 -2.3984577655792236
-14.097333908081055 14.450654983520508 -2.3980555534362793
-14.38494873046875 14.163430213928223 -2.397979259490967
-14.666679382324219 13.870589256286621 -2.397904872894287
-15.59361743927002 12.53219223022461 -2.37636399269104
-15.637980461120605 10.617157936096191 -2.2452454566955566
-15.848166465759277 10.299957275390625 -2.245189666748047
-16.24917984008789 9.653182029724121 -2.2450833320617676
-16.801115036010742 8.654181480407715 -2.244936943054199
-17.135181427001953 7.970539569854736 -2.2448482513427734
-17.291858673095703 7.623826503753662 -2.2448065280914307
-17.584121704101562 6.921332836151123 -2.2447290420532227
-17.719608306884766 6.565837383270264 -2.244694232940674
-17.847949981689453 6.207719802856445 -2.2446625232696533
-17.96908187866211 5.847074031829834 -2.244633674621582
-18.082910537719727 5.484092712402344 -2.244605779647827
-18.28858757019043 4.751609802246094 -2.2445545196533203
-18.54153060913086 3.638925790786743 -2.24448823928833
-19.10074806213379 3.350834846496582 -2.3035497665405273
-19.995729446411133 2.683309316635132 -2.3965041637420654
-20.14643669128418 1.0660576820373535 -2.396462917327881
-20.172964096069336 0.25421568751335144 -2.3964548110961914
-20.17399024963379 -0.15195739269256592 -2.396454334259033
-20.09653091430664 -1.7743405103683472 -2.396472930908203
-20.05683708190918 -2.1785898208618164 -2.3964829444885254
-19.953107833862305 -2.9842119216918945 -2.3965094089508057
-19.737045288085938 -4.183260440826416 -2.3965649604797363
-19.0904483795166 -6.531708717346191 -2.396732807159424
-18.955379486083984 -6.914479732513428 -2.396768093109131
-7.68596887588501 15.092265129089355 -2.399745225906372
-8.873991966247559 14.42318058013916 -2.3994314670562744
-9.162261009216309 14.241156578063965 -2.399355411529541
-9.72750186920166 13.859930992126465 -2.3992059230804443
-10.004233360290527 13.660892486572266 -2.3991329669952393
-10.276899337768555 13.456313133239746 -2.3990609645843506
-10.54540729522705 13.246326446533203 -2.3989899158477783
-10.809611320495605 13.030951499938965 -2.3989200592041016
-11.069555282592773 12.810361862182617 -2.3988513946533203
-11.575507164001465 12.353682518005371 -2.3987176418304443
-11.82153034210205 12.11780834197998 -2.3986525535583496
-12.06277084350586 11.877044677734375 -2.3985886573791504
-12.299084663391113 11.63150691986084 -2.398526191711426
-12.977789878845215 10.867091178894043 -2.398346424102783
-13.404088973999023 10.335384368896484 -2.398233652114868
-13.609126091003418 10.063220024108887 -2.398179531097412
-14.002570152282715 9.506823539733887 -2.3980751037597656
-14.190827369689941 9.222827911376953 -2.3980252742767334
-14.373330116271973 8.935101509094238 -2.397976875305176
-14.720770835876465 8.348922729492188 -2.3978848457336426
-15.044404029846191 7.749303817749023 -2.397798776626587
-15.197093963623047 7.444748401641846 -2.3977582454681396
-15.483981132507324 6.826747894287109 -2.397681951522827
-16.19252586364746 4.910782337188721 -2.3974974155426025
-16.287940979003906 4.583761692047119 -2.3974740505218506
-16.534513473510742 3.592153787612915 -2.3974108695983887
-16.60333251953125 3.258543014526367 -2.3973922729492188
-16.665443420410156 2.923612594604492 -2.3973758220672607
-16.7208251953125 2.587503671646118 -2.3973610401153564
-16.81125259399414 1.91229248046875 -2.3973371982574463
-16.84628677368164 1.5734710693359375 -2.3973278999328613
-16.895864486694336 0.8940490484237671 -2.3973143100738525
-16.918996810913086 -0.1274426281452179 -2.3973073959350586
-16.91301155090332 -0.4680117666721344 -2.397308588027954
-16.900175094604492 -0.8084014654159546 -2.3973114490509033
-16.85400390625 -1.488053560256958 -2.397322654724121
-16.679983139038086 -2.839082956314087 -2.3973660469055176
-16.61955451965332 -3.1743199825286865 -2.39738130569458
-16.478553771972656 -3.8408215045928955 -2.3974177837371826
-16.310890197753906 -4.50112771987915 -2.397461175918579
-16.009979248046875 -5.477631568908691 -2.3975393772125244
-15.896659851074219 -5.798898696899414 -2.397568702697754
-6.611347675323486 12.982126235961914 -2.4000260829925537
-7.3822922706604 12.558306694030762 -2.399822473526001
-7.633403301239014 12.406804084777832 -2.3997561931610107
-7.881398677825928 12.250288963317871 -2.399690628051758
-8.126200675964355 12.08881664276123 -2.3996260166168213
-8.60577392578125 11.7512788772583 -2.3994994163513184
-8.840377807617188 11.575371742248535 -2.399437427520752
-9.298696517944336 11.209547996520996 -2.3993163108825684
-9.522245407104492 11.019803047180176 -2.399257183074951
-9.741926193237305 10.825617790222168 -2.3991990089416504
-9.957646369934082 10.627054214477539 -2.399142026901245
-10.376884460449219 10.21712875366211 -2.399031162261963
-10.580217361450195 10.00593090057373 -2.398977279663086
-11.349882125854492 9.121614456176758 -2.398773670196533
-11.530988693237305 8.891100883483887 -2.398725748062134
-11.707409858703613 8.657000541687012 -2.398678779602051
-12.04594898223877 8.178409576416016 -2.3985893726348877
-12.364957809448242 7.686607360839844 -2.3985044956207275
-12.516996383666992 7.435999393463135 -2.3984642028808594
-12.805770874023438 6.925888538360596 -2.3983876705169678
-12.94240665435791 6.666579246520996 -2.3983514308929443
-13.0737886428833 6.404591083526611 -2.3983166217803955
-13.32065200805664 5.872958660125732 -2.398252248764038
-13.435996055603027 5.603553295135498 -2.3982226848602295
-13.545944213867188 5.331856727600098 -2.398195505142212
-13.749306678771973 4.782161712646484 -2.398141860961914
-13.842634201049805 4.5043463706970215 -2.3981173038482666
-13.930376052856445 4.224728107452393 -2.3980958461761475
-14.01248550415039 3.94339656829834 -2.3980743885040283
-14.08891773223877 3.660478353500366 -2.3980538845062256
-14.159628868103027 3.3760857582092285 -2.3980350494384766
-14.283859252929688 2.803323984146118 -2.3980019092559814
-14.384970664978027 2.22603702545166 -2.397974729537964
-14.492921829223633 1.3536627292633057 -2.3979454040527344
-14.517204284667969 1.061631441116333 -2.3979387283325195
-14.53560733795166 0.7691577076911926 -2.3979334831237793
-14.54811954498291 0.4763818383216858 -2.3979299068450928
-14.55473804473877 0.18341673910617828 -2.397927761077881
-14.550332069396973 -0.4026315212249756 -2.397928476333618
-14.539291381835938 -0.6954742074012756 -2.3979310989379883
-14.470914840698242 -1.5718274116516113 -2.3979480266571045
-14.396018028259277 -2.1530895233154297 -2.3979671001434326
-14.107209205627441 -3.5890023708343506 -2.3980417251586914
-14.032218933105469 -3.8723039627075195 -2.3980610370635986
-13.951544761657715 -4.1540422439575195 -2.3980820178985596
-13.865209579467773 -4.434096813201904 -2.398104429244995
-13.675765991210938 -4.9887375831604 -2.39815354347229
-6.022814750671387 11.260009765625 -2.400179147720337
-6.908427715301514 10.737966537475586 -2.3999454975128174
-7.951625823974609 9.98822021484375 -2.399669647216797
-8.34688663482666 9.659603118896484 -2.3995654582977295
-8.539477348327637 9.489415168762207 -2.3995144367218018
-8.728593826293945 9.315390586853027 -2.3994643688201904
-9.274401664733887 8.771001815795898 -2.399320125579834
-9.448920249938965 8.582354545593262 -2.3992738723754883
-9.786376953125 8.194727897644043 -2.399184465408325
-9.94918155670166 7.995906829833984 -2.399141550064087
-10.107961654663086 7.793864727020264 -2.399099349975586
-10.262643814086914 7.588670253753662 -2.3990583419799805
-10.701464653015137 6.955042362213135 -2.398941993713379
-10.839147567749023 6.738096714019775 -2.3989057540893555
-10.972416877746582 6.518422603607178 -2.3988707065582275
-11.101285934448242 6.296125411987305 -2.398837089538574
-11.225631713867188 6.071280479431152 -2.3988051414489746
-11.34543228149414 5.843983173370361 -2.3987748622894287
-11.460637092590332 5.614336967468262 -2.3987443447113037
-11.571195602416992 5.3824143409729 -2.3987152576446533
-11.677072525024414 5.148320198059082 -2.3986871242523193
-11.77822208404541 4.912154197692871 -2.39866042137146
-11.87459659576416 4.673995494842529 -2.398635149002075
-12.052885055541992 4.192127704620361 -2.398589611053467
-12.13472843170166 3.948598623275757 -2.3985681533813477
-12.211647987365723 3.7034850120544434 -2.398547649383545
-12.283639907836914 3.4568681716918945 -2.3985283374786377
-12.350648880004883 3.20885968208313 -2.398510456085205
-12.4126558303833 2.95955753326416 -2.398494005203247
-12.469643592834473 2.7090539932250977 -2.3984787464141846
-12.6102294921875 1.9513976573944092 -2.3984408378601074
-12.678466796875 1.4421838521957397 -2.3984224796295166
-12.72616958618164 0.9306512475013733 -2.398409605026245
-12.7590913772583 0.16078917682170868 -2.398400068283081
-12.745536804199219 -0.6096731424331665 -2.398402690887451
-12.730714797973633 -0.8661306500434875 -2.3984062671661377
-12.685585975646973 -1.3779034614562988 -2.3984177112579346
-12.655312538146973 -1.6330019235610962 -2.398425340652466
-12.619926452636719 -1.8874539136886597 -2.3984344005584717
-12.533835411071777 -2.3939504623413086 -2.398456573486328
-12.427451133728027 -2.8965892791748047 -2.398483991622925
-12.300942420959473 -3.3945446014404297 -2.398516893386841
-12.230207443237305 -3.6415157318115234 -2.3985350131988525
-12.0739107131958 -4.130955219268799 -2.398575782775879
-5.153378963470459 10.11923599243164 -2.400407314300537
-5.355929851531982 10.013219833374023 -2.4003536701202393
-5.95019006729126 9.671039581298828 -2.4001967906951904
-6.334399223327637 9.4232759475708 -2.400095224380493
-6.70830774307251 9.160270690917969 -2.399996519088745
-7.248569011688232 8.73813533782959 -2.3998537063598633
-7.76235818862915 8.284209251403809 -2.3997178077697754
-7.927407264709473 8.126099586486816 -2.3996741771698
-8.08925724029541 7.964726448059082 -2.3996315002441406
-8.403019905090332 7.632379055023193 -2.3995485305786133
-8.554821968078613 7.461539268493652 -2.399508237838745
-8.847970962524414 7.110892295837402 -2.399430751800537
-8.989198684692383 6.931224346160889 -2.399393320083618
-9.260610580444336 6.563565731048584 -2.399322509765625
-9.517077445983887 6.185287952423096 -2.3992559909820557
-9.639535903930664 5.99236536026001 -2.399223804473877
-9.983288764953613 5.399375915527344 -2.3991329669952393
-10.08984375 5.1972336769104 -2.3991048336029053
-10.2906494140625 4.786760330200195 -2.3990516662597656
-10.3848237991333 4.578578472137451 -2.399026870727539
-10.641952514648438 3.943281888961792 -2.398960590362549
-10.719096183776855 3.7282230854034424 -2.398940086364746
-10.791884422302246 3.5116448402404785 -2.398920774459839
-10.860307693481445 3.293658971786499 -2.398902416229248
-11.214836120605469 1.7354656457901 -2.3988075256347656
-11.275529861450195 1.2826025485992432 -2.3987913131713867
-11.34725284576416 0.14299803972244263 -2.398771047592163
-11.347831726074219 -0.08547729253768921 -2.398770809173584
-11.343812942504883 -0.31390196084976196 -2.3987715244293213
-11.33520221710205 -0.5422112941741943 -2.398773670196533
-11.321999549865723 -0.7702847123146057 -2.3987770080566406
-11.30422306060791 -0.998056948184967 -2.3987812995910645
-11.281865119934082 -1.2254348993301392 -2.398787021636963
-11.223462104797363 -1.6785986423492432 -2.398801803588867
-11.101816177368164 -2.353023052215576 -2.3988330364227295
-11.052252769470215 -2.576054573059082 -2.398845911026001
-10.998217582702637 -2.798043727874756 -2.398859977722168
-10.73779010772705 -3.6738171577453613 -2.3989274501800537
-10.661752700805664 -3.8892669677734375 -2.398947238922119
-10.581391334533691 -4.103152751922607 -2.39896821975708
-4.635210037231445 9.101762771606445 -2.4005424976348877
-4.817409515380859 9.006426811218262 -2.4004945755004883
-5.175851821899414 8.804848670959473 -2.400399923324585
-5.351953029632568 8.698700904846191 -2.40035343170166
-5.866919040679932 8.359314918518066 -2.400217294692993
-6.033901214599609 8.239364624023438 -2.4001731872558594
-6.676684379577637 7.726722240447998 -2.40000319480896
-6.830763816833496 7.59061861038208 -2.3999626636505127
-6.982065200805664 7.451447486877441 -2.3999226093292236
-7.276130199432373 7.164114952087402 -2.3998448848724365
-7.418717861175537 7.016086101531982 -2.3998074531555176
-7.558385848999023 6.865204811096191 -2.399771213531494
-7.6949462890625 6.711553573608398 -2.399735689163208
-7.828388690948486 6.555182933807373 -2.39970064163208
-8.20944595336914 6.070445537567139 -2.399600028991699
-8.44693374633789 5.734907150268555 -2.3995373249053955
-8.560565948486328 5.563635349273682 -2.3995072841644287
-8.777373313903809 5.214396953582764 -2.3994500637054443
-8.979960441589355 4.856734275817871 -2.3993966579437256
-9.168007850646973 4.491222381591797 -2.3993470668792725
-9.34122085571289 4.118447780609131 -2.3993024826049805
-9.641894340515137 3.3535618782043457 -2.3992228507995605
-9.826544761657715 2.765388011932373 -2.3991737365722656
-9.975382804870605 2.167170286178589 -2.3991339206695557
-10.01694107055664 1.9659087657928467 -2.399122953414917
-10.117228507995605 1.3576709032058716 -2.3990957736968994
-10.163627624511719 0.9492974877357483 -2.399083375930786
-10.19356632232666 0.5393939018249512 -2.3990750312805176
-10.207001686096191 0.12862609326839447 -2.399070978164673
-10.207524299621582 -0.07688659429550171 -2.3990707397460938
-10.196162223815918 -0.4877215325832367 -2.399073362350464
-10.168295860290527 -0.8977627158164978 -2.3990800380706787
-10.095634460449219 -1.50991690158844 -2.3990986347198486
-10.06322956085205 -1.712851881980896 -2.399106740951538
-9.98620319366455 -2.116575002670288 -2.3991267681121826
-9.893012046813965 -2.5168755054473877 -2.399150848388672
-9.783793449401855 -2.913102149963379 -2.399179220199585
-9.72322940826416 -3.1094884872436523 -2.3991949558258057
-9.658735275268555 -3.3046274185180664 -2.3992116451263428
-9.518017768859863 -3.6908068656921387 -2.3992483615875244
-4.536652565002441 8.085805892944336 -2.4005675315856934
-4.858295917510986 7.896346092224121 -2.400482654571533
-5.016186237335205 7.796806335449219 -2.4004406929016113
-5.172040939331055 7.694113731384277 -2.400399684906006
-5.626752853393555 7.367531776428223 -2.4002795219421387
-5.773837566375732 7.252647399902344 -2.4002413749694824
-5.918576717376709 7.134827613830566 -2.400203227996826
-6.200798034667969 6.890578269958496 -2.4001288414001465
-6.338154315948486 6.764257431030273 -2.400092601776123
-6.472951412200928 6.63518762588501 -2.400057077407837
-7.106484413146973 5.950693130493164 -2.399890184402466
-7.340077877044678 5.65965461730957 -2.3998284339904785
-7.561769962310791 5.359471321105957 -2.3997700214385986
-7.668041706085205 5.20609712600708 -2.3997418880462646
-7.968044281005859 4.733597278594971 -2.399662733078003
-8.239004135131836 4.24387264251709 -2.3995919227600098
-8.322688102722168 4.077117443084717 -2.3995704650878906
-8.403010368347168 3.908714532852173 -2.3995492458343506
-8.47991943359375 3.738717555999756 -2.399528980255127
-8.623403549194336 3.3942840099334717 -2.3994908332824707
-8.812379837036133 2.867518901824951 -2.3994405269622803
-8.868268966674805 2.6895220279693604 -2.399425745010376
-8.920561790466309 2.510427713394165 -2.399411678314209
-9.014291763305664 2.149282693862915 -2.3993866443634033
-9.093422889709473 1.7846599817276 -2.3993654251098633
-9.127472877502441 1.6012279987335205 -2.3993563652038574
-9.18447208404541 1.2325011491775513 -2.399341106414795
-9.242057800292969 0.6758648753166199 -2.399325370788574
-9.253776550292969 0.48966917395591736 -2.399322032928467
-9.265981674194336 0.11676574498414993 -2.3993184566497803
-9.19058609008789 -1.18592369556427 -2.39933705329895
-9.102335929870605 -1.7385369539260864 -2.3993594646453857
-9.065520286560059 -1.9214333295822144 -2.39936900138855
-9.025046348571777 -2.103555917739868 -2.3993794918060303
-8.980913162231445 -2.284827470779419 -2.399390935897827
-8.93313980102539 -2.465174913406372 -2.3994033336639404
-8.881750106811523 -2.6445236206054688 -2.39941668510437
-8.706106185913086 -3.1758694648742676 -2.3994622230529785
-3.999755859375 7.477777004241943 -2.4007081985473633
-4.149416446685791 7.395621299743652 -2.4006688594818115
-4.297387599945068 7.310466289520264 -2.400629758834839
-4.443620681762695 7.22235107421875 -2.4005913734436035
-4.588039398193359 7.131321907043457 -2.4005534648895264
-4.871235370635986 6.940639495849609 -2.4004788398742676
-5.146525859832764 6.738724231719971 -2.4004061222076416
-5.281059265136719 6.633656024932861 -2.4003708362579346
-5.413447380065918 6.525896072387695 -2.4003357887268066
-5.671596527099609 6.302514553070068 -2.4002678394317627
-5.920544147491455 6.068935394287109 -2.4002020359039307
-6.041445255279541 5.948437213897705 -2.40017032623291
-6.275829792022705 5.700274467468262 -2.400108575820923
-6.389230728149414 5.572712421417236 -2.400078773498535
-7.108083248138428 4.619650840759277 -2.3998889923095703
-7.3737473487854 4.1820526123046875 -2.3998196125030518
-7.535998344421387 3.881760835647583 -2.399777412414551
-7.612553596496582 3.7292394638061523 -2.399756908416748
-7.686027526855469 3.5752062797546387 -2.399737596511841
-7.948486328125 2.9452428817749023 -2.399667739868164
-8.006110191345215 2.784615993499756 -2.3996524810791016
-8.111616134643555 2.4600470066070557 -2.3996243476867676
-8.159460067749023 2.2962396144866943 -2.399611711502075
-8.203989028930664 2.1315019130706787 -2.39959979057312
-8.283068656921387 1.7995116710662842 -2.39957857131958
-8.376501083374023 1.296240210533142 -2.3995535373687744
-8.439409255981445 0.788253128528595 -2.399536609649658
-8.45355224609375 0.618198812007904 -2.3995325565338135
-8.47542667388916 0.10680358856916428 -2.399526357650757
-8.475859642028809 -0.06384216248989105 -2.3995261192321777
-8.47286605834961 -0.23445861041545868 -2.399526596069336
-8.46642780303955 -0.40498289465904236 -2.3995280265808105
-8.443281173706055 -0.7454641461372375 -2.399533987045288
-8.356032371520996 -1.4222732782363892 -2.3995561599731445
-8.292062759399414 -1.7574999332427979 -2.3995726108551025
-8.255034446716309 -1.924080729484558 -2.3995821475982666
-8.170961380004883 -2.25484561920166 -2.399604082107544
-8.123957633972168 -2.418891191482544 -2.399616003036499
-7.963278770446777 -2.904895782470703 -2.399657726287842
-3.5422215461730957 6.955550193786621 -2.4008283615112305
-3.6814770698547363 6.882731914520264 -2.400791645050049
-4.090031623840332 6.64765739440918 -2.400683879852295
-4.222966194152832 6.563875675201416 -2.400649070739746
-4.354182243347168 6.477441310882568 -2.4006145000457764
-4.483640193939209 6.38838005065918 -2.400580406188965
-4.61126708984375 6.29673957824707 -2.4005467891693115
-4.86086893081665 6.105844497680664 -2.4004809856414795
-5.336015701293945 5.694736003875732 -2.400355815887451
-5.449504375457764 5.586091041564941 -2.4003257751464844
-5.560788631439209 5.475183010101318 -2.400296688079834
-5.669814109802246 5.362069129943848 -2.4002678394317627
-5.880929946899414 5.129370212554932 -2.400212049484253
-5.98293924331665 5.009879112243652 -2.4001851081848145
-6.17962121963501 4.764873027801514 -2.4001333713531494
-6.366289138793945 4.512167453765869 -2.4000840187072754
-6.542638778686523 4.2521562576293945 -2.4000377655029297
-6.626862525939941 4.119544506072998 -2.4000160694122314
-6.787192344665527 3.8493778705596924 -2.3999741077423096
-6.8632493019104 3.711930513381958 -2.399954080581665
-6.936535358428955 3.5729777812957764 -2.3999345302581787
-7.007004261016846 3.432589530944824 -2.399915933609009
-7.139394283294678 3.147695779800415 -2.399880886077881
-7.2602219581604 2.8577184677124023 -2.399848699569702
-7.316235065460205 2.7109649181365967 -2.3998336791992188
-7.369279384613037 2.5631189346313477 -2.399819850921631
-7.466403484344482 2.2643706798553467 -2.399793863296509
-7.510439395904541 2.113591194152832 -2.399782180786133
-7.624223232269287 1.6563793420791626 -2.399751663208008
-7.684670448303223 1.348120093345642 -2.399735450744629
-7.732668399810791 1.0376794338226318 -2.3997225761413574
-7.797743797302246 0.25533995032310486 -2.399704694747925
-7.80129861831665 0.09830993413925171 -2.3997035026550293
-7.801703929901123 -0.05876464769244194 -2.39970326423645
-7.716166973114014 -1.1540426015853882 -2.3997247219085693
-7.663500785827637 -1.4637224674224854 -2.399738073348999
-7.632499694824219 -1.6177080869674683 -2.3997461795806885
-7.598420143127441 -1.7710397243499756 -2.3997550010681152
-7.521035194396973 -2.0754926204681396 -2.3997750282287598
-7.477758407592773 -2.226487398147583 -2.3997862339019775
-7.431459903717041 -2.3765828609466553 -2.3997981548309326
-7.382153034210205 -2.5257186889648438 -2.399811029434204
-3.2777490615844727 6.436232566833496 -2.40089750289917
-3.406606435775757 6.368855953216553 -2.4008636474609375
-3.6601195335388184 6.226384162902832 -2.400796890258789
-3.784677743911743 6.151357173919678 -2.400763988494873
-3.9076902866363525 6.073836326599121 -2.4007318019866943
-4.148913383483887 5.911457538604736 -2.400668144226074
-4.610764026641846 5.558261394500732 -2.4005465507507324
-4.721677303314209 5.464250564575195 -2.400517225265503
-4.830661296844482 5.368021011352539 -2.4004886150360107
-5.246584415435791 4.961809158325195 -2.400378704071045
-5.5363450050354 4.635919094085693 -2.4003024101257324
-5.718359470367432 4.409212589263916 -2.400254487991333
-5.805912971496582 4.293159008026123 -2.40023136138916
-5.891105651855469 4.1753740310668945 -2.400209426879883
-5.973894119262695 4.05589485168457 -2.4001877307891846
-6.351000785827637 3.434882164001465 -2.4000885486602783
-6.484023094177246 3.1763927936553955 -2.4000532627105713
-6.546611309051514 3.0451996326446533 -2.400036573410034
-6.718358993530273 2.644432306289673 -2.399991035461426
-6.770190238952637 2.508634567260742 -2.399977207183838
-6.98785400390625 1.815533995628357 -2.399919271469116
-7.022958755493164 1.6744897365570068 -2.3999099731445312
-7.084626197814941 1.3904168605804443 -2.399893283843994
-7.111156940460205 1.247507929801941 -2.3998863697052
-7.134811878204346 1.1040929555892944 -2.3998799324035645
-7.209584712982178 0.38149839639663696 -2.3998594284057617
-7.215798377990723 0.23628295958042145 -2.399857759475708
-7.203022480010986 -0.4900561273097992 -2.399860382080078
-7.191703796386719 -0.6349585056304932 -2.3998630046844482
-7.177477836608887 -0.7796170115470886 -2.399866819381714
-7.160341739654541 -0.9239459037780762 -2.3998711109161377
-7.140305042266846 -1.0679147243499756 -2.399876117706299
-7.117377758026123 -1.2114434242248535 -2.3998820781707764
-7.091562271118164 -1.3544820547103882 -2.399888753890991
-7.062878131866455 -1.4969744682312012 -2.3998961448669434
-7.031337738037109 -1.638863444328308 -2.399904251098633
-6.996945858001709 -1.7800878286361694 -2.3999130725860596
-6.959721565246582 -1.9205913543701172 -2.3999228477478027
-6.919675350189209 -2.060319185256958 -2.399933099746704
-6.876828670501709 -2.1992125511169434 -2.399944305419922
-3.0468358993530273 5.98280143737793 -2.400958299636841
-3.402275323867798 5.787759780883789 -2.400864601135254
-3.7452878952026367 5.571627140045166 -2.4007742404937744
-3.8566503524780273 5.495036602020264 -2.400744915008545
-4.18115234375 5.252037048339844 -2.4006593227386475
-4.687521934509277 4.805006980895996 -2.4005258083343506
-4.877038478851318 4.6123223304748535 -2.4004759788513184
-5.05865478515625 4.412172794342041 -2.400428056716919
-5.315600395202637 4.098663330078125 -2.4003608226776123
-5.476191520690918 3.8813018798828125 -2.4003188610076904
-5.700341701507568 3.5435869693756104 -2.400259494781494
-5.838278770446777 3.311197519302368 -2.4002230167388916
-5.966753005981445 3.073450803756714 -2.40018892288208
-6.027380466461182 2.952691078186035 -2.4001729488372803
-6.141276836395264 2.707634210586548 -2.4001426696777344
-6.245217323303223 2.4581995010375977 -2.4001152515411377
-6.293403148651123 2.3319664001464844 -2.400102376937866
-6.382116794586182 2.076719284057617 -2.400078773498535
-6.460483074188232 1.8181109428405762 -2.4000580310821533
-6.528383731842041 1.5565667152404785 -2.4000396728515625
-6.558373928070068 1.4248199462890625 -2.400031566619873
-6.585707664489746 1.2925012111663818 -2.4000244140625
-6.610375881195068 1.1596544981002808 -2.400017738342285
-6.632365703582764 1.0263415575027466 -2.4000117778778076
-6.68218469619751 0.6241278052330017 -2.399998426437378
-6.707653522491455 0.21964354813098907 -2.399991273880005
-6.70867919921875 -0.1856396496295929 -2.3999905586242676
-6.7035813331604 -0.32066038250923157 -2.399991750717163
-6.695771217346191 -0.455544114112854 -2.399993658065796
-6.685253620147705 -0.590246856212616 -2.399996280670166
-6.6560959815979 -0.858880877494812 -2.400003671646118
-6.637468338012695 -0.9927093386650085 -2.4000084400177
-6.592160701751709 -1.2590985298156738 -2.400020122528076
-6.504203796386719 -1.6547307968139648 -2.400042772293091
-6.43236780166626 -1.9152235984802246 -2.4000613689422607
-6.350114822387695 -2.172621965408325 -2.40008282661438
-2.843271493911743 5.583091735839844 -2.4010114669799805
-2.9550535678863525 5.524653434753418 -2.400981903076172
-3.0656421184539795 5.463978290557861 -2.4009528160095215
-3.283029794692993 5.336012840270996 -2.400895595550537
-3.3897435665130615 5.26878023147583 -2.400867462158203
-3.4950828552246094 5.199411392211914 -2.4008398056030273
-3.802419424057007 4.978798866271973 -2.400758743286133
-3.9018383026123047 4.901187419891357 -2.4007327556610107
-3.9996726512908936 4.821591854095459 -2.4007067680358887
-4.190434455871582 4.656582355499268 -2.4006564617156982
-4.551264762878418 4.30422830581665 -2.400561571121216
-5.036501407623291 3.7242259979248047 -2.4004342555999756
-5.11041259765625 3.622053861618042 -2.4004149436950684
-5.182255744934082 3.518411874771118 -2.4003958702087402
-5.319604396820068 3.3069028854370117 -2.4003593921661377
-5.448329925537109 3.0900378227233887 -2.400325298309326
-5.568229675292969 2.868173122406006 -2.4002935886383057
-5.731103420257568 2.5267906188964844 -2.4002504348754883
-5.828107833862305 2.294018507003784 -2.4002246856689453
-5.87307596206665 2.176218271255493 -2.4002127647399902
-5.993649959564209 1.8177226781845093 -2.4001805782318115
-6.061916351318359 1.5749645233154297 -2.4001624584198
-6.0923752784729 1.452608585357666 -2.4001543521881104
-6.168891429901123 1.0822069644927979 -2.4001338481903076
-6.22292947769165 0.7078631520271301 -2.4001193046569824
-6.235910415649414 0.5824432373046875 -2.400115489959717
-6.254289627075195 0.3309466540813446 -2.4001104831695557
-6.259680271148682 0.204974964261055 -2.400109052658081
-6.260637283325195 -0.17324034869670868 -2.4001083374023438
-6.255881309509277 -0.2992437779903412 -2.4001095294952393
-6.248593807220459 -0.42512115836143494 -2.400111436843872
-6.238776683807373 -0.5508257746696472 -2.400113821029663
-6.174286842346191 -1.0509203672409058 -2.400130271911621
-6.151899337768555 -1.1750073432922363 -2.4001359939575195
-6.12700891494751 -1.2986178398132324 -2.400142192840576
-6.069807052612305 -1.5442125797271729 -2.4001572132110596
-6.037509441375732 -1.6661009788513184 -2.400165557861328
-5.884016036987305 -2.1464107036590576 -2.400205373764038
-2.662304639816284 5.227739334106445 -2.4010589122772217
-2.766974925994873 5.173026084899902 -2.401031255722046
-2.8705272674560547 5.116214275360107 -2.4010040760040283
-2.972907543182373 5.057333946228027 -2.40097713470459
-3.0740795135498047 4.996405124664307 -2.4009504318237305
-3.174006223678589 4.93345308303833 -2.4009242057800293
-3.272648811340332 4.868506908416748 -2.400897979736328
-3.465893507003784 4.732722282409668 -2.4008471965789795
-3.6535229682922363 4.5892744064331055 -2.4007978439331055
-3.745134115219116 4.514745235443115 -2.400773525238037
-3.8352317810058594 4.438392162322998 -2.400749921798706
-3.923759698867798 4.3602423667907715 -2.400726556777954
-4.261640548706055 4.030323505401611 -2.4006381034851074
-4.420346736907959 3.8554370403289795 -2.4005963802337646
-4.497031211853027 3.7656359672546387 -2.40057635307312
-4.571889400482178 3.67431378364563 -2.4005563259124756
-4.644895076751709 3.581502676010132 -2.4005372524261475
-4.716015338897705 3.4872405529022217 -2.4005181789398193
-4.852497577667236 3.294525623321533 -2.400482177734375
-4.917802810668945 3.1961491107940674 -2.4004650115966797
-4.98110818862915 3.0964794158935547 -2.4004483222961426
-5.042402267456055 2.995554208755493 -2.4004321098327637
-5.266904354095459 2.580153226852417 -2.4003725051879883
-5.539269924163818 1.926621675491333 -2.4003002643585205
-5.576913833618164 1.8147088289260864 -2.4002902507781982
-5.730947017669678 1.2450573444366455 -2.4002490043640137
-5.754836082458496 1.129435420036316 -2.400242805480957
-5.776391506195068 1.013350248336792 -2.4002368450164795
-5.795607566833496 0.8968560695648193 -2.4002318382263184
-5.812478065490723 0.7800005674362183 -2.4002270698547363
-5.839150428771973 0.5453851222991943 -2.4002199172973633
-5.848935604095459 0.42772582173347473 -2.400217294692993
-5.856359958648682 0.3098919689655304 -2.4002151489257812
-5.861403465270996 0.19193358719348907 -2.4002137184143066
-5.862302303314209 -0.1622198522090912 -2.4002130031585693
-5.85784912109375 -0.28020384907722473 -2.400214195251465
-5.841828346252441 -0.5157803297042847 -2.4002182483673096
-5.830273151397705 -0.633282482624054 -2.400221109390259
-5.816352367401123 -0.750523030757904 -2.400224447250366
-5.800070762634277 -0.867466390132904 -2.40022873878479
-5.781445026397705 -0.9840570092201233 -2.400233507156372
-5.711545467376709 -1.3312475681304932 -2.400251626968384
-5.683610916137695 -1.4459625482559204 -2.400258779525757
-5.586022853851318 -1.7864117622375488 -2.4002840518951416
-5.5489501953125 -1.8985131978988647 -2.4002935886383057
-5.509628772735596 -2.0098395347595215 -2.400303840637207
-2.5002124309539795 4.909450531005859 -2.4011013507843018
-2.6957592964172363 4.804724216461182 -2.401049852371216
-2.7919116020202637 4.749431133270264 -2.401024580001831
-2.98077130317688 4.63309907913208 -2.400974750518799
-3.0734057426452637 4.572104454040527 -2.4009504318237305
-3.254894971847534 4.444594860076904 -2.400902509689331
-3.3436717987060547 4.378126621246338 -2.400879144668579
-3.684877872467041 4.094803810119629 -2.400789737701416
-3.766552686691284 4.019760608673096 -2.400768280029297
-3.846672296524048 3.9430863857269287 -2.400747537612915
-4.002216815948486 3.784979820251465 -2.4007062911987305
-4.077568054199219 3.70361328125 -2.400686502456665
-4.151264667510986 3.620744466781616 -2.4006669521331787
-4.223278522491455 3.5364110469818115 -2.4006478786468506
-4.293583869934082 3.4506468772888184 -2.4006292819976807
-4.618452072143555 3.001599073410034 -2.400543451309204
-4.677909851074219 2.9079973697662354 -2.4005277156829834
-4.735471248626709 2.813213348388672 -2.400512456893921
-4.791115760803223 2.7172980308532715 -2.4004979133605957
-4.844821453094482 2.6202800273895264 -2.4004836082458496
-4.994069576263428 2.3230230808258057 -2.4004440307617188
-5.039794921875 2.222003221511841 -2.4004318714141846
-5.083481311798096 2.1200859546661377 -2.4004204273223877
-5.202114105224609 1.8093547821044922 -2.400388717651367
-5.237465858459473 1.704254150390625 -2.4003794193267822
-5.357514381408691 1.27739679813385 -2.4003474712371826
-5.382128715515137 1.1692785024642944 -2.4003407955169678
-5.404565334320068 1.0606908798217773 -2.4003348350524902
-5.458701133728027 0.7325262427330017 -2.400320291519165
-5.472336292266846 0.6224828958511353 -2.4003164768218994
-5.492946624755859 0.4016949236392975 -2.40031099319458
-5.499911785125732 0.2910308837890625 -2.400308847427368
-5.504650592803955 0.1802508533000946 -2.4003076553344727
-5.5074462890625 -0.041483763605356216 -2.4003067016601562
-5.505495548248291 -0.15234680473804474 -2.4003069400787354
-5.501318454742432 -0.26314878463745117 -2.400308132171631
-5.486271858215332 -0.4843853712081909 -2.4003117084503174
-5.475414752960205 -0.594736635684967 -2.4003143310546875
-5.462338924407959 -0.7048428058624268 -2.400317668914795
-5.387978553771973 -1.141982078552246 -2.400336742401123
-5.337668418884277 -1.3579531908035278 -2.4003498554229736
-5.309267520904541 -1.4651354551315308 -2.400357246398926
-5.246022701263428 -1.6776790618896484 -2.400373697280884
-5.174277305603027 -1.8875081539154053 -2.4003922939300537
-5.135249137878418 -1.9912997484207153 -2.400402545928955
-2.3540477752685547 4.622437000274658 -2.401139736175537
-2.44659423828125 4.574061870574951 -2.4011154174804688
-2.806511163711548 4.362252235412598 -2.4010205268859863
-2.979785203933716 4.245660305023193 -2.400974750518799
-3.1482372283935547 4.122195720672607 -2.400930643081665
-3.3912060260772705 3.9245409965515137 -2.400866985321045
-3.469496965408325 3.855443000793457 -2.400846481323242
-3.546379327774048 3.7847869396209717 -2.4008262157440186
-3.621818780899048 3.7125988006591797 -2.400806188583374
-3.8392210006713867 3.487126350402832 -2.4007487297058105
-4.170070648193359 3.083543539047241 -2.4006614685058594
-4.348505973815918 2.826158285140991 -2.4006142616271973
-4.404491901397705 2.738027334213257 -2.400599479675293
-4.458691120147705 2.6487865447998047 -2.400585174560547
-4.511084079742432 2.558475971221924 -2.400571346282959
-4.610371112823486 2.374784469604492 -2.4005448818206787
-4.657218933105469 2.2814788818359375 -2.4005324840545654
-4.702179908752441 2.187250852584839 -2.4005205631256104
-4.786369323730469 1.996174931526184 -2.400498390197754
-4.825568675994873 1.8994078636169434 -2.4004878997802734
-4.898073673248291 1.7036058902740479 -2.400468587875366
-4.931359767913818 1.6046483516693115 -2.4004597663879395
-4.991926193237305 1.4048303365707397 -2.4004435539245605
-5.019174575805664 1.3040472269058228 -2.4004364013671875
-5.067573070526123 1.1009411811828613 -2.400423288345337
-5.107760906219482 0.8960534334182739 -2.4004127979278564
-5.124755859375 0.7930431962013245 -2.4004080295562744
-5.139672756195068 0.6897131204605103 -2.4004039764404297
-5.171918869018555 0.37821775674819946 -2.400395393371582
-5.178476333618164 0.27402037382125854 -2.400393486022949
-5.182941913604736 0.16971556842327118 -2.4003920555114746
-5.185571193695068 -0.03905944898724556 -2.400391101837158
-5.173762321472168 -0.3519958555698395 -2.4003939628601074
-5.155407428741455 -0.5599804520606995 -2.4003987312316895
-5.093686580657959 -0.9728887677192688 -2.40041446685791
-5.073081016540527 -1.075238585472107 -2.4004197120666504
-5.050419807434082 -1.1771512031555176 -2.400425434112549
-5.025710105895996 -1.2785881757736206 -2.4004318714141846
-4.906635761260986 -1.678749918937683 -2.4004628658294678
-4.871862888336182 -1.7771929502487183 -2.4004719257354736
-2.3951878547668457 4.269009113311768 -2.4011285305023193
-2.4806201457977295 4.21988582611084 -2.401106119155884
-2.5650415420532227 4.169052600860596 -2.4010839462280273
-2.7307446002960205 4.0623459815979 -2.401040554046631
-2.8920092582702637 3.949061155319214 -2.40099835395813
-3.0485692024230957 3.8293797969818115 -2.4009571075439453
-3.125012159347534 3.7671990394592285 -2.400937080383301
-3.20019268989563 3.7034924030303955 -2.4009170532226562
-3.2740795612335205 3.6382884979248047 -2.40089750289917
-3.346633195877075 3.5716123580932617 -2.400878429412842
-3.62298583984375 3.290724992752075 -2.400805711746216
-3.814934015274048 3.065965414047241 -2.400754690170288
-3.875856876373291 2.988525867462158 -2.4007387161254883
-4.049103736877441 2.7490763664245605 -2.400692939758301
-4.103598594665527 2.6669890880584717 -2.4006783962249756
-4.207582950592041 2.4996087551116943 -2.400650978088379
-4.30474853515625 2.328183650970459 -2.400625228881836
-4.350722789764404 2.241039991378784 -2.4006130695343018
-4.394931316375732 2.152992010116577 -2.400601387023926
-4.437367916107178 2.0640716552734375 -2.400590181350708
-4.516816139221191 1.8837579488754272 -2.400569200515747
-4.622231483459473 1.607664704322815 -2.400541067123413
-4.683171272277832 1.4202855825424194 -2.400524854660034
-4.710798263549805 1.325714111328125 -2.400517463684082
-4.760317325592041 1.1350054740905762 -2.4005043506622314
-4.802131175994873 0.9424572587013245 -2.4004931449890137
-4.820116996765137 0.8455920219421387 -2.4004881381988525
-4.836157321929932 0.7483837604522705 -2.4004838466644287
-4.850231647491455 0.6508734226226807 -2.400480031967163
-4.862348556518555 0.5530956983566284 -2.4004766941070557
-4.872489929199219 0.45509886741638184 -2.4004740715026855
-4.880661487579346 0.3569183349609375 -2.4004716873168945
-4.886852741241455 0.2585894763469696 -2.400470018386841
-4.891066551208496 0.16015808284282684 -2.4004688262939453
-4.888098239898682 -0.23381651937961578 -2.4004690647125244
-4.882404804229736 -0.33217161893844604 -2.400470733642578
-4.824333190917969 -0.821144700050354 -2.4004852771759033
-4.806835651397705 -0.9180999398231506 -2.4004898071289062
-4.766005516052246 -1.1108596324920654 -2.400500535964966
