ply
format ascii 1.0
element vertex 238
property float x
property float y
property float z
end_header
-15.252880096435547 -16.550500869750977 3.968608856201172
-14.566811561584473 -17.832685470581055 4.060110569000244
-17.730688095092773 -22.60945701599121 5.066340446472168
-16.321083068847656 -22.60943031311035 4.916852951049805
-15.659276962280273 -22.627914428710938 4.852153301239014
-13.130141258239746 -22.62786102294922 4.612966060638428
-11.953187942504883 -22.62783432006836 4.51237678527832
-15.2528657913208 -16.550485610961914 3.4479565620422363
-14.566855430603027 -18.575071334838867 3.6162540912628174
-14.566825866699219 -19.355966567993164 3.7111194133758545
-14.566733360290527 -21.970703125 4.038355827331543
-13.554091453552246 -22.323320388793945 4.000819206237793
-11.792319297790527 -22.323280334472656 3.8676280975341797
-15.252856254577637 -16.55047035217285 2.930889129638672
-14.566972732543945 -17.125930786132812 2.9277806282043457
-14.566850662231445 -21.049325942993164 3.333418607711792
-14.566816329956055 -21.970821380615234 3.432769775390625
-14.169443130493164 -22.323314666748047 3.443115234375
-13.5540771484375 -22.323299407958984 3.4008421897888184
-12.953422546386719 -22.323286056518555 3.3609094619750977
-12.366450309753418 -22.32327651977539 3.323206663131714
-11.792280197143555 -22.32326316833496 3.287623167037964
-15.252840995788574 -16.550453186035156 2.416843891143799
-14.583690643310547 -16.47012710571289 2.362276315689087
-14.567026138305664 -17.832998275756836 2.472612142562866
-13.55406665802002 -22.323280334472656 2.804372549057007
-12.953408241271973 -22.32326889038086 2.7714457511901855
-11.792299270629883 -22.323246002197266 2.7110137939453125
-15.25283145904541 -16.550439834594727 1.9052832126617432
-14.567118644714355 -17.12609100341797 1.9032827615737915
-14.567035675048828 -20.179582595825195 2.1068410873413086
-14.566987037658691 -21.97107696533203 2.2315688133239746
-13.554057121276855 -22.323266983032227 2.210784912109375
-12.95340347290039 -22.323251724243164 2.1848220825195312
-12.366435050964355 -22.323238372802734 2.16031551361084
-11.792284965515137 -22.32322883605957 2.1371819972991943
-15.17879867553711 -16.470108032226562 1.388893723487854
-14.567187309265137 -17.126182556152344 1.394209861755371
-14.567172050476074 -17.833173751831055 1.42788565158844
-14.567152976989746 -18.575454711914062 1.4638243913650513
-14.567133903503418 -19.356367111206055 1.5022246837615967
-14.567113876342773 -20.17969512939453 1.543323278427124
-14.567070007324219 -21.971195220947266 1.6346899271011353
-12.953383445739746 -22.323232650756836 1.6004376411437988
-12.366425514221191 -22.32322120666504 1.5824837684631348
-14.567192077636719 -20.179790496826172 0.9813705086708069
-14.567172050476074 -21.049808502197266 1.0093886852264404
-14.567152976989746 -21.971317291259766 1.039469599723816
-13.554052352905273 -22.323226928710938 1.0297787189483643
-12.953383445739746 -22.323217391967773 1.0176855325698853
-14.566556930541992 -17.83241081237793 0.3889428675174713
-14.566513061523438 -20.178850173950195 0.42039093375205994
-14.56649398803711 -21.048828125 0.4323886036872864
-14.566478729248047 -21.970287322998047 0.44527557492256165
-12.366415977478027 -22.323184967041016 0.4310751259326935
-11.792264938354492 -22.32317352294922 0.42646026611328125
-16.561264038085938 -17.970184326171875 -0.1375901699066162
-14.566606521606445 -19.355663299560547 -0.13638687133789062
-14.566591262817383 -20.1789493560791 -0.14012008905410767
-12.95335865020752 -22.323177337646484 -0.14530852437019348
-14.583602905273438 -16.470035552978516 -0.6194370985031128
-14.566713333129883 -17.12562370300293 -0.633068859577179
-14.566703796386719 -17.832597732543945 -0.6483578085899353
-14.566679000854492 -19.355758666992188 -0.6821123957633972
-14.566655158996582 -21.049057006835938 -0.7207809090614319
-14.130707740783691 -21.31302261352539 -0.7200472950935364
-13.545961380004883 -21.34102439880371 -0.7117506265640259
-12.973803520202637 -21.36758041381836 -0.7038857936859131
-11.864115715026855 -21.416460037231445 -0.6893922090530396
-14.583588600158691 -16.470022201538086 -1.1156506538391113
-14.566781997680664 -17.125707626342773 -1.140202283859253
-14.566767692565918 -18.574953079223633 -1.1971319913864136
-12.7230806350708 -20.95465850830078 -1.2432457208633423
-11.069326400756836 -20.954631805419922 -1.2018572092056274
-14.583574295043945 -16.470006942749023 -1.612992763519287
-14.566840171813965 -18.57504653930664 -1.7308166027069092
-14.566825866699219 -20.17927360534668 -1.8248162269592285
-12.723071098327637 -20.95464324951172 -1.7974772453308105
-11.608261108398438 -20.95462417602539 -1.756443738937378
-11.069315910339355 -20.954614639282227 -1.7376348972320557
-14.566923141479492 -17.12586212158203 -2.1584880352020264
-14.56691837310791 -17.83285140991211 -2.2106268405914307
-14.484564781188965 -18.470142364501953 -2.253455638885498
-13.739140510559082 -19.032691955566406 -2.2535760402679443
-12.580331802368164 -19.819734573364258 -2.253737211227417
-11.781987190246582 -20.304481506347656 -2.2537410259246826
-11.375761032104492 -20.534894943237305 -2.2537448406219482
-10.965039253234863 -20.75721549987793 -2.2537500858306885
-12.830986022949219 -13.92258071899414 -2.24902081489563
-12.554316520690918 -14.178251266479492 -2.249523878097534
-11.985590934753418 -14.672782897949219 -2.250501871109009
-11.693799018859863 -14.911468505859375 -2.2509765625
-11.39720630645752 -15.144254684448242 -2.251441240310669
-10.479804039001465 -15.806450843811035 -2.2527737617492676
-11.23275375366211 -12.68574047088623 -2.4007978439331055
-10.978368759155273 -12.906913757324219 -2.4008400440216064
-10.719618797302246 -13.12298583984375 -2.4008827209472656
-10.404267311096191 -13.267096519470215 -2.388901948928833
-9.583749771118164 -13.276276588439941 -2.320019006729126
-8.23812484741211 -13.567998886108398 -2.249054193496704
-7.967743873596191 -13.731220245361328 -2.249389171600342
-7.417343616485596 -14.041303634643555 -2.250030994415283
-9.876757621765137 -10.71700668334961 -2.400926113128662
-9.220351219177246 -11.287568092346191 -2.4010348320007324
-8.994111061096191 -11.468928337097168 -2.401071786880493
-8.294384956359863 -11.98553466796875 -2.4011850357055664
-7.811327934265137 -12.306381225585938 -2.401262044906616
-7.063710689544678 -12.751026153564453 -2.4013800621032715
-6.808769226074219 -12.889240264892578 -2.4014196395874023
-8.468535423278809 -9.563956260681152 -2.4010865688323975
-8.27669906616211 -9.730656623840332 -2.401118278503418
-8.0816011428833 -9.893519401550293 -2.4011504650115967
-7.681874752044678 -10.207425117492676 -2.4012157917022705
-7.477392196655273 -10.35836124420166 -2.4012486934661865
-6.846513748168945 -10.786378860473633 -2.4013497829437256
-6.630683422088623 -10.920614242553711 -2.401383876800537
-6.412216663360596 -11.050511360168457 -2.4014182090759277
-6.191210746765137 -11.176039695739746 -2.4014527797698975
-5.967743873596191 -11.297155380249023 -2.4014875888824463
-7.698203086853027 -8.35311222076416 -2.401156425476074
-7.530595302581787 -8.504706382751465 -2.401184558868408
-7.186503887176514 -8.797737121582031 -2.4012413024902344
-7.010156154632568 -8.939062118530273 -2.4012701511383057
-6.831025123596191 -9.076850891113281 -2.401299476623535
-6.649189472198486 -9.21105670928955 -2.4013285636901855
-6.277685642242432 -9.468500137329102 -2.40138840675354
-6.08816385269165 -9.591619491577148 -2.401418447494507
-5.306689262390137 -10.045755386352539 -2.401541233062744
-6.924003601074219 -7.513053894042969 -2.401238441467285
-6.773241996765137 -7.649388790130615 -2.401263475418091
-6.619814395904541 -7.782695293426514 -2.4012889862060547
-6.463749885559082 -7.912930965423584 -2.4013147354125977
-6.305107116699219 -8.040037155151367 -2.4013404846191406
-6.144003868103027 -8.163961410522461 -2.401366710662842
-5.814521312713623 -8.402074813842773 -2.4014201164245605
-5.646308422088623 -8.516179084777832 -2.40144681930542
-4.772929668426514 -9.03532600402832 -2.4015843868255615
-6.28518533706665 -6.81988525390625 -2.401305913925171
-6.148329734802246 -6.943634986877441 -2.4013285636901855
-6.009033203125 -7.064634323120117 -2.4013519287109375
-5.723378658294678 -7.298220157623291 -2.4013986587524414
-5.278017520904541 -7.62683629989624 -2.401470899581909
-5.125312328338623 -7.730403900146484 -2.4014952182769775
-4.970566272735596 -7.830906867980957 -2.401519775390625
-4.494755744934082 -8.113700866699219 -2.401594877243042
-4.332509517669678 -8.201591491699219 -2.4016199111938477
-5.748583793640137 -6.237634181976318 -2.401362657546997
-5.623398303985596 -6.350818157196045 -2.401383638381958
-5.496005535125732 -6.461483478546143 -2.401404619216919
-5.234726428985596 -6.675110816955566 -2.4014475345611572
-5.100947380065918 -6.777984619140625 -2.4014694690704346
-4.827392578125 -6.975655555725098 -2.4015135765075684
-4.54617166519165 -7.162292957305908 -2.4015583992004395
-4.257753849029541 -7.337602138519287 -2.4016036987304688
-3.962578058242798 -7.501302719116211 -2.4016499519348145
-5.175849437713623 -5.845359802246094 -2.401430368423462
-4.694960594177246 -6.238515377044678 -2.4015092849731445
-4.569970607757568 -6.330727577209473 -2.401529550552368
-4.443154335021973 -6.420416831970215 -2.401549816131592
-4.184326171875 -6.592201232910156 -2.4015910625457764
-4.052392482757568 -6.674202919006348 -2.4016120433807373
-3.9188475608825684 -6.753589153289795 -2.4016330242156982
-4.895898342132568 -5.312480449676514 -2.4014527797698975
-4.570468425750732 -5.5951828956604 -2.4015066623687744
-4.344355583190918 -5.77265739440918 -2.401543617248535
-4.228691101074219 -5.8579864501953125 -2.401562452316284
-3.8718457221984863 -6.09991455078125 -2.4016194343566895
-3.5011913776397705 -6.32016658782959 -2.4016778469085693
-4.451894283294678 -5.027759552001953 -2.401505947113037
-4.351025104522705 -5.1153645515441895 -2.401522636413574
-4.038241863250732 -5.365899085998535 -2.401573657989502
-3.821660041809082 -5.522354602813721 -2.40160870552063
-3.711074113845825 -5.59733772277832 -2.4016263484954834
-3.5990233421325684 -5.6700921058654785 -2.401644229888916
-3.370673656463623 -5.8088579177856445 -2.401679515838623
-3.254462718963623 -5.874795913696289 -2.40169358253479
-4.246913909912109 -4.608208656311035 -2.4015214443206787
-3.964550733566284 -4.853416442871094 -2.4015681743621826
-3.7684080600738525 -5.007344722747803 -2.4016003608703613
-3.358515501022339 -5.291187763214111 -2.401658773422241
-3.1454100608825684 -5.420656204223633 -2.4016847610473633
-3.0368945598602295 -5.482184410095215 -2.401697874069214
-2.9273338317871094 -5.541543483734131 -2.4017109870910645
-3.976572275161743 -4.314872741699219 -2.401550054550171
-3.8899803161621094 -4.393138408660889 -2.401564598083496
-3.801835775375366 -4.469692707061768 -2.4015791416168213
-3.7121777534484863 -4.544466972351074 -2.4015932083129883
-3.528505802154541 -4.688578128814697 -2.4016168117523193
-3.339247941970825 -4.825274467468262 -2.4016411304473877
-3.242607355117798 -4.890771865844727 -2.4016530513763428
-3.144706964492798 -4.954329490661621 -2.401665210723877
-3.045536994934082 -5.01593542098999 -2.401677370071411
-2.9451658725738525 -5.075555801391602 -2.4016895294189453
-2.843632698059082 -5.1331634521484375 -2.4017016887664795
-3.5703125 -4.197505474090576 -2.401592254638672
-3.4861133098602295 -4.267721652984619 -2.4016032218933105
-3.4005467891693115 -4.336246967315674 -2.4016144275665283
-3.1358983516693115 -4.531420707702637 -2.4016482830047607
-2.953193187713623 -4.652617931365967 -2.4016709327697754
-2.6704394817352295 -4.820553302764893 -2.401705265045166
-2.574042797088623 -4.872749328613281 -2.401716947555542
-3.516064405441284 -3.815186023712158 -2.401581287384033
-3.3615429401397705 -3.9520652294158936 -2.401602029800415
-3.28228497505188 -4.018172740936279 -2.4016122817993164
-3.2017087936401367 -4.082690238952637 -2.401622772216797
-3.036796808242798 -4.206851005554199 -2.401643991470337
-2.8670897483825684 -4.324357032775879 -2.401665210723877
-2.780507802963257 -4.380556106567383 -2.4016761779785156
-2.514296770095825 -4.538670063018799 -2.4017083644866943
-3.021318197250366 -3.852663278579712 -2.401630401611328
-2.944091796875 -3.9120190143585205 -2.4016404151916504
-2.7861719131469727 -4.026066303253174 -2.401660442352295
-2.7055468559265137 -4.080712795257568 -2.4016706943511963
-2.541093587875366 -4.185140132904053 -2.40169095993042
-2.457343578338623 -4.234879016876221 -2.401700973510742
-2.372626781463623 -4.282942771911621 -2.4017112255096436
-2.999394416809082 -3.526285409927368 -2.401618719100952
-2.928652286529541 -3.5852696895599365 -2.401628017425537
-2.856757640838623 -3.642833709716797 -2.401637554168701
-2.7096190452575684 -3.7536144256591797 -2.40165638923645
-2.558183431625366 -3.858457565307617 -2.4016754627227783
-2.4809277057647705 -3.908600091934204 -2.4016849994659424
-2.4026951789855957 -3.9571962356567383 -2.4016945362091064
-2.3235156536102295 -4.004227161407471 -2.4017043113708496
-2.906865119934082 -3.2828831672668457 -2.4016172885894775
-2.774003744125366 -3.3959410190582275 -2.40163516998291
-2.6367480754852295 -3.5036234855651855 -2.4016528129577637
-2.566523313522339 -3.5553948879241943 -2.4016618728637695
-2.495302677154541 -3.6057610511779785 -2.4016706943511963
-2.349912166595459 -3.70219349861145 -2.401689052581787
-2.275810480117798 -3.7482235431671143 -2.401697874069214
-2.048212766647339 -3.877340316772461 -2.4017252922058105
-2.8190038204193115 -3.058832883834839 -2.4016165733337402
-2.501347541809082 -3.323720693588257 -2.401658296585083
-2.434746026992798 -3.3728344440460205 -2.4016668796539307
-2.2986717224121094 -3.4670398235321045 -2.401683807373047
-2.1589550971984863 -3.555757761001587 -2.4017012119293213
-2.0878026485443115 -3.5980160236358643 -2.401709794998169
