ply
format ascii 1.0
element vertex 346
property float x
property float y
property float z
end_header
-6.759101390838623 -19.77918243408203 3.685620069503784
-6.655590534210205 -22.323514938354492 4.107458591461182
-5.650615215301514 -24.084354400634766 4.36203670501709
-4.613955020904541 -23.873300552368164 4.287405490875244
-4.162685394287109 -24.084325790405273 4.309681415557861
-2.2239012718200684 -24.084285736083984 4.264776706695557
-1.744570255279541 -24.08427619934082 4.257836818695068
-1.2555078268051147 -23.87323760986328 4.215314865112305
-0.7896337509155273 -24.08426284790039 4.248987197875977
-6.759174823760986 -19.779401779174805 3.202134847640991
-6.655595779418945 -22.323514938354492 3.5685930252075195
-6.606738090515137 -23.87333869934082 3.7947235107421875
-4.613955020904541 -23.873300552368164 3.724935293197632
-3.160273313522339 -23.873266220092773 3.6891539096832275
-1.7292821407318115 -23.873247146606445 3.666827917098999
-1.2554980516433716 -23.87323760986328 3.6623003482818604
-0.31053709983825684 -23.87321662902832 3.65755295753479
0.16139160096645355 -23.873207092285156 3.6573259830474854
1.1060106754302979 -23.873188018798828 3.6611595153808594
1.5794286727905273 -23.873178482055664 3.6652305126190186
-6.655595779418945 -22.323516845703125 3.0334343910217285
-6.611869812011719 -23.891874313354492 3.2281603813171387
-6.549946308135986 -30.62789535522461 4.078577995300293
-7.242504596710205 -47.47737121582031 6.254063606262207
0.23258300125598907 -34.403900146484375 4.480208873748779
0.9480615258216858 -35.72994613647461 4.654423236846924
2.361406087875366 -35.692832946777344 4.658114433288574
-6.759365081787109 -18.5718994140625 2.1222596168518066
-6.759282112121582 -21.13614273071289 2.382866621017456
-6.550527095794678 -27.92000961303711 3.079502582550049
-7.277602195739746 -42.106536865234375 4.588508129119873
-7.242495059967041 -47.47737121582031 5.157173156738281
0.24248534440994263 -35.868865966796875 3.8517510890960693
-6.7593994140625 -19.78006362915039 1.7695057392120361
-6.759365081787109 -21.136390686035156 1.8785178661346436
-6.655590534210205 -22.32352066040039 1.9719462394714355
-6.611869812011719 -23.891876220703125 2.0985310077667236
-6.630620002746582 -25.944135665893555 2.2668333053588867
-6.550249099731445 -27.918807983398438 2.4275782108306885
-6.5501708984375 -30.62895965576172 2.6514506340026855
-6.630375862121582 -34.306602478027344 2.9578850269317627
-6.908827781677246 -45.29000473022461 3.8782806396484375
0.24202148616313934 -35.800010681152344 3.0306408405303955
-6.759506702423096 -18.572280883789062 1.225581169128418
-6.655595779418945 -22.32352066040039 1.4445027112960815
-6.550458908081055 -23.66996955871582 1.5229524374008179
-6.55040979385376 -25.63028335571289 1.6404277086257935
-6.550278186798096 -30.629478454589844 1.942306637763977
-6.630395412445068 -38.361934661865234 2.4141058921813965
0.2454833984375 -36.313480377197266 2.2518622875213623
0.9450390338897705 -35.61613464355469 2.2093465328216553
-6.75881814956665 -18.570377349853516 0.779241144657135
-6.758793830871582 -19.778263092041016 0.8241569399833679
-6.550317287445068 -33.89232635498047 1.3611408472061157
-6.553750038146973 -49.508201599121094 1.9691877365112305
0.9545458555221558 -35.97458267211914 1.4190144538879395
1.6286718845367432 -35.15492630004883 1.3876829147338867
2.3506102561950684 -35.529685974121094 1.4040358066558838
-6.758867263793945 -19.77849006652832 0.35306623578071594
-6.550551414489746 -27.920101165771484 0.4844306707382202
-6.550439357757568 -33.892940521240234 0.5831083655357361
-6.550175666809082 -49.48118209838867 0.8431220650672913
-6.75894021987915 -19.778697967529297 -0.11767684668302536
-6.758920669555664 -21.134990692138672 -0.12493133544921875
-7.218974590301514 -26.085636138916016 -0.15238341689109802
-7.21890115737915 -30.768789291381836 -0.1779339611530304
-7.218852519989014 -33.75571823120117 -0.19434966146945953
-6.550351619720459 -49.48250961303711 -0.281027227640152
-6.759013652801514 -19.778921127319336 -0.5885523557662964
-7.219067096710205 -26.08600616455078 -0.7621307373046875
-6.634462833404541 -38.385406494140625 -1.096876621246338
-6.908617973327637 -45.28862762451172 -1.289986491203308
-6.550527095794678 -49.4838752746582 -1.4055172204971313
-6.759096622467041 -18.57114028930664 -1.0022598505020142
-6.759086608886719 -19.77913475036621 -1.0600334405899048
-7.219125747680664 -30.769742965698242 -1.6028335094451904
-7.219096660614014 -33.75688171386719 -1.7506611347198486
-6.633227348327637 -34.321346282958984 -1.7727890014648438
-4.956191062927246 -44.12843704223633 -2.252011299133301
-4.083076000213623 -44.21885681152344 -2.2520647048950195
-2.3322508335113525 -44.347904205322266 -2.2521750926971436
-1.0235155820846558 -31.21847915649414 -1.5840731859207153
-0.40596190094947815 -31.211288452148438 -1.5829873085021973
0.827807605266571 -31.196928024291992 -1.582684874534607
2.0630273818969727 -31.18254852294922 -1.5848556756973267
-6.759164810180664 -18.57133674621582 -1.4490753412246704
-6.759160041809082 -19.779342651367188 -1.5326074361801147
-6.7591552734375 -21.135732650756836 -1.627034306526184
-6.655600547790527 -22.323522567749023 -1.7080068588256836
-7.219252586364746 -28.247304916381836 -2.1377270221710205
-7.020444393157959 -29.922897338867188 -2.2535862922668457
-4.6353759765625 -30.38653564453125 -2.253781795501709
-4.033920764923096 -30.472848892211914 -2.253826141357422
-3.430859327316284 -30.547218322753906 -2.253872871398926
-1.6144628524780273 -30.69894790649414 -2.2540242671966553
-1.0073729753494263 -30.725608825683594 -2.2540786266326904
-0.39985838532447815 -30.74024772644043 -2.2541348934173584
0.8154882788658142 -30.733638763427734 -2.2542526721954346
-6.759238243103027 -18.571533203125 -1.897377371788025
-6.759233474731445 -21.135982513427734 -2.13039231300354
-6.261186599731445 -22.624662399291992 -2.253718852996826
-5.812929630279541 -22.744701385498047 -2.253788471221924
-5.362392425537109 -22.85586929321289 -2.253858804702759
-4.909716606140137 -22.958105087280273 -2.253929376602173
-3.998730421066284 -23.135683059692383 -2.2540714740753174
-3.081372022628784 -23.27716064453125 -2.2542145252227783
-2.620737314224243 -23.334238052368164 -2.254286527633667
-2.1590771675109863 -23.382238388061523 -2.2543585300445557
-1.6965283155441284 -23.42110252380371 -2.2544305324554443
-0.7695263624191284 -23.471338272094727 -2.254575490951538
-0.3054589629173279 -23.482723236083984 -2.254647970199585
0.6229687333106995 -23.477968215942383 -2.2547929286956787
-6.488837718963623 -17.828603744506836 -2.253692388534546
-6.135336875915527 -17.953824996948242 -2.2537472248077393
-5.42117166519165 -18.18316650390625 -2.2538583278656006
-5.060830116271973 -18.287229537963867 -2.2539145946502686
-3.968398332595825 -18.55643653869629 -2.254084825515747
-3.6009325981140137 -18.631738662719727 -2.2541420459747314
-3.2320213317871094 -18.699726104736328 -2.254199504852295
-2.8618457317352295 -18.760465621948242 -2.2542572021484375
-2.4905176162719727 -18.8138370513916 -2.2543153762817383
-1.745058536529541 -18.898540496826172 -2.2544314861297607
-0.9967870712280273 -18.9537353515625 -2.2545485496520996
-0.6219629049301147 -18.970232009887695 -2.2546069622039795
-0.2468896359205246 -18.97929573059082 -2.2546653747558594
0.12831543385982513 -18.98097801208496 -2.2547242641448975
1.253149390220642 -18.94146728515625 -2.2548999786376953
-4.23879861831665 -15.316920280456543 -2.2518157958984375
-3.935551643371582 -15.399049758911133 -2.25201153755188
-3.3243749141693115 -15.545048713684082 -2.252371072769165
-3.016591787338257 -15.608854293823242 -2.252535104751587
-2.7077293395996094 -15.666499137878418 -2.25268816947937
-1.1489453315734863 -15.861480712890625 -2.2532904148101807
-0.5211572051048279 -15.895660400390625 -2.2534542083740234
-0.20686523616313934 -15.903316497802734 -2.253519296646118
-4.873920917510986 -13.391703605651855 -2.347714424133301
-4.576791763305664 -13.393378257751465 -2.331688404083252
-4.283681392669678 -13.394867897033691 -2.3167519569396973
-3.4242429733276367 -13.398271560668945 -2.278164863586426
-3.143666982650757 -13.399063110351562 -2.267289400100708
-2.866103410720825 -13.404433250427246 -2.2581686973571777
-2.591303586959839 -13.41120719909668 -2.2502341270446777
-2.058662176132202 -13.496098518371582 -2.249056100845337
-0.9864257574081421 -13.61820125579834 -2.249330997467041
0.09232909977436066 -13.655048370361328 -2.2495734691619873
-4.130918025970459 -12.088305473327637 -2.4011337757110596
-3.650019407272339 -12.24251651763916 -2.4012088775634766
-3.163378953933716 -12.377607345581055 -2.401284694671631
-2.917919874191284 -12.437919616699219 -2.401323080062866
-1.9267089366912842 -12.63036823272705 -2.401477813720703
-1.1748534440994263 -12.722983360290527 -2.401595115661621
-0.923095703125 -12.743924140930176 -2.401634454727173
-0.6710790991783142 -12.759892463684082 -2.4016737937927246
-0.1662939488887787 -12.776857376098633 -2.4017527103424072
0.33897948265075684 -12.773874282836914 -2.401831865310669
0.5914355516433716 -12.764887809753418 -2.4018712043762207
-3.8850486278533936 -10.67449951171875 -2.4011738300323486
-3.673349618911743 -10.749351501464844 -2.4012067317962646
-3.460209846496582 -10.820009231567383 -2.401240110397339
-2.812983274459839 -11.006534576416016 -2.401340961456299
-2.5931737422943115 -11.059985160827637 -2.4013752937316895
-2.3758299350738525 -11.109431266784668 -2.401409149169922
-2.155776262283325 -11.154379844665527 -2.4014434814453125
-1.9349559545516968 -11.194977760314941 -2.4014780521392822
-1.7132666110992432 -11.231194496154785 -2.401512622833252
-1.4909276962280273 -11.263022422790527 -2.401547431945801
-1.0446337461471558 -11.313483238220215 -2.4016170501708984
-0.8207812309265137 -11.33207893371582 -2.4016520977020264
-0.37242186069488525 -11.356016159057617 -2.401721954345703
0.3013964891433716 -11.358603477478027 -2.401827335357666
0.5258642435073853 -11.350600242614746 -2.401862382888794
0.7501220703125 -11.33815860748291 -2.401897430419922
-3.112187385559082 -9.7317533493042 -2.4012956619262695
-2.7251806259155273 -9.847405433654785 -2.4013559818267822
-2.530039072036743 -9.899468421936035 -2.401386260986328
-2.136855363845825 -9.991991996765137 -2.4014477729797363
-1.9389501810073853 -10.032404899597168 -2.4014787673950195
-1.7402929067611694 -10.068902015686035 -2.4015097618103027
-1.541015625 -10.101473808288574 -2.401540756225586
-1.3409960269927979 -10.130080223083496 -2.4015719890594482
-0.5366747975349426 -10.204885482788086 -2.4016976356506348
-0.3348730504512787 -10.213629722595215 -2.401729106903076
-0.13292968273162842 -10.218393325805664 -2.4017605781555176
0.06908690929412842 -10.219159126281738 -2.401792287826538
0.27106931805610657 -10.215925216674805 -2.4018237590789795
0.6746532917022705 -10.197497367858887 -2.4018869400024414
-2.9990625381469727 -8.776142120361328 -2.4013142585754395
-2.4737255573272705 -8.938764572143555 -2.4013960361480713
-2.118544816970825 -9.02976131439209 -2.401451587677002
-1.939672827720642 -9.069977760314941 -2.401479482650757
-1.3987401723861694 -9.169316291809082 -2.401563882827759
-1.2172460556030273 -9.195279121398926 -2.401592254638672
-0.6701513528823853 -9.251593589782715 -2.4016778469085693
0.42930173873901367 -9.26655387878418 -2.4018495082855225
-2.583818197250366 -8.079564094543457 -2.4013800621032715
-2.262514591217041 -8.175539016723633 -2.4014298915863037
-0.4455517530441284 -8.472126007080078 -2.4017136096954346
-0.2780078053474426 -8.479365348815918 -2.4017398357391357
0.05734863132238388 -8.483914375305176 -2.401792287826538
0.22504393756389618 -8.481219291687012 -2.4018185138702393
0.5600927472114563 -8.465883255004883 -2.4018707275390625
-2.524662971496582 -7.387939929962158 -2.4013898372650146
-2.378164052963257 -7.43646764755249 -2.4014127254486084
-2.2307324409484863 -7.482095718383789 -2.4014358520507812
-1.9332958459854126 -7.564560413360596 -2.401482105255127
-1.783422827720642 -7.60137414932251 -2.401505470275879
-1.4816112518310547 -7.66607141494751 -2.401552677154541
-1.024682641029358 -7.740642547607422 -2.4016239643096924
-0.8714892268180847 -7.75945520401001 -2.4016478061676025
-0.4100878834724426 -7.797703266143799 -2.401719808578491
-0.10155761241912842 -7.807973861694336 -2.401768207550049
0.052788086235523224 -7.80853271484375 -2.401792287826538
0.36137694120407104 -7.800506591796875 -2.4018404483795166
0.5155029296875 -7.791914939880371 -2.401864528656006
-2.470781087875366 -6.7886576652526855 -2.4013991355895996
-2.336127996444702 -6.836225509643555 -2.4014198780059814
-2.200571298599243 -6.881131649017334 -2.4014410972595215
-2.064135789871216 -6.923336029052734 -2.4014623165130615
-1.7889257669448853 -6.999641418457031 -2.4015052318573
-1.6502245664596558 -7.03369665145874 -2.401526927947998
-1.5108838081359863 -7.065003395080566 -2.4015486240386963
-1.3709521293640137 -7.09355354309082 -2.4015705585479736
-1.230493187904358 -7.119332790374756 -2.401592493057251
-1.0895360708236694 -7.142330646514893 -2.4016144275665283
-0.9481493830680847 -7.16253662109375 -2.4016363620758057
-0.8064013719558716 -7.179943084716797 -2.401658535003662
-0.3794580101966858 -7.215312957763672 -2.4017252922058105
-0.23677246272563934 -7.221476078033447 -2.401747703552246
0.04883788898587227 -7.225321292877197 -2.401792287826538
0.1916552633047104 -7.22300910949707 -2.4018144607543945
0.3343896269798279 -7.217880725860596 -2.40183687210083
-2.296679735183716 -6.310311317443848 -2.4014265537261963
-1.9186962842941284 -6.435496807098389 -2.4014854431152344
-1.7911376953125 -6.472218036651611 -2.401505470275879
-1.5339502096176147 -6.538064479827881 -2.401545763015747
-1.4044238328933716 -6.5671610832214355 -2.4015657901763916
-1.1437890529632568 -6.617652416229248 -2.401606559753418
-1.0127636194229126 -6.63902473449707 -2.4016270637512207
-0.7495800852775574 -6.67397928237915 -2.401668071746826
-0.6175146102905273 -6.68754768371582 -2.401688575744629
-0.4852050542831421 -6.69850492477417 -2.4017093181610107
-0.08735351264476776 -6.715656757354736 -2.4017715454101562
0.045405272394418716 -6.71613073348999 -2.401792287826538
0.3108203113079071 -6.709207534790039 -2.4018337726593018
0.44337889552116394 -6.701811790466309 -2.4018545150756836
-2.026416063308716 -5.929902076721191 -2.4014694690704346
-1.9088329076766968 -5.968843936920166 -2.4014875888824463
-1.7904784679412842 -6.0054545402526855 -2.401506185531616
-1.431435465812683 -6.101156711578369 -2.401562213897705
-1.067348599433899 -6.1754150390625 -2.4016189575195312
-0.6994872689247131 -6.227970600128174 -2.4016764163970947
-0.5762500166893005 -6.240626811981201 -2.401695728302002
-0.4527978301048279 -6.250850677490234 -2.40171480178833
-0.32914549112319946 -6.258630275726318 -2.4017343521118164
-0.20537108182907104 -6.263960838317871 -2.4017534255981445
-0.0815136730670929 -6.266848087310791 -2.401772975921631
0.042363278567790985 -6.2672858238220215 -2.401792287826538
0.16624023020267487 -6.265276908874512 -2.4018115997314453
0.41374510526657104 -6.253909587860107 -2.401850461959839
-1.8974071741104126 -5.552416801452637 -2.401489734649658
-1.7873046398162842 -5.588876724243164 -2.4015071392059326
-1.565039038658142 -5.6552300453186035 -2.4015417098999023
-1.4529589414596558 -5.6851043701171875 -2.401559352874756
-1.340307593345642 -5.712754249572754 -2.4015767574310303
-1.1134814023971558 -5.7613525390625 -2.4016122817993164
-0.30818846821784973 -5.860174655914307 -2.401737928390503
-0.0763232409954071 -5.867867469787598 -2.4017741680145264
0.0396728515625 -5.868274211883545 -2.401792287826538
0.15565916895866394 -5.866387844085693 -2.40181040763855
0.38741210103034973 -5.855735778808594 -2.4018466472625732
-1.8845751285552979 -5.178033828735352 -2.4014923572540283
-1.5744189023971558 -5.280728816986084 -2.401540517807007
-1.4697363376617432 -5.310854434967041 -2.401556968688965
-1.2586278915405273 -5.364870548248291 -2.401589870452881
-1.0456151962280273 -5.410501480102539 -2.401623249053955
-0.9385351538658142 -5.430150032043457 -2.401639699935913
-0.8310253620147705 -5.447680473327637 -2.4016566276550293
-0.1806005835533142 -5.507976055145264 -2.4017581939697266
0.14619629085063934 -5.50911283493042 -2.4018092155456543
0.2551318407058716 -5.505183219909668 -2.4018263816833496
0.3638085722923279 -5.499107360839844 -2.401843309402466
-1.7743993997573853 -4.87527322769165 -2.4015097618103027
-1.5803320407867432 -4.941657543182373 -2.4015400409698486
-1.4823485612869263 -4.971961975097656 -2.4015555381774902
-1.284692406654358 -5.026730537414551 -2.4015862941741943
-1.1850879192352295 -5.051175117492676 -2.401601552963257
-1.0850194692611694 -5.073645114898682 -2.4016172885894775
-0.9845361113548279 -5.0941338539123535 -2.4016330242156982
-0.8836523294448853 -5.112633228302002 -2.401648759841919
-0.7824267148971558 -5.1291351318359375 -2.4016644954681396
-0.6809033155441284 -5.143631458282471 -2.4016804695129395
-0.5790966749191284 -5.156120300292969 -2.40169620513916
-0.4770751893520355 -5.166594505310059 -2.40171217918396
-0.17002440989017487 -5.18588924407959 -2.4017601013183594
-0.06749023497104645 -5.188273906707764 -2.4017763137817383
0.035087890923023224 -5.18862771987915 -2.401792287826538
0.34254392981529236 -5.177531719207764 -2.4018402099609375
-1.5831639766693115 -4.632833003997803 -2.4015400409698486
-1.398828148841858 -4.691843032836914 -2.401568651199341
-1.2123143672943115 -4.743523597717285 -2.401597738265991
-1.0238866806030273 -4.787791728973389 -2.4016270637512207
-0.8338720798492432 -4.82457971572876 -2.4016568660736084
-0.7383496165275574 -4.840148448944092 -2.401671886444092
-0.45018553733825684 -4.875492572784424 -2.401716709136963
0.033100586384534836 -4.896274089813232 -2.401792287826538
0.22660644352436066 -4.891202449798584 -2.401822566986084
-1.4969433546066284 -4.380527019500732 -2.4015536308288574
-1.4100292921066284 -4.409291744232178 -2.401567220687866
-1.2346776723861694 -4.461628437042236 -2.401594638824463
-1.1463232040405273 -4.485174179077148 -2.401608467102051
-1.0573877096176147 -4.506994724273682 -2.4016222953796387
-0.6075243949890137 -4.589472770690918 -2.4016923904418945
-0.33448728919029236 -4.617487907409668 -2.4017350673675537
0.031303711235523224 -4.629594802856445 -2.401792287826538
0.21425780653953552 -4.624794006347656 -2.4018208980560303
-1.3356200456619263 -4.176448822021484 -2.4015791416168213
-1.2528125047683716 -4.202054977416992 -2.4015920162200928
-1.1695165634155273 -4.226021766662598 -2.4016051292419434
-1.0015820264816284 -4.268990516662598 -2.4016313552856445
-0.832080066204071 -4.305288314819336 -2.4016575813293457
-0.7468212842941284 -4.320920467376709 -2.4016709327697754
-0.6612695455551147 -4.334860324859619 -2.401684284210205
-0.5754589438438416 -4.347108364105225 -2.401697874069214
-0.48942381143569946 -4.357659339904785 -2.4017112255096436
-0.4031982421875 -4.3665056228637695 -2.4017245769500732
-0.23030760884284973 -4.379080295562744 -2.401751756668091
-0.14369629323482513 -4.382800579071045 -2.4017653465270996
-0.05703124776482582 -4.3848090171813965 -2.4017786979675293
0.02963867038488388 -4.385104179382324 -2.401792287826538
0.11631347239017487 -4.383687496185303 -2.401805877685547
0.2029443383216858 -4.380556106567383 -2.4018194675445557
-1.422631859779358 -3.908794403076172 -2.4015657901763916
-1.3450976610183716 -3.936171531677246 -2.401577949523926
-1.2670458555221558 -3.962009906768799 -2.40159010887146
-1.1884814500808716 -3.9862987995147705 -2.401602268218994
-1.1094677448272705 -4.009031772613525 -2.4016146659851074
-1.0300146341323853 -4.030201435089111 -2.4016270637512207
-0.9501562118530273 -4.049792766571045 -2.401639461517334
-0.8699267506599426 -4.067804336547852 -2.4016520977020264
-0.5459082126617432 -4.123897075653076 -2.401702642440796
-0.38249021768569946 -4.1422953605651855 -2.4017281532287598
-0.21846678853034973 -4.15421724319458 -2.4017539024353027
-0.13631346821784973 -4.157748222351074 -2.401766538619995
-0.054106444120407104 -4.159653663635254 -2.4017794132232666
0.11034667491912842 -4.158585548400879 -2.4018051624298096
0.2746289074420929 -4.15101957321167 -2.4018309116363525
