ply
format ascii 1.0
element vertex 343
property float x
property float y
property float z
end_header
-12.796669960021973 -25.437257766723633 5.020859241485596
-12.79662036895752 -26.765731811523438 5.231171607971191
-12.796552658081055 -28.2109375 5.462178707122803
-12.61611270904541 -29.37039566040039 5.636359691619873
-12.534247398376465 -34.840843200683594 6.528841972351074
-14.423418045043945 -42.77574157714844 7.959751605987549
-14.35768985748291 -45.59146499633789 8.428214073181152
-11.979658126831055 -23.813236236572266 4.083663463592529
-12.796649932861328 -28.21114730834961 4.745623588562012
-12.700575828552246 -29.567020416259766 4.929701328277588
-12.5855073928833 -31.00545310974121 5.126285076141357
-12.796454429626465 -33.44099426269531 5.485235691070557
-12.585165977478027 -39.962982177734375 6.418509483337402
-12.019071578979492 -23.8915958404541 3.4826860427856445
-12.05540943145752 -26.5770263671875 3.800287961959839
-11.992968559265137 -27.91974639892578 3.956965208053589
-12.585615158081055 -31.005693435668945 4.357539176940918
-12.796562194824219 -33.44129943847656 4.662691593170166
-12.585477828979492 -34.98321533203125 4.841353416442871
-12.58529281616211 -39.96337890625 5.456021785736084
-12.530771255493164 -46.20379638671875 6.234046459197998
-12.019071578979492 -23.89158058166504 2.8718597888946533
-12.060097694396973 -25.2252197265625 3.002387046813965
-12.055390357971191 -26.57700538635254 3.1337573528289795
-12.059950828552246 -29.710716247558594 3.443201780319214
-12.059892654418945 -31.516141891479492 3.6235692501068115
-12.003066062927246 -35.597694396972656 4.0339884757995605
-12.585419654846191 -39.963783264160156 4.49915075302124
-12.64281177520752 -46.61692428588867 5.186624050140381
-12.019062042236328 -23.891565322875977 2.263991355895996
-12.060185432434082 -25.225393295288086 2.3668997287750244
-11.97982406616211 -26.410423278808594 2.4549689292907715
-11.992968559265137 -27.919706344604492 2.57230281829834
-12.059989929199219 -31.51640510559082 2.8566105365753174
-12.0598726272583 -35.76613998413086 3.195186138153076
-12.585458755493164 -42.96337890625 3.7897984981536865
-12.28287124633789 -45.28974151611328 3.9724011421203613
-11.97998046875 -23.81389045715332 1.6530401706695557
-11.979950904846191 -25.05757713317871 1.7222824096679688
-12.055380821228027 -26.57697296142578 1.8096681833267212
-11.992948532104492 -27.919687271118164 1.8842754364013672
-13.266942977905273 -45.289730072021484 2.926447629928589
-12.28287124633789 -45.289710998535156 2.909877300262451
-12.027528762817383 -48.165199279785156 3.078455686569214
-11.979999542236328 -26.410810470581055 1.1435333490371704
-11.979931831359863 -29.5135440826416 1.2559685707092285
-11.97989273071289 -31.307098388671875 1.3217666149139404
-11.979833602905273 -33.29975128173828 1.3954299688339233
-11.979784965515137 -35.528648376464844 1.4784283638000488
-11.97972583770752 -38.040462493896484 1.5725997686386108
-13.266928672790527 -45.28969955444336 1.8608572483062744
-12.282851219177246 -45.28968048095703 1.850330114364624
-11.98013687133789 -23.814193725585938 0.4503021240234375
-11.980087280273438 -26.41098976135254 0.48988279700279236
-11.980058670043945 -27.889652252197266 0.512732207775116
-13.26651382446289 -45.28829574584961 0.7971475124359131
-12.282480239868164 -45.28827667236328 0.792641282081604
-12.6484956741333 -25.14274024963379 -0.15845763683319092
-12.6484375 -27.884418487548828 -0.17239120602607727
-12.648407936096191 -29.445613861083984 -0.1804298311471939
-12.347216606140137 -34.32096481323242 -0.20535704493522644
-12.942919731140137 -38.38503646850586 -0.22806762158870697
-12.282480239868164 -45.288246154785156 -0.26418548822402954
-12.64858341217041 -25.14290428161621 -0.7925079464912415
-12.648534774780273 -27.884618759155273 -0.8621726632118225
-12.648505210876465 -29.445823669433594 -0.9023867845535278
-12.347207069396973 -34.320945739746094 -1.027040719985962
-12.088232040405273 -38.3849983215332 -1.1331655979156494
-12.28246021270752 -45.28822326660156 -1.3212846517562866
-4.535009860992432 -36.39950180053711 -1.0328538417816162
-4.133886814117432 -39.67283248901367 -1.123152494430542
-12.648652076721191 -26.456233978271484 -1.4871615171432495
-12.648603439331055 -29.446048736572266 -1.6252760887145996
-12.64858341217041 -31.160823822021484 -1.7055222988128662
-12.648564338684082 -33.054500579833984 -1.7948713302612305
-12.942914962768555 -38.38499069213867 -2.054344415664673
-12.088212966918945 -38.38497543334961 -2.0409111976623535
-12.477089881896973 -42.59344482421875 -2.2508625984191895
-11.617538452148438 -42.836448669433594 -2.25089430809021
-4.412187576293945 -17.668926239013672 -0.9235805869102478
-4.246884822845459 -18.591106414794922 -0.9671201705932617
-3.8650779724121094 -20.73019027709961 -1.0694286823272705
-3.8282127380371094 -30.72640037536621 -1.570312738418579
-3.7955174446105957 -36.42538070678711 -1.8572841882705688
-3.7096190452575684 -44.21751022338867 -2.2503318786621094
-2.8191308975219727 -44.285606384277344 -2.2504518032073975
-1.0348436832427979 -44.36787414550781 -2.2506909370422363
-12.648749351501465 -25.143253326416016 -2.063697099685669
-12.6487398147583 -26.4564208984375 -2.1501426696777344
-12.125898361206055 -28.229169845581055 -2.252702236175537
-11.555351257324219 -28.46761703491211 -2.252713680267334
-9.816718101501465 -29.113603591918945 -2.252758264541626
-9.22890567779541 -29.30552101135254 -2.252776861190796
-5.082812309265137 -17.35133934020996 -1.3257012367248535
-4.261054515838623 -17.063718795776367 -1.2895690202713013
-4.007197380065918 -17.541772842407227 -1.3193334341049194
-3.677431583404541 -19.72374153137207 -1.471108078956604
-3.842714786529541 -23.191186904907227 -1.723610520362854
-3.706132650375366 -25.54485321044922 -1.8926153182983398
-1.9496679306030273 -30.62726402282715 -2.2502009868621826
-1.332949161529541 -30.661386489868164 -2.250283718109131
-0.7641308307647705 -32.76176834106445 -2.402815580368042
-10.125702857971191 -21.17916488647461 -2.2537381649017334
-9.697441101074219 -21.378705978393555 -2.253743886947632
-9.265263557434082 -21.56959342956543 -2.253751277923584
-8.829336166381836 -21.75179100036621 -2.2537598609924316
-7.946923732757568 -22.08968734741211 -2.253781318664551
-7.500810146331787 -22.245277404785156 -2.253793954849243
-7.051660060882568 -22.391845703125 -2.25380802154541
-5.054853439331055 -17.255889892578125 -1.7262673377990723
-4.58743143081665 -16.914846420288086 -1.6825714111328125
-4.003925800323486 -17.527435302734375 -1.726067304611206
-3.825878858566284 -18.45099639892578 -1.8090676069259644
-3.830644369125366 -23.11845588684082 -2.2497501373291016
-2.8973729610443115 -23.25520896911621 -2.249877691268921
-2.428847551345825 -23.309505462646484 -2.249941110610962
-1.4889452457427979 -23.38966941833496 -2.250068187713623
-1.0466601848602295 -24.075937271118164 -2.3135931491851807
-8.185966491699219 -17.121994018554688 -2.254344940185547
-7.490498065948486 -17.43796730041504 -2.254401922225952
-6.782753944396973 -17.725379943847656 -2.2544171810150146
-6.42467737197876 -17.858379364013672 -2.2544262409210205
-6.064013481140137 -17.98414421081543 -2.254436492919922
-5.700888633728027 -18.102617263793945 -2.2544479370117188
-4.608368873596191 -16.992107391357422 -2.091339588165283
-3.972783088684082 -17.39111328125 -2.1190378665924072
-2.719365119934082 -18.7435359954834 -2.2497801780700684
-0.4716210961341858 -20.22010040283203 -2.4025180339813232
-7.137743949890137 -14.188446998596191 -2.25040602684021
-6.851669788360596 -14.331127166748047 -2.250703811645508
-5.976621150970459 -14.723886489868164 -2.251535654067993
-5.373984336853027 -14.93780517578125 -2.24932599067688
-4.463076114654541 -15.235733032226562 -2.249454975128174
-4.155634880065918 -15.32275104522705 -2.249497890472412
-3.535771369934082 -15.478166580200195 -2.249584436416626
-3.2236328125 -15.54649543762207 -2.2496275901794434
-2.91015625 -15.608522415161133 -2.24967098236084
-1.9631054401397705 -15.756587982177734 -2.249800443649292
-1.3618651628494263 -16.23295783996582 -2.3081159591674805
-1.0771484375 -16.92081642150879 -2.4023492336273193
-0.39537107944488525 -16.951095581054688 -2.4024405479431152
-6.551289081573486 -13.022671699523926 -2.4015185832977295
-6.006230354309082 -13.241151809692383 -2.3952572345733643
-5.688808441162109 -13.243610382080078 -2.374507427215576
-5.38113260269165 -13.256872177124023 -2.3569862842559814
-5.083788871765137 -13.285489082336426 -2.3434054851531982
-4.795634746551514 -13.330179214477539 -2.3337903022766113
-4.244765758514404 -13.478860855102539 -2.3280041217803955
-3.4530467987060547 -13.828007698059082 -2.347965955734253
-3.1952831745147705 -13.987592697143555 -2.3636653423309326
-2.672538995742798 -14.334015846252441 -2.4020683765411377
-2.3835644721984863 -14.385149955749512 -2.4021079540252686
-1.219091773033142 -14.53119945526123 -2.402266263961792
-5.51125955581665 -11.527497291564941 -2.401616334915161
-4.805830001831055 -11.839564323425293 -2.4017183780670166
-4.566650390625 -11.934060096740723 -2.401752471923828
-4.325614929199219 -12.023701667785645 -2.4017868041992188
-4.082831859588623 -12.108504295349121 -2.4018216133117676
-3.83837890625 -12.188390731811523 -2.401855945587158
-3.592353343963623 -12.263334274291992 -2.401890754699707
-3.0960350036621094 -12.398327827453613 -2.4019601345062256
-2.845937490463257 -12.458314895629883 -2.401994228363037
-2.594658136367798 -12.513185501098633 -2.4020190238952637
-2.342334032058716 -12.562990188598633 -2.402043581008911
-1.3245116472244263 -12.711191177368164 -2.4021408557891846
-1.0684374570846558 -12.73539924621582 -2.402164936065674
-0.2980078160762787 -12.776596069335938 -2.4021520614624023
-4.48440408706665 -10.43972110748291 -2.4017233848571777
-4.2734375 -10.527994155883789 -2.4017539024353027
-3.8464062213897705 -10.691701889038086 -2.4018149375915527
-3.6305174827575684 -10.767091751098633 -2.4018454551696777
-3.41314435005188 -10.838105201721191 -2.401876211166382
-2.974296808242798 -10.966900825500488 -2.401925563812256
-2.5306150913238525 -11.077920913696289 -2.4019696712493896
-2.3071680068969727 -11.126708984375 -2.401991605758667
-2.0827929973602295 -11.17098331451416 -2.4020135402679443
-1.6315820217132568 -11.245954513549805 -2.402056932449341
-1.177734375 -11.302703857421875 -2.402100086212158
-0.7219530940055847 -11.341145515441895 -2.4021425247192383
-0.2649804651737213 -11.361210823059082 -2.40218448638916
-4.592411994934082 -9.128824234008789 -2.4016740322113037
-4.407812595367432 -9.219500541687012 -2.401700735092163
-4.033329963684082 -9.38962173461914 -2.4017550945281982
-3.8435935974121094 -9.468999862670898 -2.401782512664795
-3.652285099029541 -9.544546127319336 -2.4018096923828125
-3.4594922065734863 -9.616189956665039 -2.401829957962036
-2.872997999191284 -9.807666778564453 -2.4018900394439697
-2.6750781536102295 -9.863582611083984 -2.4019100666046143
-2.0750486850738525 -10.00727367401123 -2.4019694328308105
-1.8732519149780273 -10.047094345092773 -2.401989221572876
-1.2635936737060547 -10.142065048217773 -2.402047872543335
-0.6493163704872131 -10.200077056884766 -2.4021050930023193
-3.8318846225738525 -8.44765853881836 -2.4017515182495117
-3.661123037338257 -8.52313232421875 -2.4017698764801025
-3.4888768196105957 -8.595154762268066 -2.4017882347106934
-3.3152246475219727 -8.663684844970703 -2.401806354522705
-3.1402244567871094 -8.728717803955078 -2.401824474334717
-2.4281835556030273 -8.953251838684082 -2.401897430419922
-2.2475194931030273 -9.000371932983398 -2.4019153118133545
-1.5164941549301147 -9.15223503112793 -2.401986837387085
-1.14697265625 -9.205981254577637 -2.402022361755371
-0.5893847346305847 -9.25861644744873 -2.4020745754241943
-0.21632811427116394 -9.274970054626465 -2.402108669281006
-3.6594042778015137 -7.654118537902832 -2.4017364978790283
-2.385136604309082 -8.142230033874512 -2.401870012283325
-1.049013614654541 -8.41975212097168 -2.402000904083252
-0.8793652057647705 -8.439218521118164 -2.402017116546631
-3.225654125213623 -7.111202716827393 -2.401754856109619
-3.081904172897339 -7.17472505569458 -2.4017701148986816
-2.9369139671325684 -7.235342025756836 -2.4017856121063232
-2.7907323837280273 -7.293027400970459 -2.4018008708953857
-2.495009660720825 -7.399517059326172 -2.40183162689209
-2.3456151485443115 -7.44827938079834 -2.4018471240997314
-2.044003963470459 -7.536731243133545 -2.4018776416778564
-1.8919237852096558 -7.576390266418457 -2.40189266204834
-1.5855273008346558 -7.646484851837158 -2.4019229412078857
-1.276552677154541 -7.704193115234375 -2.4019529819488525
-1.1212596893310547 -7.728371620178223 -2.401967763900757
-0.652880847454071 -7.782090663909912 -2.4020121097564697
-0.18210937082767487 -7.807446002960205 -2.402055501937866
-3.1165428161621094 -6.518640041351318 -2.4017419815063477
-2.984736204147339 -6.580080032348633 -2.4017560482025146
-2.851738214492798 -6.638853073120117 -2.4017703533172607
-2.7175683975219727 -6.694937705993652 -2.401784658432007
-2.308652400970459 -6.84684419631958 -2.401827096939087
-1.6091893911361694 -7.044347763061523 -2.401897668838501
-1.1812108755111694 -7.128734111785889 -2.4019393920898438
-1.037509799003601 -7.151101589202881 -2.4019532203674316
-0.6041113138198853 -7.2007975578308105 -2.401994228363037
-0.3138476610183716 -7.219357967376709 -2.4020209312438965
-0.16850586235523224 -7.224251747131348 -2.402034282684326
-2.896914005279541 -6.059258460998535 -2.4017441272735596
-2.526054620742798 -6.223123073577881 -2.4017837047576904
-2.4003124237060547 -6.272736072540283 -2.401796817779541
-2.2735936641693115 -6.319800853729248 -2.4018101692199707
-2.1459569931030273 -6.364317417144775 -2.4018232822418213
-2.017451047897339 -6.406247615814209 -2.401836395263672
-1.4957811832427979 -6.547883987426758 -2.401888847351074
-1.3637011051177979 -6.576696395874023 -2.4019017219543457
-1.2310839891433716 -6.602840423583984 -2.4019148349761963
-0.9643847346305847 -6.647106647491455 -2.4019405841827393
-0.8304198980331421 -6.665205001831055 -2.4019532203674316
-0.6961035132408142 -6.680599212646484 -2.401965856552124
-0.5615234375 -6.693288326263428 -2.4019784927368164
-0.29172849655151367 -6.710538864135742 -2.402003526687622
-0.15663085877895355 -6.715086460113525 -2.4020156860351562
-2.588984251022339 -5.707601070404053 -2.4017581939697266
-2.239882707595825 -5.853516578674316 -2.4017953872680664
-2.0025389194488525 -5.938972473144531 -2.401819944381714
-1.5184862613677979 -6.0809006690979 -2.4018688201904297
-0.8999218344688416 -6.20284366607666 -2.4019293785095215
-0.6495898365974426 -6.234094142913818 -2.4019529819488525
-0.3982031047344208 -6.255246639251709 -2.4019763469696045
-0.2722265422344208 -6.262026309967041 -2.4019880294799805
-0.1461523473262787 -6.266260147094727 -2.4019994735717773
-2.637216806411743 -5.24229097366333 -2.40173602104187
-2.531201124191284 -5.2943315505981445 -2.401747465133667
-2.316113233566284 -5.391951084136963 -2.40177059173584
-2.0972752571105957 -5.480842590332031 -2.4017937183380127
-1.986572265625 -5.521968841552734 -2.4018054008483887
-1.7627636194229126 -5.597490310668945 -2.4018282890319824
-1.4218065738677979 -5.6937408447265625 -2.401862621307373
-1.3069432973861694 -5.721228122711182 -2.40187406539917
-1.1915429830551147 -5.746400833129883 -2.401885509490967
-1.0756444931030273 -5.769242286682129 -2.4018967151641846
-0.8426171541213989 -5.8079094886779785 -2.40191912651062
-0.6082226634025574 -5.837168216705322 -2.4019415378570557
-2.2765233516693115 -5.018753528594971 -2.4017598628997803
-2.175058603286743 -5.06357479095459 -2.401770830154419
-1.7608495950698853 -5.222186088562012 -2.4018139839172363
-1.5492870807647705 -5.288862228393555 -2.4018356800079346
-1.4425389766693115 -5.318994045257568 -2.401846408843994
-1.335205078125 -5.346972942352295 -2.4018571376800537
-1.1189745664596558 -5.396419525146484 -2.401878595352173
-1.0101464986801147 -5.417870998382568 -2.4018890857696533
-0.9009081721305847 -5.437127113342285 -2.401899814605713
-0.5711816549301147 -5.481652736663818 -2.401931047439575
-0.23937499523162842 -5.506202220916748 -2.4019618034362793
-0.12851561605930328 -5.509926795959473 -2.4019720554351807
-2.143378973007202 -4.725276470184326 -2.4017605781555176
-2.0478711128234863 -4.767470836639404 -2.401770830154419
-1.9515234231948853 -4.807741641998291 -2.4017810821533203
-1.8543750047683716 -4.846063613891602 -2.4017910957336426
-1.7564843893051147 -4.88242244720459 -2.401801347732544
-1.4586913585662842 -4.979579448699951 -2.401831865310669
-1.1555663347244263 -5.058588981628418 -2.401862382888794
-0.9510839581489563 -5.101037979125977 -2.4018821716308594
-0.6415331959724426 -5.149195671081543 -2.401911973953247
-0.43381834030151367 -5.170881748199463 -2.4019315242767334
-0.3296582102775574 -5.178587436676025 -2.4019410610198975
-2.2004003524780273 -4.373989582061768 -2.4017419815063477
-2.111943244934082 -4.41740608215332 -2.401751756668091
-1.9324902296066284 -4.498849391937256 -2.401770830154419
-1.8415721654891968 -4.536849021911621 -2.401780605316162
-1.7498925924301147 -4.573009967803955 -2.401790142059326
-1.6575292348861694 -4.607319355010986 -2.4017996788024902
-1.3764843940734863 -4.698996067047119 -2.4018285274505615
-1.1862890720367432 -4.7506208419799805 -2.4018476009368896
-0.8004199266433716 -4.83071231842041 -2.401885509490967
-0.7030468583106995 -4.845860004425049 -2.4018948078155518
-0.5074706673622131 -4.870266437530518 -2.4019134044647217
-1.8272265195846558 -4.2538161277771 -2.401770830154419
-1.7412596940994263 -4.289743423461914 -2.401780128479004
-1.479248046875 -4.387046813964844 -2.4018073081970215
-1.3906737565994263 -4.415944576263428 -2.4018166065216064
-1.2118456363677979 -4.4683661460876465 -2.401834487915039
-1.121679663658142 -4.491865634918213 -2.401843547821045
-0.9400194883346558 -4.533400058746338 -2.4018614292144775
-0.8486034870147705 -4.551417350769043 -2.4018704891204834
-0.7568359375 -4.567588806152344 -2.40187931060791
-0.6647558212280273 -4.581912040710449 -2.401888132095337
-0.5724120736122131 -4.594379425048828 -2.4018969535827637
-0.4798339605331421 -4.604986667633057 -2.4019055366516113
-0.2941308617591858 -4.620598793029785 -2.4019229412078857
-0.20109374821186066 -4.625600337982178 -2.4019315242767334
-0.10795897990465164 -4.628726959228516 -2.401940107345581
-1.891455054283142 -3.956230878829956 -2.4017539024353027
-1.8114745616912842 -3.9935107231140137 -2.4017622470855713
-1.73074209690094 -4.029170989990234 -2.401771068572998
-1.6493066549301147 -4.063199996948242 -2.4017796516418457
-1.484472632408142 -4.126311779022217 -2.40179705619812
-1.317226529121399 -4.182735919952393 -2.4018139839172363
-1.2327831983566284 -4.2084126472473145 -2.401822805404663
-1.147851586341858 -4.232385635375977 -2.4018313884735107
-0.7168554663658142 -4.326365947723389 -2.401873826980591
-0.6296484470367432 -4.339930534362793 -2.4018819332122803
-0.5421679615974426 -4.351738929748535 -2.401890277862549
-0.4544921815395355 -4.361783504486084 -2.4018986225128174
-0.1904589831829071 -4.3813066482543945 -2.401923179626465
-1.8694921731948853 -3.7161991596221924 -2.4017465114593506
-1.718447208404541 -3.7884459495544434 -2.4017629623413086
-1.6418554782867432 -3.8222756385803223 -2.401771068572998
-1.486718773841858 -3.8852789402008057 -2.401787519454956
-1.2495898008346558 -3.9679503440856934 -2.4018118381500244
-1.1694823503494263 -3.9923088550567627 -2.401820182800293
-1.0078905820846558 -4.036163806915283 -2.401836395263672
-0.6800585985183716 -4.1041998863220215 -2.4018683433532715
-0.5973144173622131 -4.117068290710449 -2.401876211166382
-0.4311620891094208 -4.137797832489014 -2.4018921852111816
-0.34779295325279236 -4.145650386810303 -2.401900053024292
-0.2642871141433716 -4.1518235206604 -2.4019076824188232
-0.18068358302116394 -4.156314373016357 -2.4019153118133545
-0.09700194746255875 -4.159123420715332 -2.4019229412078857
