ply
format ascii 1.0
element vertex 843
property float x
property float y
property float z
end_header
7.290076732635498 -10.708378791809082 -2.4349069595336914
7.503026962280273 -10.56015396118164 -2.434905529022217
7.712965965270996 -10.40789794921875 -2.434904098510742
7.919814109802246 -10.251378059387207 -2.434903621673584
8.714670181274414 -9.58481216430664 -2.434903144836426
8.90484619140625 -9.40839958190918 -2.434903144836426
9.274398803710938 -9.044309616088867 -2.4349029064178467
9.453632354736328 -8.856796264648438 -2.4349026679992676
9.629081726074219 -8.665726661682129 -2.4349026679992676
9.800673484802246 -8.471184730529785 -2.4349026679992676
10.13198184967041 -8.07198429107666 -2.4349024295806885
10.291579246520996 -7.867486476898193 -2.4349024295806885
10.59832763671875 -7.449120998382568 -2.4349021911621094
10.74535846710205 -7.23541259765625 -2.4349021911621094
11.026440620422363 -6.799380779266357 -2.4349019527435303
11.289838790893555 -6.352450370788574 -2.434901714324951
11.53512191772461 -5.895322322845459 -2.434901714324951
11.761914253234863 -5.428739547729492 -2.434901475906372
11.96983814239502 -4.953461170196533 -2.434901475906372
12.245646476745605 -4.225890159606934 -2.434901237487793
12.327802658081055 -3.9798405170440674 -2.434901237487793
12.40501880645752 -3.7321956157684326 -2.434901237487793
12.60671329498291 -2.980699300765991 -2.434900999069214
12.762927055358887 -2.218444585800171 -2.434900999069214
12.84151840209961 -1.7056536674499512 -2.434900999069214
12.873095512390137 -1.4481827020645142 -2.434900999069214
12.936820983886719 -0.6726974248886108 -2.4349007606506348
12.947702407836914 -0.4135226309299469 -2.4349007606506348
12.953866958618164 0.10521849989891052 -2.4349007606506348
12.939265251159668 0.6237878203392029 -2.4349007606506348
12.924181938171387 0.8827502131462097 -2.4349007606506348
12.84787368774414 1.6570959091186523 -2.4349007606506348
12.812121391296387 1.9140197038650513 -2.4349007606506348
12.771220207214355 2.170180559158325 -2.4349007606506348
12.674089431762695 2.6797826290130615 -2.434900999069214
12.617890357971191 2.9330217838287354 -2.434900999069214
12.419034957885742 3.6852800846099854 -2.434900999069214
12.342756271362305 3.933208465576172 -2.434900999069214
12.17538070678711 4.424233913421631 -2.43489933013916
11.98846435546875 4.908168315887451 -2.434898853302002
11.887792587280273 5.147233009338379 -2.434898614883423
11.78233814239502 5.3842339515686035 -2.434898614883423
11.55724048614502 5.851644992828369 -2.4348959922790527
11.313737869262695 6.309700012207031 -2.434894323348999
10.772592544555664 7.194715976715088 -2.43489408493042
10.475903511047363 7.6202712059021 -2.43489408493042
10.162397384643555 8.033590316772461 -2.43489408493042
9.999502182006836 8.235465049743652 -2.43489408493042
9.832592964172363 8.434032440185547 -2.43489408493042
9.661738395690918 8.629240989685059 -2.43489408493042
6.067026138305664 6.361757278442383 -1.6523902416229248
7.838017463684082 9.275178909301758 -2.282494068145752
7.650722503662109 9.430265426635742 -2.282494068145752
7.267016410827637 9.72902774810791 -2.282494068145752
7.070761680603027 9.872587203979492 -2.282494068145752
6.871661186218262 10.012185096740723 -2.282494068145752
3.3748717308044434 -11.01363754272461 -2.4349093437194824
4.245276927947998 -10.708295822143555 -2.4349093437194824
4.458842754364014 -10.621145248413086 -2.4349093437194824
5.294375896453857 -10.230327606201172 -2.4349093437194824
5.498160362243652 -10.122243881225586 -2.4349093437194824
6.29044771194458 -9.649898529052734 -2.4349093437194824
6.671771049499512 -9.390287399291992 -2.4349091053009033
6.858453273773193 -9.254830360412598 -2.434908628463745
7.22349739074707 -8.97281265258789 -2.4349074363708496
7.401710033416748 -8.826342582702637 -2.434906244277954
7.576955318450928 -8.676268577575684 -2.4349052906036377
7.749165058135986 -8.522831916809082 -2.434903860092163
8.406254768371582 -7.875547409057617 -2.434903383255005
8.562262535095215 -7.705646991729736 -2.434903144836426
9.009452819824219 -7.177675724029541 -2.434903144836426
9.1513671875 -6.995837688446045 -2.4349029064178467
9.4241304397583 -6.623826026916504 -2.4349026679992676
9.681779861450195 -6.241185188293457 -2.4349026679992676
10.039023399353027 -5.648652076721191 -2.4349024295806885
10.15011215209961 -5.446507453918457 -2.4349024295806885
10.257136344909668 -5.2421746253967285 -2.4349021911621094
10.36004638671875 -5.035737991333008 -2.4349021911621094
10.45880126953125 -4.827284812927246 -2.4349021911621094
10.729753494262695 -4.190658092498779 -2.4349019527435303
11.307135581970215 -2.1995067596435547 -2.434901714324951
11.38613510131836 -1.7450215816497803 -2.434901714324951
11.418793678283691 -1.5166808366775513 -2.434901714324951
11.446874618530273 -1.2877358198165894 -2.434901475906372
11.47036361694336 -1.0582727193832397 -2.434901475906372
11.513205528259277 -0.367706298828125 -2.434901475906372
11.518695831298828 0.09355834871530533 -2.434901475906372
11.514513969421387 0.3241827189922333 -2.434901475906372
11.505715370178223 0.5546746850013733 -2.434901475906372
11.474279403686523 1.0149017572402954 -2.434901475906372
11.35628604888916 1.9297430515289307 -2.434901475906372
11.21994400024414 2.608067512512207 -2.434901714324951
10.975290298461914 3.497443675994873 -2.434901714324951
10.903063774108887 3.716503143310547 -2.434901714324951
10.826459884643555 3.9340710639953613 -2.434901714324951
10.74551773071289 4.1500654220581055 -2.434901714324951
10.570727348327637 4.576963901519775 -2.43489933013916
10.47696304321289 4.7877092361450195 -2.43489933013916
10.170610427856445 5.408081531524658 -2.434896945953369
9.945913314819336 5.8109588623046875 -2.4348950386047363
9.579092025756836 6.3976054191589355 -2.43489408493042
9.315260887145996 6.776007652282715 -2.43489408493042
8.195988655090332 7.030220031738281 -2.282494068145752
8.053571701049805 7.192926406860352 -2.282494068145752
7.607197284698486 7.6634697914123535 -2.282494068145752
7.133383750915527 8.106361389160156 -2.282494068145752
6.633536338806152 8.51964282989502 -2.282395362854004
6.286194801330566 8.77713394165039 -2.282064199447632
5.928843975067139 9.020440101623535 -2.2817234992980957
5.746602535247803 9.13664722442627 -2.2815499305725098
3.035360097885132 -9.905679702758789 -2.4349093437194824
3.2330968379974365 -9.842914581298828 -2.4349093437194824
4.010289192199707 -9.552666664123535 -2.4349093437194824
4.200755596160889 -9.47045612335205 -2.4349093437194824
4.389544486999512 -9.384444236755371 -2.4349093437194824
4.576573371887207 -9.294669151306152 -2.4349093437194824
4.761765003204346 -9.201192855834961 -2.4349093437194824
4.945053577423096 -9.103913307189941 -2.4349093437194824
5.305599212646484 -8.898679733276367 -2.4349093437194824
5.830284118652344 -8.564092636108398 -2.4349093437194824
6.00059700012207 -8.445642471313477 -2.4349093437194824
6.168501853942871 -8.32379150390625 -2.4349093437194824
6.333931922912598 -8.198609352111816 -2.4349093437194824
6.496824741363525 -8.070164680480957 -2.4349093437194824
6.657113075256348 -7.93850040435791 -2.4349091053009033
6.814733505249023 -7.803589344024658 -2.434908628463745
7.121706485748291 -7.524364948272705 -2.4349076747894287
7.417260646820068 -7.23320198059082 -2.434906005859375
7.560600280761719 -7.083439826965332 -2.4349052906036377
7.700912952423096 -6.9304680824279785 -2.4349043369293213
7.838139533996582 -6.774875164031982 -2.434903621673584
8.476069450378418 -5.957478046417236 -2.434903144836426
8.925568580627441 -5.260176181793213 -2.434903144836426
9.129023551940918 -4.898595809936523 -2.4349029064178467
9.31783676147461 -4.529147624969482 -2.4349026679992676
9.572949409484863 -3.9615604877471924 -2.4349026679992676
9.723886489868164 -3.57509708404541 -2.4349026679992676
9.793522834777832 -3.3796777725219727 -2.4349024295806885
9.978761672973633 -2.7856011390686035 -2.4349024295806885
10.032538414001465 -2.585235118865967 -2.4349021911621094
10.082292556762695 -2.383833646774292 -2.4349021911621094
10.207226753234863 -1.7742156982421875 -2.4349021911621094
10.2700777053833 -1.3641079664230347 -2.4349021911621094
10.295331954956055 -1.1581933498382568 -2.4349021911621094
10.299633979797363 1.1192626953125 -2.4349021911621094
10.246562004089355 1.5307470560073853 -2.4349021911621094
10.213857650756836 1.7356127500534058 -2.4349021911621094
10.177058219909668 1.9397765398025513 -2.4349021911621094
10.136174201965332 2.143169403076172 -2.4349021911621094
10.042238235473633 2.5472874641418457 -2.4349021911621094
9.98922061920166 2.747857093811035 -2.4349021911621094
9.932196617126465 2.9473228454589844 -2.4349021911621094
9.871191024780273 3.1456053256988525 -2.4349021911621094
9.73733139038086 3.5383081436157227 -2.4349021911621094
9.664530754089355 3.7325737476348877 -2.4349024295806885
9.507336616516113 4.116531848907471 -2.4349024295806885
9.422986030578613 4.306076526641846 -2.434901714324951
9.334884643554688 4.493886470794678 -2.4349005222320557
9.147467613220215 4.864039897918701 -2.4348998069763184
8.728933334350586 5.580355644226074 -2.4348955154418945
8.076212882995605 5.39387845993042 -2.2824971675872803
7.966591835021973 5.554507255554199 -2.282496929168701
7.853764533996582 5.71291446685791 -2.282496452331543
7.618737697601318 6.022776126861572 -2.2824957370758057
7.371484279632568 6.322992324829102 -2.2824952602386475
7.24339485168457 6.469326496124268 -2.2824950218200684
6.978561878204346 6.754152297973633 -2.28249454498291
6.067026138305664 6.361758232116699 -2.0660743713378906
5.966784477233887 7.663315773010254 -2.2826156616210938
5.809601783752441 7.777853012084961 -2.2816176414489746
5.652331352233887 7.892099857330322 -2.281467914581299
5.492807388305664 8.003162384033203 -2.281315803527832
5.331096172332764 8.110994338989258 -2.2811615467071533
5.167264461517334 8.21554946899414 -2.281005620956421
2.5746471881866455 -9.044878959655762 -2.4349093437194824
2.7552380561828613 -8.991512298583984 -2.4349093437194824
3.1130332946777344 -8.873988151550293 -2.4349093437194824
3.290095090866089 -8.809874534606934 -2.4349093437194824
3.465837240219116 -8.742226600646973 -2.4349093437194824
3.640190362930298 -8.67108154296875 -2.4349093437194824
3.8130810260772705 -8.596447944641113 -2.4349093437194824
3.9844493865966797 -8.518380165100098 -2.4349093437194824
4.488684177398682 -8.263792991638184 -2.4349093437194824
4.653256893157959 -8.172260284423828 -2.4349093437194824
5.292225360870361 -7.773716926574707 -2.4349093437194824
5.446817398071289 -7.666229248046875 -2.4349093437194824
5.749387264251709 -7.442008972167969 -2.4349093437194824
6.326413631439209 -6.958066463470459 -2.4349093437194824
6.464471340179443 -6.830029010772705 -2.4349093437194824
6.732748985290527 -6.565711498260498 -2.434908866882324
6.990228176116943 -6.2909088134765625 -2.434908151626587
7.471166610717773 -5.711324214935303 -2.434905767440796
7.904181957244873 -5.095292091369629 -2.434903621673584
8.101850509643555 -4.774727821350098 -2.434903383255005
8.195839881896973 -4.611552715301514 -2.434903383255005
8.373903274536133 -4.279698848724365 -2.434903144836426
8.759750366210938 -3.421248197555542 -2.434903144836426
8.826494216918945 -3.245159149169922 -2.434903144836426
8.88970947265625 -3.0677783489227295 -2.4349029064178467
9.151823997497559 -2.163832426071167 -2.4349026679992676
9.231122970581055 -1.7956722974777222 -2.4349026679992676
9.295622825622559 -1.424631953239441 -2.4349026679992676
9.322279930114746 -1.2382171154022217 -2.4349026679992676
9.345207214355469 -1.0513076782226562 -2.4349026679992676
9.379801750183105 -0.676294207572937 -2.4349026679992676
9.391462326049805 -0.4883444011211395 -2.4349026679992676
9.399357795715332 -0.3001959025859833 -2.4349026679992676
9.403840065002441 0.07638183236122131 -2.4349026679992676
9.40042495727539 0.26466184854507446 -2.4349026679992676
9.38228988647461 0.6408300399780273 -2.4349026679992676
9.36757755279541 0.8285632133483887 -2.4349026679992676
9.326896667480469 1.2029650211334229 -2.4349026679992676
9.300939559936523 1.3894786834716797 -2.4349026679992676
9.271246910095215 1.575438141822815 -2.4349026679992676
9.200739860534668 1.9453825950622559 -2.4349026679992676
9.067340850830078 2.494265079498291 -2.4349026679992676
8.901237487792969 3.0341453552246094 -2.4349026679992676
8.838698387145996 3.2117669582366943 -2.4349026679992676
8.703022003173828 3.5630815029144287 -2.4349029064178467
8.55337905883789 3.9086809158325195 -2.4349029064178467
8.473405838012695 4.079162120819092 -2.4349029064178467
8.303276062011719 4.415153503417969 -2.434901714324951
6.915641784667969 5.466963291168213 -2.282501697540283
6.804790019989014 5.604341506958008 -2.282501220703125
6.691203594207764 5.739473342895508 -2.282501220703125
6.456037521362305 6.002779006958008 -2.282500982284546
6.210517406463623 6.2564568519592285 -2.282500982284546
5.41973876953125 6.960729122161865 -2.284137487411499
4.694404125213623 7.4637370109558105 -2.2829573154449463
2.35478138923645 -8.272481918334961 -2.4349093437194824
2.5199522972106934 -8.223671913146973 -2.4349093437194824
2.847188711166382 -8.11617374420166 -2.4349093437194824
3.487459659576416 -7.862350940704346 -2.4349093437194824
3.644190549850464 -7.7909440994262695 -2.4349093437194824
3.7994604110717773 -7.71641206741333 -2.4349093437194824
4.40469217300415 -7.387657165527344 -2.4349093437194824
4.696956634521484 -7.205379962921143 -2.4349093437194824
5.121074199676514 -6.910407543182373 -2.4349093437194824
5.25840950012207 -6.806473255157471 -2.4349093437194824
5.393649578094482 -6.699800491333008 -2.4349093437194824
5.657577991485596 -6.478511810302734 -2.4349093437194824
5.786163330078125 -6.363926410675049 -2.4349093437194824
6.157800197601318 -6.005008220672607 -2.4349093437194824
6.507222652435303 -5.6245245933532715 -2.4349093437194824
6.727194786071777 -5.359447956085205 -2.434908866882324
6.833156585693359 -5.223665714263916 -2.434908628463745
6.936386585235596 -5.085801601409912 -2.434908390045166
7.036828517913818 -4.945893287658691 -2.434907913208008
7.134450435638428 -4.80400276184082 -2.4349076747894287
7.409991264343262 -4.3669915199279785 -2.434906244277954
7.495954513549805 -4.217746734619141 -2.434905529022217
7.658803462982178 -3.9142303466796875 -2.4349045753479004
7.809389591217041 -3.6044445037841797 -2.434903621673584
7.947441101074219 -3.288877487182617 -2.434903383255005
8.011696815490723 -3.1290838718414307 -2.434903383255005
8.130560874938965 -2.805802583694458 -2.434903383255005
8.185104370117188 -2.6424379348754883 -2.434903383255005
8.236373901367188 -2.478013515472412 -2.434903144836426
8.370290756225586 -1.9790536165237427 -2.434903144836426
8.408239364624023 -1.811055302619934 -2.434903144836426
8.442816734313965 -1.6423287391662598 -2.434903144836426
8.50180435180664 -1.3029705286026 -2.434903144836426
8.526188850402832 -1.1324776411056519 -2.434903144836426
8.578808784484863 -0.6185379028320312 -2.434903144836426
8.600459098815918 -0.10237548500299454 -2.434903144836426
8.600786209106445 0.06985778361558914 -2.434903144836426
8.597661018371582 0.24205565452575684 -2.434903144836426
8.581073760986328 0.5861047506332397 -2.434903144836426
8.530407905578613 1.1002355813980103 -2.434903144836426
8.506674766540527 1.270823359489441 -2.434903144836426
8.415026664733887 1.7792528867721558 -2.434903144836426
8.293031692504883 2.2812652587890625 -2.434903144836426
8.141103744506836 2.775045156478882 -2.434903144836426
8.083908081054688 2.937495708465576 -2.434903144836426
8.02347183227539 3.098773717880249 -2.434903144836426
7.892971038818359 3.417534828186035 -2.434903144836426
7.822958946228027 3.574896812438965 -2.434903383255005
7.749809265136719 3.7308170795440674 -2.434903860092163
7.673549652099609 3.885249614715576 -2.4349043369293213
7.594223499298096 4.038125514984131 -2.4349048137664795
7.511833190917969 4.189370632171631 -2.4349048137664795
6.793196678161621 4.342848300933838 -2.2825069427490234
6.613874435424805 4.611359119415283 -2.2825067043304443
6.520212173461914 4.742866516113281 -2.2825067043304443
6.223701000213623 5.125757217407227 -2.2825067043304443
6.119815349578857 5.24935245513916 -2.2825067043304443
6.013476371765137 5.370840549468994 -2.2825067043304443
5.904731273651123 5.490172386169434 -2.2825067043304443
5.793622970581055 5.607308864593506 -2.2825069427490234
5.68017578125 5.72219181060791 -2.2825071811676025
5.564457893371582 5.834773540496826 -2.2825076580047607
5.446516036987305 5.9450273513793945 -2.2825067043304443
5.326386451721191 6.052894592285156 -2.282505512237549
5.086753845214844 6.269923686981201 -2.2856502532958984
4.9596848487854 6.369869709014893 -2.285417079925537
4.830668926239014 6.46726131439209 -2.285189628601074
4.699748516082764 6.562046527862549 -2.2849676609039307
2.1673216819763184 -7.613924980163574 -2.4349093437194824
2.3193395137786865 -7.569002628326416 -2.4349093437194824
2.4704320430755615 -7.5210418701171875 -2.4349093437194824
2.9175195693969727 -7.359157562255859 -2.4349093437194824
3.209829092025757 -7.236443519592285 -2.4349093437194824
3.3540844917297363 -7.170720100402832 -2.4349093437194824
3.4969921112060547 -7.102125644683838 -2.4349093437194824
3.6384997367858887 -7.030685901641846 -2.4349093437194824
4.054046630859375 -6.7995452880859375 -2.4349093437194824
4.323039531707764 -6.631816387176514 -2.4349093437194824
4.454962253570557 -6.543882846832275 -2.4349093437194824
4.713396072387695 -6.360268592834473 -2.4349093437194824
4.839802265167236 -6.264618396759033 -2.4349093437194824
4.964271068572998 -6.166399002075195 -2.4349093437194824
5.441752910614014 -5.749492645263672 -2.4349093437194824
5.667590141296387 -5.526949405670166 -2.4349093437194824
5.777120113372803 -5.412413597106934 -2.4349093437194824
5.989195346832275 -5.176712989807129 -2.4349093437194824
6.191661357879639 -4.932793140411377 -2.4349093437194824
6.289193153381348 -4.807826042175293 -2.4349093437194824
6.38419771194458 -4.680932998657227 -2.4349093437194824
6.566493988037109 -4.421568870544434 -2.4349091053009033
6.653711795806885 -4.2891974449157715 -2.4349091053009033
6.738260269165039 -4.1550703048706055 -2.434908866882324
6.820108413696289 -4.019351959228516 -2.434908628463745
6.899223327636719 -3.8819847106933594 -2.434908390045166
7.119842529296875 -3.460764169692993 -2.4349076747894287
7.187709808349609 -3.317456007003784 -2.4349074363708496
7.252694129943848 -3.172919750213623 -2.4349069595336914
7.37391471862793 -2.8799901008605957 -2.434906482696533
7.483312606811523 -2.5824387073516846 -2.434905767440796
7.580705165863037 -2.280745267868042 -2.4349050521850586
7.665942192077637 -1.9751352071762085 -2.4349043369293213
7.703957557678223 -1.8215062618255615 -2.434904098510742
7.738883972167969 -1.666882038116455 -2.434903860092163
7.824999809265137 -1.1992480754852295 -2.434903621673584
7.847443580627441 -1.0423204898834229 -2.434903383255005
7.882885456085205 -0.7272838950157166 -2.434903383255005
7.912326335906982 -0.2527020275592804 -2.434903383255005
7.91580057144165 -0.09422606974840164 -2.434903383255005
7.916100978851318 0.06429992616176605 -2.434903383255005
7.913227558135986 0.2227899134159088 -2.434903383255005
7.907177448272705 0.3811975121498108 -2.434903383255005
7.897958755493164 0.5394458174705505 -2.434903383255005
7.885575771331787 0.6974810361862183 -2.434903383255005
7.851327896118164 1.0126513242721558 -2.434903383255005
7.745131492614746 1.6376110315322876 -2.434903860092163
7.710785865783691 1.7923650741577148 -2.434904098510742
7.632846355438232 2.0996599197387695 -2.4349048137664795
7.589274883270264 2.2520751953125 -2.4349050521850586
7.54265832901001 2.4035840034484863 -2.4349052906036377
7.440377235412598 2.7036523818969727 -2.434906005859375
7.384750843048096 2.8520922660827637 -2.434906244277954
7.200198650360107 3.290311813354492 -2.4349074363708496
7.062687873840332 3.575958728790283 -2.4349076747894287
6.98967170715332 3.7166595458984375 -2.4349076747894287
6.001158237457275 4.365298748016357 -2.2825090885162354
5.912548542022705 4.484582424163818 -2.2825093269348145
5.632638931274414 4.8314738273620605 -2.2825093269348145
5.434675216674805 5.05312442779541 -2.2825093269348145
5.332411766052246 5.16092586517334 -2.2825093269348145
5.012940406799316 5.471765518188477 -2.2825093269348145
4.902366638183594 5.571039199829102 -2.282508611679077
4.680211067199707 5.7688212394714355 -2.2848691940307617
4.567043304443359 5.8655853271484375 -2.2865092754364014
4.327747821807861 6.04263973236084 -2.286095142364502
4.081637859344482 6.210005283355713 -2.2857022285461426
2.0054454803466797 -7.0452470779418945 -2.4349093437194824
2.1461143493652344 -7.003677845001221 -2.4349093437194824
2.285919189453125 -6.95930290222168 -2.4349093437194824
2.4248082637786865 -6.912136077880859 -2.4349093437194824
2.5627245903015137 -6.8621978759765625 -2.4349093437194824
2.699613094329834 -6.809508323669434 -2.4349093437194824
2.8354246616363525 -6.754082679748535 -2.4349093437194824
3.2358055114746094 -6.571671485900879 -2.4349093437194824
3.3667430877685547 -6.505563259124756 -2.4349093437194824
3.496330499649048 -6.436844825744629 -2.4349093437194824
3.624518871307373 -6.365546226501465 -2.4349093437194824
4.122226238250732 -6.0551371574401855 -2.4349093437194824
4.478322505950928 -5.796713352203369 -2.4349093437194824
4.593494892120361 -5.705876350402832 -2.4349093437194824
4.927780628204346 -5.419809341430664 -2.4349093437194824
5.035313606262207 -5.3200507164001465 -2.4349093437194824
5.140825271606445 -5.218162536621094 -2.4349093437194824
5.244284629821777 -5.11411190032959 -2.4349093437194824
5.345633506774902 -5.0081467628479 -2.4349093437194824
5.819458961486816 -4.448732376098633 -2.4349093437194824
5.992909908294678 -4.21216344833374 -2.4349093437194824
6.076048374176025 -4.0913262367248535 -2.4349093437194824
6.156752586364746 -3.9688429832458496 -2.4349093437194824
6.454572677612305 -3.4634957313537598 -2.4349093437194824
6.588071346282959 -3.202277183532715 -2.4349091053009033
6.650871276855469 -3.0697267055511475 -2.4349091053009033
6.711000919342041 -2.9358880519866943 -2.434908866882324
6.768441200256348 -2.800976276397705 -2.434908628463745
6.823170185089111 -2.6648874282836914 -2.434908628463745
6.924394607543945 -2.3895621299743652 -2.434908390045166
7.014517784118652 -2.110400915145874 -2.434908151626587
7.093388557434082 -1.827860713005066 -2.4349076747894287
7.160884857177734 -1.5423858165740967 -2.4349074363708496
7.190334320068359 -1.398690104484558 -2.4349074363708496
7.216895580291748 -1.2544326782226562 -2.4349071979522705
7.240566253662109 -1.1096782684326172 -2.4349071979522705
7.26133394241333 -0.9644762873649597 -2.4349069595336914
7.294126987457275 -0.6729681491851807 -2.4349069595336914
7.321375370025635 -0.2336999475955963 -2.4349067211151123
7.324866771697998 0.0596020482480526 -2.4349067211151123
7.316608905792236 0.35277891159057617 -2.4349067211151123
7.308080673217773 0.49915647506713867 -2.4349067211151123
7.296619892120361 0.6453863382339478 -2.4349069595336914
7.264928817749023 0.9370166063308716 -2.4349069595336914
7.244711875915527 1.0822973251342773 -2.4349069595336914
7.221588134765625 1.227144718170166 -2.4349071979522705
7.166666030883789 1.514874815940857 -2.4349074363708496
7.134888648986816 1.6584997177124023 -2.4349074363708496
6.93337869644165 2.36336612701416 -2.434908151626587
6.662428855895996 3.044562816619873 -2.4349091053009033
6.53518533706665 3.3088762760162354 -2.4349091053009033
6.4676194190979 3.439067840576172 -2.4349091053009033
6.3974609375 3.5678813457489014 -2.4349091053009033
6.266046047210693 3.6609764099121094 -2.4123153686523438
5.858327388763428 3.582003116607666 -2.2825093269348145
5.78542947769165 3.698582649230957 -2.2825093269348145
5.710214614868164 3.813680410385132 -2.2825093269348145
5.63270378112793 3.9272618293762207 -2.2825093269348145
5.552935600280762 4.0392632484436035 -2.2825093269348145
5.300413608551025 4.365356922149658 -2.2825093269348145
5.121379375457764 4.574080944061279 -2.2825093269348145
4.638527870178223 5.063081741333008 -2.2825093269348145
4.536218166351318 5.154945373535156 -2.2825093269348145
4.432085990905762 5.244744300842285 -2.2825093269348145
5.183661937713623 6.3893938064575195 -2.7348899841308594
4.227676868438721 5.4297285079956055 -2.2874531745910645
4.117758750915527 5.512824058532715 -2.287259101867676
3.77843976020813 5.748706340789795 -2.286705732345581
1.8641149997711182 -6.548746109008789 -2.4349093437194824
2.1248228549957275 -6.4688591957092285 -2.4349093437194824
2.2539219856262207 -6.425016403198242 -2.4349093437194824
2.3821263313293457 -6.378591060638428 -2.4349093437194824
2.6356005668640137 -6.278106689453125 -2.4349093437194824
2.7607786655426025 -6.224075794219971 -2.4349093437194824
2.884852170944214 -6.16754674911499 -2.4349093437194824
3.24993896484375 -5.98321533203125 -2.4349093437194824
3.369086742401123 -5.9169464111328125 -2.4349093437194824
3.486889600753784 -5.848302364349365 -2.4349093437194824
3.8317198753356934 -5.628403663635254 -2.4349093437194824
3.9436497688293457 -5.550555229187012 -2.4349093437194824
4.053998947143555 -5.4704766273498535 -2.4349093437194824
4.162722110748291 -5.3882060050964355 -2.4349093437194824
4.269775390625 -5.303774356842041 -2.4349093437194824
4.375120639801025 -5.217215538024902 -2.4349093437194824
4.478709697723389 -5.12856388092041 -2.4349093437194824
4.680459976196289 -4.945130348205566 -2.4349093437194824
4.778537273406982 -4.8504228591918945 -2.4349093437194824
4.968908786773682 -4.655205726623535 -2.4349093437194824
5.061124324798584 -4.554493427276611 -2.4349093437194824
5.151315689086914 -4.4525251388549805 -2.4349093437194824
5.239437103271484 -4.348484039306641 -2.4349093437194824
5.325456619262695 -4.242709159851074 -2.4349093437194824
5.570573806762695 -3.9153220653533936 -2.4349093437194824
5.795589447021484 -3.5738534927368164 -2.4349093437194824
5.999699592590332 -3.2193760871887207 -2.4349093437194824
6.062961101531982 -3.098633050918579 -2.4349093437194824
6.123791217803955 -2.976609230041504 -2.4349093437194824
6.182162761688232 -2.8533945083618164 -2.4349093437194824
6.291452407836914 -2.603583335876465 -2.4349093437194824
6.390653133392334 -2.349595546722412 -2.4349093437194824
6.479598045349121 -2.0918397903442383 -2.4349093437194824
6.558157920837402 -1.8307284116744995 -2.4349091053009033
6.626198768615723 -1.566683053970337 -2.4349091053009033
6.683611869812012 -1.3001214265823364 -2.4349091053009033
6.708304405212402 -1.16603422164917 -2.434908866882324
6.730306148529053 -1.031502366065979 -2.434908866882324
6.749610424041748 -0.896571934223175 -2.434908866882324
6.780096054077148 -0.6255425810813904 -2.434908628463745
6.808665752410889 0.055302124470472336 -2.434908628463745
6.782410621643066 0.5999035239219666 -2.434908628463745
6.76903772354126 0.7355914115905762 -2.434908628463745
6.752952575683594 0.8709613084793091 -2.434908866882324
6.734161376953125 1.0060253143310547 -2.434908866882324
6.688479900360107 1.2748442888259888 -2.434908866882324
6.527554988861084 1.937014102935791 -2.4349091053009033
6.444765567779541 2.1968138217926025 -2.4349093437194824
6.399487018585205 2.3254175186157227 -2.4349093437194824
6.351640701293945 2.4530913829803467 -2.4349093437194824
6.248330116271973 2.705432653427124 -2.4349093437194824
6.135001182556152 2.953436851501465 -2.4349093437194824
6.074631214141846 3.0756890773773193 -2.4349093437194824
6.011828422546387 3.1967082023620605 -2.4349093437194824
5.377711296081543 3.4379374980926514 -2.2825093269348145
5.235748291015625 3.6504955291748047 -2.2825093269348145
5.161603927612305 3.7545995712280273 -2.2825093269348145
5.007136344909668 3.9582602977752686 -2.2825093269348145
4.926876068115234 4.057728290557861 -2.2825093269348145
4.674371242523193 4.346200942993164 -2.2825093269348145
4.405003547668457 4.618996620178223 -2.2825093269348145
4.223066329956055 4.7990851402282715 -2.2860453128814697
4.028237342834473 4.9651970863342285 -2.2864465713500977
3.82684326171875 5.123347759246826 -2.28682541847229
3.513157844543457 5.345091819763184 -2.287353515625
3.4055285453796387 5.414522171020508 -2.2874202728271484
0.911177933216095 -3.2010226249694824 -1.2754192352294922
1.0164928436279297 -3.317249059677124 -1.329573392868042
1.140679955482483 -3.4727120399475098 -1.4007595777511597
1.5179052352905273 -3.6157121658325195 -1.5027527809143066
1.599056363105774 -3.6050145626068115 -1.511313796043396
1.9011377096176147 -3.673569917678833 -1.585126280784607
3.253859758377075 -5.457451820373535 -2.4349093437194824
3.4697606563568115 -5.3227972984313965 -2.4349093437194824
3.7830650806427 -5.104879856109619 -2.4349093437194824
3.8845226764678955 -5.028107643127441 -2.4349093437194824
4.179394245147705 -4.7858171463012695 -2.4349093437194824
4.367660999298096 -4.61464262008667 -2.4349093437194824
4.459185600280762 -4.526264667510986 -2.4349093437194824
4.636832237243652 -4.344095230102539 -2.4349093437194824
4.72288703918457 -4.250369548797607 -2.4349093437194824
4.889279842376709 -4.0579833984375 -2.4349093437194824
4.969552040100098 -3.959165573120117 -2.4349093437194824
5.198286056518555 -3.6536571979522705 -2.4349093437194824
5.340404033660889 -3.442596912384033 -2.4349093437194824
5.408266544342041 -3.3349735736846924 -2.4349093437194824
5.473959922790527 -3.226013660430908 -2.4349093437194824
5.537458419799805 -3.115816831588745 -2.4349093437194824
5.657767295837402 -2.8915481567382812 -2.4349093437194824
5.769004821777344 -2.6627233028411865 -2.4349093437194824
5.821163177490234 -2.5466513633728027 -2.4349093437194824
5.870988845825195 -2.4295830726623535 -2.4349093437194824
5.963558197021484 -2.192570447921753 -2.4349093437194824
6.119871616363525 -1.7083797454833984 -2.4349093437194824
6.152851581573486 -1.5854979753494263 -2.4349093437194824
6.183363914489746 -1.4619390964508057 -2.4349093437194824
6.236941814422607 -1.2132339477539062 -2.4349093437194824
6.280517578125 -0.9625421166419983 -2.4349093437194824
6.298530101776123 -0.8365926742553711 -2.4349093437194824
6.314022064208984 -0.7103073000907898 -2.4349093437194824
6.32697868347168 -0.5837368369102478 -2.4349093437194824
6.34527587890625 -0.32994505763053894 -2.4349093437194824
6.350610256195068 -0.20276610553264618 -2.4349093437194824
6.353399753570557 -0.07558837532997131 -2.4349093437194824
6.35133171081543 0.1788623034954071 -2.4349093437194824
6.339078426361084 0.4329718053340912 -2.4349093437194824
6.329139232635498 0.5598132014274597 -2.4349093437194824
6.284112453460693 0.9387921094894409 -2.4349093437194824
6.241485595703125 1.1896460056304932 -2.4349093437194824
6.216414451599121 1.31438410282135 -2.4349093437194824
6.188848972320557 1.438592553138733 -2.4349093437194824
6.126286506652832 1.6852325201034546 -2.4349093437194824
6.053900241851807 1.92916738986969 -2.4349093437194824
5.971805095672607 2.1700079441070557 -2.4349093437194824
5.927155494689941 2.2891485691070557 -2.4349093437194824
5.830750465393066 2.524625778198242 -2.4349093437194824
5.724992752075195 2.7560558319091797 -2.4349093437194824
5.610053539276123 2.983067512512207 -2.4349093437194824
5.486114501953125 3.205296516418457 -2.4349093437194824
5.420835018157959 3.3145031929016113 -2.4349093437194824
5.153422832489014 3.2945518493652344 -2.343961477279663
4.953067302703857 3.308016777038574 -2.2825093269348145
4.885840892791748 3.406529426574707 -2.2825093269348145
4.597609996795654 3.78653621673584 -2.2825093269348145
4.442311763763428 3.9675841331481934 -2.2825093269348145
4.199970722198486 4.231037616729736 -2.2846171855926514
3.9393980503082275 4.476723670959473 -2.285210609436035
3.757603645324707 4.631618499755859 -2.285583019256592
3.569704532623291 4.779092311859131 -2.285936117172241
3.2770471572875977 4.9858574867248535 -2.286428689956665
3.1767687797546387 5.050816059112549 -2.2865827083587646
0.8230199813842773 -2.8913166522979736 -1.2303510904312134
0.90411376953125 -2.950507640838623 -1.2629908323287964
0.9826146960258484 -2.9914941787719727 -1.2887005805969238
1.0819653272628784 -3.084240674972534 -1.337721824645996
1.313662052154541 -3.313584566116333 -1.4588543176651
1.5445287227630615 -3.302057981491089 -1.4919836521148682
1.6196997165679932 -3.289483070373535 -1.5006569623947144
1.7032958269119263 -3.2912800312042236 -1.5167346000671387
1.795351505279541 -3.3052914142608643 -1.5394524335861206
2.0085973739624023 -3.368868112564087 -1.6052627563476562
3.148409366607666 -5.047969341278076 -2.4349093437194824
3.248854875564575 -4.983915328979492 -2.4349093437194824
3.347996711730957 -4.917863845825195 -2.4349093437194824
3.6372106075286865 -4.7079901695251465 -2.4349093437194824
3.82279896736145 -4.5585832595825195 -2.4349093437194824
3.913309335708618 -4.481124401092529 -2.4349093437194824
4.175285339355469 -4.23809814453125 -2.4349093437194824
4.259311199188232 -4.153640270233154 -2.4349093437194824
4.341623306274414 -4.067522048950195 -2.4349093437194824
4.422199726104736 -3.979776620864868 -2.4349093437194824
4.653162956237793 -3.707094669342041 -2.4349093437194824
4.797856330871582 -3.517817258834839 -2.4349093437194824
4.867332458496094 -3.42104434967041 -2.4349093437194824
5.000402927398682 -3.223421573638916 -2.4349093437194824
5.063945293426514 -3.122742176055908 -2.4349093437194824
5.125455379486084 -3.0206265449523926 -2.4349093437194824
5.184909343719482 -2.9173922538757324 -2.4349093437194824
5.242286205291748 -2.8129873275756836 -2.4349093437194824
5.297558307647705 -2.7074081897735596 -2.4349093437194824
5.350710391998291 -2.6008360385894775 -2.4349093437194824
5.40171480178833 -2.493176221847534 -2.4349093437194824
5.497206687927246 -2.2748959064483643 -2.4349093437194824
5.541656494140625 -2.1644070148468018 -2.4349093437194824
5.623868465423584 -1.9407591819763184 -2.4349093437194824
5.697066307067871 -1.7140307426452637 -2.4349093437194824
5.730245113372803 -1.5996102094650269 -2.4349093437194824
5.86143684387207 -1.0188320875167847 -2.4349093437194824
5.88066291809082 -0.9012612700462341 -2.4349093437194824
5.897529125213623 -0.7833303809165955 -2.4349093437194824
5.912032127380371 -0.6650851368904114 -2.4349093437194824
5.924166202545166 -0.5465719699859619 -2.4349093437194824
5.946969032287598 0.16745421290397644 -2.4349093437194824
5.942424297332764 0.2864758372306824 -2.4349093437194824
5.935494422912598 0.4054058790206909 -2.4349093437194824
5.914504051208496 0.6427294611930847 -2.4349093437194824
5.900449275970459 0.7610284090042114 -2.4349093437194824
5.884029388427734 0.8790221810340881 -2.4349093437194824
5.820640563964844 1.2307019233703613 -2.4349093437194824
5.794830322265625 1.347003698348999 -2.4349093437194824
5.766696453094482 1.462764859199524 -2.4349093437194824
5.736250877380371 1.577940583229065 -2.4349093437194824
5.631167888641357 1.9194835424423218 -2.4349093437194824
5.54979944229126 2.143406867980957 -2.4349093437194824
5.4111008644104 2.472738027572632 -2.4349093437194824
5.360505104064941 2.5805883407592773 -2.4349093437194824
5.307758808135986 2.6874072551727295 -2.4349093437194824
5.25288200378418 2.7931480407714844 -2.4349093437194824
5.07571268081665 3.103482484817505 -2.4349093437194824
5.012551307678223 3.2044944763183594 -2.4349093437194824
4.851114273071289 3.239924192428589 -2.3875303268432617
4.637407302856445 3.2333154678344727 -2.3137571811676025
4.509994029998779 3.2806127071380615 -2.2825093269348145
4.44340181350708 3.3702569007873535 -2.2825093269348145
4.234161376953125 3.631909132003784 -2.283111572265625
4.009537220001221 3.8805973529815674 -2.2837188243865967
3.8515942096710205 4.038701057434082 -2.2841014862060547
3.6030261516571045 4.263668537139893 -2.2846438884735107
3.4299352169036865 4.405165195465088 -2.2849833965301514
3.3412792682647705 4.473278045654297 -2.285146474838257
3.2512669563293457 4.5395989418029785 -2.2853047847747803
0.7656945586204529 -2.6899287700653076 -1.218885898590088
0.9966052174568176 -2.8409152030944824 -1.3120925426483154
1.0755382776260376 -2.8799633979797363 -1.339807152748108
1.1559325456619263 -2.9157252311706543 -1.366939663887024
1.3253148794174194 -2.9878742694854736 -1.42451810836792
1.4943737983703613 -3.03495717048645 -1.4743316173553467
1.565310001373291 -3.024650812149048 -1.4842562675476074
1.6363928318023682 -3.0126450061798096 -1.4941471815109253
1.7076586484909058 -2.99906849861145 -1.5040740966796875
1.7928404808044434 -3.0069971084594727 -1.5257519483566284
1.8805065155029297 -3.015092372894287 -1.5486583709716797
1.9710363149642944 -3.023674249649048 -1.5730266571044922
2.101811408996582 -3.087346076965332 -1.6277227401733398
3.23576283454895 -4.554477691650391 -2.4349093437194824
3.326489210128784 -4.488771915435791 -2.4349093437194824
3.5899815559387207 -4.2809600830078125 -2.4349093437194824
3.6749839782714844 -4.208217144012451 -2.4349093437194824
3.758509397506714 -4.133786678314209 -2.4349093437194824
3.999913215637207 -3.9006783962249756 -2.4349093437194824
4.077212810516357 -3.8198070526123047 -2.4349093437194824
4.152880668640137 -3.737405300140381 -2.4349093437194824
4.299192905426025 -3.5681262016296387 -2.4349093437194824
4.369777679443359 -3.481325387954712 -2.4349093437194824
4.505661487579346 -3.3035764694213867 -2.4349093437194824
4.695871353149414 -3.0271105766296387 -2.4349093437194824
4.75554084777832 -2.9324634075164795 -2.4349093437194824
4.869140625 -2.7397186756134033 -2.4349093437194824
4.923023700714111 -2.6416451930999756 -2.4349093437194824
5.118608474731445 -2.2392961978912354 -2.4349093437194824
5.162417888641357 -2.136357069015503 -2.4349093437194824
5.281368255615234 -1.8225250244140625 -2.4349093437194824
5.350106239318848 -1.6096441745758057 -2.4349093437194824
5.504466533660889 -0.9567904472351074 -2.4349093437194824
5.538360595703125 -0.7356246709823608 -2.4349093437194824
5.551980018615723 -0.624580979347229 -2.4349093437194824
5.572536468505859 -0.4017852544784546 -2.4349093437194824
5.586607456207275 -0.0664990246295929 -2.4349093437194824
5.586818695068359 0.04537780582904816 -2.4349093437194824
5.584788799285889 0.15723510086536407 -2.4349093437194824
5.580519676208496 0.26902830600738525 -2.4349093437194824
5.565274715423584 0.49224853515625 -2.4349093437194824
5.488198280334473 1.046085238456726 -2.4349093437194824
5.466153621673584 1.1557501554489136 -2.4349093437194824
5.386905193328857 1.4818414449691772 -2.4349093437194824
5.35615348815918 1.5894079208374023 -2.4349093437194824
5.28822135925293 1.8025835752487183 -2.4349093437194824
5.251068115234375 1.9081090688705444 -2.4349093437194824
5.211809158325195 2.012871742248535 -2.4349093437194824
5.170460224151611 2.1168248653411865 -2.4349093437194824
5.081557273864746 2.3221452236175537 -2.4349093437194824
4.984508037567139 2.5237395763397217 -2.4349093437194824
4.932974815368652 2.6230413913726807 -2.4349093437194824
4.879465103149414 2.7212908267974854 -2.4349093437194824
4.823996543884277 2.818449020385742 -2.4349093437194824
4.583016395568848 3.195394277572632 -2.4349093437194824
4.414815425872803 3.211379289627075 -2.3792388439178467
4.245545387268066 3.220184326171875 -2.3223047256469727
4.042724609375 3.3295390605926514 -2.2825093269348145
3.7643308639526367 3.6432762145996094 -2.28309965133667
3.6160082817077637 3.791670560836792 -2.283458709716797
3.4618163108825684 3.934000253677368 -2.283802032470703
3.3825950622558594 4.0028204917907715 -2.2839677333831787
3.30199933052063 4.070038318634033 -2.2841293811798096
3.2200634479522705 4.135622024536133 -2.2842864990234375
3.1368188858032227 4.199550151824951 -2.2844395637512207
2.9665441513061523 4.322328567504883 -2.2847321033477783
2.79144024848938 4.438172340393066 -2.2850072383880615
0.7818456888198853 -2.551494598388672 -1.235253095626831
0.8500720262527466 -2.587977886199951 -1.260905146598816
0.9221630692481995 -2.628711223602295 -1.2894904613494873
0.9992602467536926 -2.6757161617279053 -1.3220999240875244
1.1609814167022705 -2.765503406524658 -1.3883373737335205
1.2400671243667603 -2.795687437057495 -1.415673851966858
1.465950846672058 -2.8326590061187744 -1.476375699043274
1.5974340438842773 -2.8054864406585693 -1.494376301765442
1.6645092964172363 -2.791754961013794 -1.5045174360275269
1.7394835948944092 -2.7889840602874756 -1.5214935541152954
1.8971166610717773 -2.786669969558716 -1.560449481010437
1.9882299900054932 -2.798365831375122 -1.588977336883545
2.23065185546875 -2.887346029281616 -1.688900113105774
3.298668146133423 -4.097494602203369 -2.4349093437194824
3.380052328109741 -4.0306220054626465 -2.4349093437194824
3.6159472465515137 -3.8204188346862793 -2.4349093437194824
3.691716194152832 -3.74725341796875 -2.4349093437194824
3.9797117710113525 -3.439852714538574 -2.4349093437194824
4.303611755371094 -3.024829149246216 -2.4349093437194824
4.363314151763916 -2.93804931640625 -2.4349093437194824
4.531839370727539 -2.6707866191864014 -2.4349093437194824
4.584407806396484 -2.579508066177368 -2.4349093437194824
4.684010982513428 -2.393885850906372 -2.4349093437194824
4.77610445022583 -2.20442533493042 -2.4349093437194824
4.860537052154541 -2.0114290714263916 -2.4349093437194824
4.899836540222168 -1.9137194156646729 -2.4349093437194824
4.937171459197998 -1.8152709007263184 -2.4349093437194824
5.037247180938721 -1.515517234802246 -2.4349093437194824
5.119149208068848 -1.2103594541549683 -2.4349093437194824
5.142358303070068 -1.107615351676941 -2.4349093437194824
5.163504600524902 -1.004425048828125 -2.4349093437194824
5.182582855224609 -0.9008340239524841 -2.4349093437194824
5.199581146240234 -0.7968798875808716 -2.4349093437194824
5.214495658874512 -0.6926074028015137 -2.4349093437194824
5.227319240570068 -0.5880569219589233 -2.4349093437194824
5.238044261932373 -0.48326995968818665 -2.4349093437194824
5.253196716308594 -0.27314451336860657 -2.4349093437194824
5.26011848449707 0.04272094741463661 -2.4349093437194824
5.239835262298584 0.4634631276130676 -2.4349093437194824
5.22950553894043 0.5682910084724426 -2.4349093437194824
5.217076301574707 0.6728887557983398 -2.4349093437194824
5.202559471130371 0.7772167921066284 -2.4349093437194824
5.185952186584473 0.8812341094017029 -2.4349093437194824
5.146510124206543 1.088165283203125 -2.4349093437194824
5.098814487457275 1.2933520078659058 -2.4349093437194824
5.071893215179443 1.3951879739761353 -2.4349093437194824
5.011966228485107 1.5971423387527466 -2.4349093437194824
4.978982925415039 1.6971752643585205 -2.4349093437194824
4.693029880523682 2.3761608600616455 -2.4349093437194824
4.644510269165039 2.4696550369262695 -2.4349093437194824
4.594128131866455 2.5621581077575684 -2.4349093437194824
4.432013988494873 2.833361864089966 -2.4349093437194824
4.374392032623291 2.921535015106201 -2.4349093437194824
4.057277679443359 3.2073657512664795 -2.3940014839172363
3.9064013957977295 3.2172656059265137 -2.3425259590148926
3.4742162227630615 3.499915599822998 -2.282712459564209
3.108065128326416 3.830996513366699 -2.283510446548462
2.627434015274048 4.177414417266846 -2.284336566925049
0.9346886873245239 -2.5028135776519775 -1.3105075359344482
1.0788012742996216 -2.5697500705718994 -1.3670940399169922
1.2368810176849365 -2.644338369369507 -1.4319924116134644
1.382363200187683 -2.671142816543579 -1.4753206968307495
1.9085814952850342 -2.5754470825195312 -1.5724018812179565
2.0941576957702637 -2.601292133331299 -1.6380999088287354
2.2251439094543457 -2.6534247398376465 -1.6986514329910278
3.3393335342407227 -3.6727590560913086 -2.4349093437194824
3.4837071895599365 -3.5361132621765137 -2.4349093437194824
3.5538158416748047 -3.4656472206115723 -2.4349093437194824
3.6897239685058594 -3.3205809593200684 -2.4349093437194824
3.819716691970825 -3.170184850692749 -2.4349093437194824
3.8824291229248047 -3.093066453933716 -2.4349093437194824
3.943585157394409 -3.01470685005188 -2.4349093437194824
4.061124324798584 -2.854398012161255 -2.4349093437194824
4.172152996063232 -2.6895081996917725 -2.4349093437194824
4.276492595672607 -2.520301342010498 -2.4349093437194824
4.373973369598389 -2.347055196762085 -2.4349093437194824
4.464439392089844 -2.1700422763824463 -2.4349093437194824
4.506995677947998 -2.0802159309387207 -2.4349093437194824
4.547744274139404 -1.9895561933517456 -2.4349093437194824
4.692353248596191 -1.6192989349365234 -2.4349093437194824
4.852612018585205 -1.0452065467834473 -2.4349093437194824
4.872569561004639 -0.9478310942649841 -2.4349093437194824
4.906611442565918 -0.7519518733024597 -2.4349093437194824
4.951048374176025 -0.35697141289711 -2.4349093437194824
4.963549613952637 -0.059047240763902664 -2.4349093437194824
4.95814323425293 0.23905883729457855 -2.4349093437194824
4.944595813751221 0.4373705983161926 -2.4349093437194824
4.934847354888916 0.5362707376480103 -2.4349093437194824
4.909421443939209 0.7334252595901489 -2.4349093437194824
4.893749713897705 0.8315814137458801 -2.4349093437194824
4.876119136810303 0.9294024705886841 -2.4349093437194824
4.834996223449707 1.1238927841186523 -2.4349093437194824
4.786120414733887 1.3165746927261353 -2.4349093437194824
4.758798599243164 1.4121453762054443 -2.4349093437194824
4.729568958282471 1.5071489810943604 -2.4349093437194824
4.665431976318359 1.6953063011169434 -2.4349093437194824
4.555233001708984 1.9723461866378784 -2.4349093437194824
4.514829158782959 2.0631628036499023 -2.4349093437194824
4.472613334655762 2.1531500816345215 -2.4349093437194824
4.428600788116455 2.2422759532928467 -2.4349093437194824
4.382815837860107 2.3305015563964844 -2.4349093437194824
4.335273265838623 2.417792797088623 -2.4349093437194824
4.182292461395264 2.6737139225006104 -2.4349093437194824
4.127914905548096 2.7569212913513184 -2.4349093437194824
4.014223575592041 2.919985294342041 -2.4349093437194824
3.9549522399902344 2.9997754096984863 -2.4349093437194824
3.5981030464172363 3.2135918140411377 -2.366414785385132
3.278170108795166 3.302419900894165 -2.2825093269348145
2.9322216510772705 3.614251136779785 -2.282949209213257
2.8594396114349365 3.672461986541748 -2.2830889225006104
2.7854979038238525 3.7292022705078125 -2.283224582672119
2.710425853729248 3.7844462394714355 -2.2833566665649414
2.6342527866363525 3.8381755352020264 -2.28348445892334
2.5570127964019775 3.8903629779815674 -2.2836084365844727
0.7568029761314392 -2.3040261268615723 -1.258110761642456
0.9459204077720642 -2.385990858078003 -1.331527829170227
1.0831835269927979 -2.4419963359832764 -1.3858916759490967
1.2306395769119263 -2.4993340969085693 -1.4452584981918335
1.3052526712417603 -2.52213978767395 -1.4732671976089478
1.361977458000183 -2.5074374675750732 -1.4803152084350586
1.5315123796463013 -2.455536127090454 -1.5013433694839478
1.5877965688705444 -2.4357640743255615 -1.5083948373794556
1.8459972143173218 -2.3894500732421875 -1.5664368867874146
1.9187219142913818 -2.3833727836608887 -1.5873254537582397
3.1574535369873047 -3.472717761993408 -2.4349093437194824
3.226356029510498 -3.408799409866333 -2.4349093437194824
3.3602538108825684 -3.2768871784210205 -2.4349093437194824
3.4251904487609863 -3.2089483737945557 -2.4349093437194824
3.4887571334838867 -3.1397221088409424 -2.4349093437194824
3.6116724014282227 -2.997516393661499 -2.4349093437194824
3.728792667388916 -2.8505077362060547 -2.4349093437194824
3.8931994438171387 -2.6214990615844727 -2.4349093437194824
3.995042562484741 -2.463520050048828 -2.4349093437194824
4.043568134307861 -2.383030891418457 -2.4349093437194824
4.090473651885986 -2.3015875816345215 -2.4349093437194824
4.179347038269043 -2.1359658241271973 -2.4349093437194824
4.300045013427734 -1.8811907768249512 -2.4349093437194824
4.436778545379639 -1.5311009883880615 -2.4349093437194824
4.466545104980469 -1.441954255104065 -2.4349093437194824
4.545062065124512 -1.1711944341659546 -2.4349093437194824
4.567601203918457 -1.079952359199524 -2.4349093437194824
4.607178688049316 -0.896205723285675 -2.4349093437194824
4.652673244476318 -0.6179839968681335 -2.4349093437194824
