ply
format ascii 1.0
element vertex 262
property float x
property float y
property float z
end_header
-20.57862091064453 22.706327438354492 5.403369426727295
-20.577667236328125 21.825807571411133 5.289243221282959
-19.79866600036621 31.644813537597656 5.718446731567383
-20.01303482055664 30.62926483154297 5.605055809020996
-21.259857177734375 31.1790828704834 5.78116512298584
-19.884321212768555 30.43227767944336 4.733859062194824
-20.965946197509766 30.748048782348633 4.846268177032471
-20.515981674194336 20.91942024230957 3.815558910369873
-19.84532356262207 30.37259864807129 3.8959460258483887
-20.56035804748535 30.15324592590332 3.918980598449707
-21.331127166748047 29.997215270996094 3.95253586769104
-20.579774856567383 22.70762062072754 3.29079270362854
-20.578798294067383 21.827011108398438 3.221281051635742
-20.577857971191406 20.982540130615234 3.155839204788208
-20.57695770263672 20.171310424804688 3.094184398651123
-20.2685546875 32.395870208740234 3.234920024871826
-20.959516525268555 30.73863410949707 3.14945125579834
-21.202455520629883 29.816268920898438 3.0971293449401855
-22.58283233642578 30.468950271606445 3.2104930877685547
-20.57615852355957 23.62213134765625 2.6519181728363037
-20.57917022705078 21.827404022216797 2.5394959449768066
-20.577314376831055 20.17164421081543 2.43929386138916
-19.235294342041016 30.744361877441406 2.248854875564575
-19.920515060424805 30.4876766204834 2.2583398818969727
-20.764049530029297 30.45197105407715 2.285536289215088
-20.51703643798828 22.63838768005371 1.8945597410202026
-20.517053604125977 21.761520385742188 1.8546308279037476
-20.517070770263672 20.920534133911133 1.8170390129089355
-20.5170841217041 20.11260223388672 1.781613826751709
-18.961917877197266 31.677936553955078 1.455773115158081
-20.51740264892578 23.554672241210938 1.2317298650741577
-20.517431259155273 20.920915603637695 1.155435562133789
-19.33563995361328 30.90473747253418 0.6157957315444946
-19.796613693237305 30.298038482666016 0.6113523840904236
-20.200374603271484 29.625316619873047 0.60569167137146
-21.361820220947266 30.04037094116211 0.6226530075073242
-22.358600616455078 30.166419982910156 0.6342735290527344
-22.89655303955078 29.65345573425293 0.6328413486480713
-19.30550193786621 32.25189971923828 -0.21162307262420654
-20.024991989135742 30.647550582885742 -0.2061145007610321
-20.133256912231445 28.312685012817383 -0.19559860229492188
-16.483299255371094 28.80955696105957 -0.9346091747283936
-17.341590881347656 28.971019744873047 -0.9507423043251038
-21.36707878112793 28.828632354736328 -1.010402798652649
-22.375263214111328 28.97832679748535 -1.0308984518051147
-23.291650772094727 28.967660903930664 -1.0466346740722656
-24.2122802734375 28.927345275878906 -1.0622014999389648
-25.17364501953125 28.900209426879883 -1.0791947841644287
-21.10893440246582 20.69281005859375 -0.8323377966880798
-15.064157485961914 28.913902282714844 -1.6534255743026733
-15.82025146484375 28.95899772644043 -1.6734920740127563
-16.48138999938965 28.80621337890625 -1.6830954551696777
-17.330570220947266 28.95261001586914 -1.7112579345703125
-26.415842056274414 29.147106170654297 -1.994911789894104
-29.562767028808594 31.35589027404785 -2.185514450073242
-14.344380378723145 26.257369995117188 -2.193803548812866
-14.856680870056152 25.966529846191406 -2.19352388381958
-15.379514694213867 25.693126678466797 -2.1955885887145996
-17.543569564819336 24.670936584472656 -2.219653367996216
-18.020109176635742 24.312877655029297 -2.218940019607544
-20.72237777709961 21.97929573059082 -2.214895725250244
-21.145063400268555 21.560888290405273 -2.2142629623413086
-10.731720924377441 20.598285675048828 -2.2298338413238525
-11.9195556640625 19.912899017333984 -2.2280566692352295
-12.687750816345215 19.41815185546875 -2.226907253265381
-13.435653686523438 18.894071578979492 -2.225787878036499
-13.801651000976562 18.621295928955078 -2.2252402305603027
-14.162168502807617 18.341495513916016 -2.224700689315796
-14.866270065307617 17.761293411254883 -2.223646879196167
-15.209574699401855 17.461105346679688 -2.223133087158203
-15.546896934509277 17.154367446899414 -2.222628355026245
-15.878097534179688 16.84119415283203 -2.222132444381714
-16.521648406982422 16.195951461791992 -2.2211692333221436
-8.685441970825195 16.670690536499023 -2.2328882217407227
-9.64825439453125 16.118446350097656 -2.231447696685791
-9.961649894714355 15.922008514404297 -2.2309787273406982
-10.271066665649414 15.719523429870605 -2.230515956878662
-10.57641315460205 15.51107120513916 -2.2300589084625244
-10.877565383911133 15.296728134155273 -2.2296082973480225
-11.174412727355957 15.076608657836914 -2.229163885116577
-11.46683406829834 14.850760459899902 -2.228726387023926
-11.754734992980957 14.619277000427246 -2.2282955646514893
-12.037992477416992 14.382244110107422 -2.2278714179992676
-12.858997344970703 13.638959884643555 -2.2266428470611572
-13.12270736694336 13.38078498840332 -2.2262489795684814
-13.381317138671875 13.117527961730957 -2.225862741470337
-7.830554485321045 13.68626880645752 -2.2341623306274414
-8.097068786621094 13.527017593383789 -2.2337636947631836
-8.360355377197266 13.362614631652832 -2.2333695888519287
-8.876845359802246 13.018583297729492 -2.232597589492798
-9.625133514404297 12.465598106384277 -2.231480598449707
-9.867116928100586 12.271674156188965 -2.2311205863952637
-10.105257034301758 12.073111534118652 -2.2307660579681396
-10.339344024658203 11.86994743347168 -2.2304177284240723
-11.017093658447266 11.23375415802002 -2.229405403137207
-6.272792816162109 12.039898872375488 -2.236495018005371
-7.859200954437256 11.052130699157715 -2.2341256141662598
-8.074132919311523 10.893691062927246 -2.23380446434021
-8.494368553161621 10.56439208984375 -2.2331764698028564
-9.099566459655762 10.040410995483398 -2.2322731018066406
-9.294268608093262 9.858033180236816 -2.2319846153259277
-9.485391616821289 9.671907424926758 -2.231701612472534
-5.706687927246094 10.446101188659668 -2.2373433113098145
-5.910451412200928 10.330306053161621 -2.237039089202881
-6.111882209777832 10.210553169250488 -2.2367379665374756
-6.31088924407959 10.086896896362305 -2.236440658569336
-6.507421016693115 9.959385871887207 -2.23614764213562
-6.701369285583496 9.828057289123535 -2.2358596324920654
-6.892732620239258 9.692975044250488 -2.2355754375457764
-7.267172813415527 9.411762237548828 -2.2350196838378906
-7.450152397155762 9.26572036743164 -2.2347471714019775
-4.569289684295654 5.459115028381348 -1.338093876838684
-4.661191463470459 5.351212024688721 -1.3338887691497803
-7.98136568069458 8.80660629272461 -2.2339556217193604
-8.320013999938965 8.483635902404785 -2.2334511280059814
-8.484519004821777 8.3172607421875 -2.233206033706665
-4.89323616027832 9.392003059387207 -2.2385666370391846
-5.076578140258789 9.292702674865723 -2.238293170928955
-3.090808153152466 5.402139663696289 -1.3155953884124756
-3.1952526569366455 5.338027000427246 -1.3150503635406494
-5.614343166351318 8.97357177734375 -2.2374913692474365
-5.789256572723389 8.860257148742676 -2.2372305393218994
-6.300088405609131 8.50013256072998 -2.236469030380249
-6.465511798858643 8.373517990112305 -2.236222505569458
-6.628400802612305 8.243703842163086 -2.2359797954559326
-4.536715984344482 5.420203685760498 -1.4940890073776245
-4.661213397979736 5.351240158081055 -1.5000927448272705
-4.947253227233887 5.458780288696289 -1.5572482347488403
-7.253312110900879 7.693389892578125 -2.2350401878356934
-4.567452430725098 8.360719680786133 -2.239058256149292
-3.1952319145202637 5.337985515594482 -1.462130069732666
-5.517598628997803 7.759166240692139 -2.237639904022217
-5.669440746307373 7.649147987365723 -2.2376747131347656
-5.826333999633789 7.545721054077148 -2.240548610687256
-4.388328552246094 5.457747459411621 -1.6459053754806519
-4.569660663604736 5.459558010101318 -1.6732538938522339
-4.661235332489014 5.351268291473389 -1.6678872108459473
-6.82731294631958 6.692725658416748 -2.2469584941864014
-2.8419933319091797 5.454885005950928 -1.5925582647323608
-4.150874137878418 7.598151683807373 -2.241720199584961
-3.090902090072632 5.402300834655762 -1.6115130186080933
-4.602752685546875 7.356714725494385 -2.2468724250793457
-3.7205810546875 5.456510066986084 -1.7099599838256836
-3.880347728729248 5.456806659698486 -1.7336639165878296
-4.569848537445068 5.459781169891357 -1.8434653282165527
-5.956911563873291 6.318233489990234 -2.248337984085083
-3.6693224906921387 7.042866230010986 -2.2481563091278076
-3.8074193000793457 6.969491004943848 -2.2482330799102783
-3.0909483432769775 5.402380466461182 -1.7620089054107666
-3.1951732635498047 5.337896823883057 -1.761153221130371
-4.344711780548096 6.649425029754639 -2.248609781265259
-4.730429649353027 6.382338523864746 -2.2489633560180664
-4.978632926940918 6.19188928604126 -2.249232053756714
-5.336575984954834 5.88835334777832 -2.2496843338012695
-5.676182746887207 5.564287185668945 -2.2501935958862305
-3.3793675899505615 6.486298561096191 -2.2495779991149902
-3.5065319538116455 6.418708324432373 -2.2496488094329834
-3.090996026992798 5.402464389801025 -1.9144295454025269
-3.195150136947632 5.337853908538818 -1.9134652614593506
-3.879791259765625 6.201186180114746 -2.2498996257781982
-4.121287822723389 6.044162273406982 -2.25009822845459
-4.239694595336914 5.962133884429932 -2.25020694732666
-4.585026741027832 5.702359676361084 -2.2505693435668945
-5.019882678985596 5.324355125427246 -2.2507498264312744
-3.0910449028015137 5.402547359466553 -2.0689964294433594
-3.1951208114624023 5.337807655334473 -2.0678985118865967
-3.5919384956359863 5.741099834442139 -2.2511050701141357
-3.9250988960266113 5.51972770690918 -2.251389503479004
-4.033207893371582 5.441634178161621 -2.251495838165283
-4.243631362915039 5.277763366699219 -2.2511279582977295
-4.447015285491943 5.105317115783691 -2.2505645751953125
-4.54608154296875 5.016129016876221 -2.250277280807495
-4.738815784454346 4.832005500793457 -2.2496912479400635
-4.832398414611816 4.737133502960205 -2.2493929862976074
-2.9095752239227295 5.584587097167969 -2.2518811225891113
-3.234483480453491 5.40355110168457 -2.2520809173583984
-3.4440112113952637 5.270943641662598 -2.2516210079193115
-3.5467491149902344 5.201555252075195 -2.2513809204101562
-3.6480796337127686 5.130159854888916 -2.2511367797851562
-3.846367120742798 4.981451511383057 -2.250636339187622
-3.9432554244995117 4.904196739196777 -2.250380277633667
-4.038582801818848 4.825048923492432 -2.2501204013824463
-4.403590202331543 4.4901909828186035 -2.2490456104278564
-2.8170154094696045 5.156556129455566 -2.2517333030700684
-3.1156554222106934 4.979848384857178 -2.251098394393921
-3.212785482406616 4.917057991027832 -2.2508785724639893
-3.3086462020874023 4.852364540100098 -2.250654697418213
-3.4031982421875 4.785798072814941 -2.250427007675171
-3.496406078338623 4.717379570007324 -2.2501955032348633
-3.767606019973755 4.501303195953369 -2.249479055404663
-3.855081796646118 4.42576265335083 -2.2492334842681885
-4.025440692901611 4.2696027755737305 -2.248732089996338
-2.636833429336548 4.826727390289307 -2.251018762588501
-2.824328660964966 4.718347072601318 -2.250626564025879
-2.916422128677368 4.661405563354492 -2.250424861907959
-3.0971105098724365 4.542132377624512 -2.250009536743164
-3.185638427734375 4.479849815368652 -2.2497963905334473
-3.2729077339172363 4.415832996368408 -2.249579906463623
-3.35888671875 4.350111484527588 -2.249359607696533
-3.5268445014953613 4.213654518127441 -2.2489094734191895
-3.8458361625671387 3.9214673042297363 -2.247971296310425
-3.9218809604644775 3.8445684909820557 -2.247729539871216
-2.38603138923645 4.579711437225342 -2.2505574226379395
-2.738074779510498 4.376347541809082 -2.249821662902832
-2.907745361328125 4.2644147872924805 -2.24943208694458
-3.0728306770324707 4.145885944366455 -2.2490286827087402
-3.153574228286743 4.084206581115723 -2.2488222122192383
-3.3113036155700684 3.956141948699951 -2.248399496078491
-3.3882298469543457 3.8898026943206787 -2.248183488845825
-3.4638257026672363 3.8219640254974365 -2.24796462059021
-3.6108922958374023 3.681899309158325 -2.24751877784729
-2.5773375034332275 4.119434833526611 -2.2492783069610596
-2.657731771469116 4.067562580108643 -2.249096393585205
-2.8153440952301025 3.9591174125671387 -2.248723268508911
-2.8925023078918457 3.9025871753692627 -2.2485318183898926
-2.9685215950012207 3.8445489406585693 -2.248337507247925
-3.043377637863159 3.7850236892700195 -2.2481400966644287
-3.1170310974121094 3.7240374088287354 -2.2479398250579834
-3.3994603157043457 3.4663188457489014 -2.2473394870758057
-3.46977162361145 3.401367664337158 -2.249095916748047
-2.198378801345825 4.024135112762451 -2.2492804527282715
-2.3547656536102295 3.9338927268981934 -2.2489535808563232
-2.507443904876709 3.8375537395477295 -2.2486140727996826
-2.582313060760498 3.78714656829834 -2.2484395503997803
-2.656168222427368 3.735274076461792 -2.2482619285583496
-2.7289769649505615 3.6819591522216797 -2.2480814456939697
-2.8007140159606934 3.6272192001342773 -2.2478981018066406
-3.143080949783325 3.3337230682373047 -2.247467041015625
-3.2994678020477295 3.2344181537628174 -2.266404151916504
-2.0030322074890137 3.8445866107940674 -2.2489535808563232
-2.1525535583496094 3.7622387409210205 -2.2486510276794434
-2.2260570526123047 3.7188689708709717 -2.248495101928711
-2.298685312271118 3.6740598678588867 -2.24833607673645
-2.5110254287719727 3.5311686992645264 -2.2478413581848145
-2.5800108909606934 3.480963706970215 -2.2477893829345703
-2.7149314880371094 3.3765556812286377 -2.2477004528045654
-2.8456859588623047 3.2669451236724854 -2.247628927230835
-2.93096661567688 3.233966588973999 -2.264211416244507
-3.158342123031616 3.220449686050415 -2.3400580883026123
-3.277730703353882 3.2131152153015137 -2.381168842315674
-1.896877408027649 3.640834331512451 -2.248508930206299
-2.0384886264801025 3.5628771781921387 -2.2482223510742188
-2.2450268268585205 3.435920238494873 -2.2479634284973145
-2.378465414047241 3.3447489738464355 -2.2478837966918945
-2.598623037338257 3.2318718433380127 -2.271336555480957
-2.7002012729644775 3.226030111312866 -2.304156541824341
-2.804680109024048 3.2198686599731445 -2.338749647140503
-3.068061351776123 3.12839412689209 -2.3999078273773193
-3.129020929336548 3.067338705062866 -2.399874448776245
-1.7992321252822876 3.453420400619507 -2.2482101917266846
-1.8668432235717773 3.4172587394714355 -2.248166084289551
-1.9335302114486694 3.3797802925109863 -2.248126268386841
-1.9998705387115479 3.340996742248535 -2.2480902671813965
-2.06523060798645 3.3009233474731445 -2.2480545043945312
-2.2058568000793457 3.2350480556488037 -2.2606303691864014
-2.295626163482666 3.228259801864624 -2.287032127380371
-2.3888609409332275 3.2230687141418457 -2.3162333965301514
-2.582486629486084 3.211818218231201 -2.379425048828125
-2.730445384979248 3.1346452236175537 -2.4000918865203857
-2.791597843170166 3.0802323818206787 -2.4000582695007324
-2.9106225967407227 2.967860698699951 -2.399993419647217
-2.968456983566284 2.9099371433258057 -2.3999617099761963
