ply
format ascii 1.0
element vertex 230
property float x
property float y
property float z
end_header
-0.16233642399311066 -16.45832061767578 2.9021928310394287
-0.16233398020267487 -16.458290100097656 2.5214450359344482
-0.16233642399311066 -16.45826530456543 2.1433160305023193
-0.16233642399311066 -16.45823860168457 1.767402172088623
-0.16233398020267487 -16.458189010620117 1.0206297636032104
-0.16233153641223907 -16.458086013793945 -0.4634477198123932
-15.093173027038574 -44.80996322631836 -2.397949457168579
-14.20938491821289 -45.10286331176758 -2.3981704711914062
-13.319860458374023 -45.377830505371094 -2.398393154144287
-10.620820045471191 -46.09799575805664 -2.3990683555603027
-8.79943561553955 -46.48912048339844 -2.399524211883545
-6.963749885559082 -46.80850601196289 -2.3999836444854736
-6.04143762588501 -46.94105529785156 -2.400214433670044
-4.189553260803223 -47.15159606933594 -2.4006779193878174
-1.3103563785552979 -44.327171325683594 -2.249000310897827
-10.444503784179688 -31.00856590270996 -2.399120569229126
-9.21682071685791 -31.39967918395996 -2.399427652359009
-8.597396850585938 -31.577098846435547 -2.399582862854004
-7.974555492401123 -31.742305755615234 -2.3997385501861572
-5.453920841217041 -32.27975845336914 -2.400369167327881
-4.817660808563232 -32.38304901123047 -2.4005284309387207
-4.179460525512695 -32.47378158569336 -2.4006881713867188
-3.5395383834838867 -32.5519905090332 -2.400848388671875
-2.8981542587280273 -32.6175422668457 -2.4010088443756104
-2.112790584564209 -30.60239028930664 -2.249173879623413
-1.5106273889541626 -30.653093338012695 -2.250278949737549
-0.90728759765625 -30.691984176635742 -2.251386880874634
-0.16233153641223907 -16.45803451538086 -1.2067958116531372
-8.443293571472168 -23.525575637817383 -2.399625539779663
-6.567509651184082 -24.121627807617188 -2.400094747543335
-6.0916428565979 -24.24744987487793 -2.4002139568328857
-5.613351821899414 -24.363893508911133 -2.4003334045410156
-3.6798460483551025 -24.734981536865234 -2.400817394256592
-2.073476552963257 -23.33610725402832 -2.249203681945801
-1.6140062808990479 -23.37789535522461 -2.249732732772827
-1.1537792682647705 -23.41202163696289 -2.2503974437713623
-0.6928368806838989 -23.437618255615234 -2.2511112689971924
-0.16233398020267487 -16.4580078125 -1.5801281929016113
-6.449699401855469 -19.148439407348633 -2.4001269340515137
-6.071699142456055 -19.2724609375 -2.400221586227417
-5.69131326675415 -19.389039993286133 -2.4003167152404785
-4.923972129821777 -19.599647521972656 -2.4005086421966553
-4.148896217346191 -19.779863357543945 -2.400702714920044
-3.758805990219116 -19.858531951904297 -2.4008002281188965
-3.36724591255188 -19.92950439453125 -2.4008982181549072
-2.9743432998657227 -19.992780685424805 -2.400996446609497
-2.0467967987060547 -18.823711395263672 -2.2491724491119385
-1.3045482635498047 -18.895524978637695 -2.2498669624328613
-0.5598363876342773 -18.93830108642578 -2.250587224960327
-0.16233398020267487 -16.457983016967773 -1.9550724029541016
-5.722477912902832 -15.94485092163086 -2.400310754776001
-5.407712459564209 -16.05495262145996 -2.4003894329071045
-5.090717792510986 -16.15883445739746 -2.4004688262939453
-4.128407955169678 -16.43283462524414 -2.400709390640259
-3.4785642623901367 -16.583738327026367 -2.400872230529785
-3.151381731033325 -16.649572372436523 -2.400954008102417
-2.823112726211548 -16.7089786529541 -2.401036262512207
-2.026003360748291 -15.741762161254883 -2.2488362789154053
-1.7157225608825684 -15.779152870178223 -2.2489137649536133
-1.4047949314117432 -15.81041431427002 -2.2489917278289795
-0.7813305258750916 -15.854567527770996 -2.249147891998291
-4.922307014465332 -13.715038299560547 -2.4005143642425537
-4.378810882568359 -13.898980140686035 -2.4006500244140625
-3.8284521102905273 -14.061406135559082 -2.400787591934204
-3.550974130630493 -14.134448051452637 -2.4008569717407227
-2.991945743560791 -14.26412582397461 -2.400996446609497
-2.7106077671051025 -14.320680618286133 -2.401066780090332
-2.4282078742980957 -14.371686935424805 -2.401137351989746
-1.8606493473052979 -14.457006454467773 -2.4012789726257324
-1.2901341915130615 -14.51991081237793 -2.4014222621917725
-0.7032372951507568 -14.269744873046875 -2.353639841079712
-0.41639646887779236 -14.086116790771484 -2.3215484619140625
-3.8380393981933594 -12.182517051696777 -2.4007861614227295
-3.597538948059082 -12.25603199005127 -2.400846242904663
-2.867971181869507 -12.447977066040039 -2.401028633117676
-2.6223974227905273 -12.502336502075195 -2.401089906692505
-2.375808000564575 -12.551877975463867 -2.401151418685913
-1.8799145221710205 -12.636327743530273 -2.401275396347046
-1.6308153867721558 -12.671220779418945 -2.4013376235961914
-1.3810571432113647 -12.70120620727539 -2.4014008045196533
-0.8800146579742432 -12.74640941619873 -2.4015283584594727
-0.6289111375808716 -12.7615966796875 -2.401592493057251
-3.8366405963897705 -10.690058708190918 -2.400787353515625
-3.6255176067352295 -10.76375961303711 -2.4008400440216064
-3.412968635559082 -10.83328628540039 -2.400893211364746
-2.7676806449890137 -11.016611099243164 -2.4010543823242188
-2.550305128097534 -11.069214820861816 -2.401108741760254
-1.8925317525863647 -11.20123291015625 -2.401273250579834
-1.6716723442077637 -11.23658275604248 -2.4013283252716064
-1.45016348361969 -11.267570495605469 -2.401383876800537
-1.2280688285827637 -11.294204711914062 -2.401440382003784
-1.0054980516433716 -11.31646728515625 -2.4014968872070312
-0.112060546875 -11.361565589904785 -2.4017250537872314
-2.6838719844818115 -9.857510566711426 -2.401076078414917
-2.489326000213623 -9.908639907836914 -2.4011247158050537
-2.293815851211548 -9.955930709838867 -2.4011735916137695
-2.0973973274230957 -9.999364852905273 -2.4012224674224854
-1.9001611471176147 -10.038928985595703 -2.4012718200683594
-1.7021825313568115 -10.074605941772461 -2.4013214111328125
-1.3043017387390137 -10.134233474731445 -2.401421546936035
-1.1045483350753784 -10.158154487609863 -2.401472330093384
-0.502978503704071 -10.206294059753418 -2.401625394821167
-3.132456064224243 -8.72797679901123 -2.4009644985198975
-2.9600658416748047 -8.788117408752441 -2.401007652282715
-2.7865233421325684 -8.844850540161133 -2.4010510444641113
-2.611894369125366 -8.898158073425293 -2.401094675064087
-2.082165479660034 -9.037328720092773 -2.4012269973754883
-1.9038745164871216 -9.076736450195312 -2.401271343231201
-1.724831461906433 -9.112627983093262 -2.4013161659240723
-1.3647997379302979 -9.173831939697266 -2.401406764984131
-1.1839452981948853 -9.199088096618652 -2.4014527797698975
-1.00262451171875 -9.220788955688477 -2.401498794555664
-0.8209057450294495 -9.238916397094727 -2.4015450477600098
-0.6388598680496216 -9.253467559814453 -2.4015915393829346
-0.45656493306159973 -9.26442813873291 -2.4016377925872803
-2.865041494369507 -7.982863426208496 -2.401031732559204
-2.5486254692077637 -8.089730262756348 -2.401110887527466
-2.388906240463257 -8.138474464416504 -2.401150703430176
-2.2282543182373047 -8.184069633483887 -2.401190996170044
-2.066723585128784 -8.226490020751953 -2.401231288909912
-1.7413183450698853 -8.301758766174316 -2.4013125896453857
-1.5775610208511353 -8.334576606750488 -2.401353359222412
-0.9170092344284058 -8.433442115783691 -2.4015212059020996
-0.750805675983429 -8.450011253356934 -2.4015634059906006
-0.5843066573143005 -8.463301658630371 -2.4016056060791016
-0.4175781011581421 -8.473316192626953 -2.4016480445861816
-0.2506762742996216 -8.480045318603516 -2.4016904830932617
-0.08367919921875 -8.483485221862793 -2.401732921600342
-2.63702392578125 -7.347548007965088 -2.4010891914367676
-2.1987743377685547 -7.490744590759277 -2.401198625564575
-1.9022338390350342 -7.571732997894287 -2.401272773742676
-1.7528173923492432 -7.607828140258789 -2.4013099670410156
-0.6910424828529358 -7.777381896972656 -2.401578903198242
-0.23072265088558197 -7.804991245269775 -2.401695966720581
-0.07701659947633743 -7.8081488609313965 -2.4017350673675537
-2.440117120742798 -6.798903465270996 -2.4011387825012207
-2.3058178424835205 -6.845718860626221 -2.401172161102295
-1.4830322265625 -7.070378303527832 -2.4013779163360596
-1.3435643911361694 -7.09832763671875 -2.4014132022857666
-0.922228991985321 -7.165565013885498 -2.401520252227783
-0.6394286751747131 -7.196534156799316 -2.401592254638672
-0.49763181805610657 -7.207835674285889 -2.401628255844116
-0.35563230514526367 -7.216347694396973 -2.4016644954681396
-0.21348875761032104 -7.22205924987793 -2.401700735092163
-2.1433568000793457 -6.36338996887207 -2.4012129306793213
-2.0176854133605957 -6.404439449310303 -2.4012444019317627
-1.7640380859375 -6.479083061218262 -2.4013078212738037
-1.6361571550369263 -6.512639999389648 -2.4013397693634033
-0.7259472608566284 -6.676313400268555 -2.4015705585479736
-0.594372570514679 -6.689405918121338 -2.401604175567627
-0.06624023616313934 -6.715809345245361 -2.401738405227661
-2.11663818359375 -5.897603511810303 -2.4012200832366943
-1.8828661441802979 -5.976508140563965 -2.401278495788574
-1.6461620330810547 -6.046144962310791 -2.4013376235961914
-1.5268261432647705 -6.077456474304199 -2.401367425918579
-1.406896948814392 -6.1064276695251465 -2.401397705078125
-1.2864208221435547 -6.133042335510254 -2.40142822265625
-0.6774365305900574 -6.230162143707275 -2.401583194732666
-0.5546483993530273 -6.242373943328857 -2.4016144275665283
-0.4316503703594208 -6.252163410186768 -2.4016456604003906
-0.3084765672683716 -6.259531021118164 -2.401677131652832
-0.06181152164936066 -6.266988277435303 -2.4017398357391357
-1.981911540031433 -5.522215366363525 -2.4012539386749268
-1.7630151510238647 -5.5960845947265625 -2.401308536529541
-1.5413720607757568 -5.661282062530518 -2.4013638496398926
-1.4296362400054932 -5.690593719482422 -2.4013919830322266
-1.3173388242721558 -5.717748165130615 -2.4014205932617188
-0.9775415062904358 -5.785709857940674 -2.4015071392059326
-0.7490283250808716 -5.81984806060791 -2.4015650749206543
-0.6343066096305847 -5.833539962768555 -2.401594400405884
-0.5193408131599426 -5.844966888427734 -2.401623487472534
-0.4041699171066284 -5.854132175445557 -2.4016528129577637
-0.28883787989616394 -5.861025333404541 -2.401682138442993
-1.861232876777649 -5.185964107513428 -2.4012842178344727
-1.7587865591049194 -5.221668720245361 -2.4013099670410156
-1.6556591987609863 -5.255342483520508 -2.4013354778289795
-1.3425829410552979 -5.344069480895996 -2.401414394378662
-1.23712158203125 -5.369536399841309 -2.4014410972595215
-1.1311815977096558 -5.392911434173584 -2.40146803855896
-1.0247949361801147 -5.4141974449157715 -2.4014952182769775
-0.9180126786231995 -5.433387756347656 -2.401522397994995
-0.7034130692481995 -5.4654388427734375 -2.4015769958496094
-0.5956786870956421 -5.478293418884277 -2.401604175567627
-0.3795532286167145 -5.497622489929199 -2.4016592502593994
-0.2712499797344208 -5.504091739654541 -2.401686906814575
-1.7524120807647705 -4.882757663726807 -2.4013116359710693
-1.461157202720642 -4.977848529815674 -2.4013843536376953
-1.3628857135772705 -5.005701065063477 -2.401409387588501
-1.2640795707702637 -5.031617641448975 -2.4014346599578857
-1.1647900342941284 -5.055582046508789 -2.4014596939086914
-1.065039038658142 -5.0775861740112305 -2.401484966278076
-0.9648779034614563 -5.097624778747559 -2.40151047706604
-0.7634570002555847 -5.131770133972168 -2.401561737060547
-0.4591943323612213 -5.168056011199951 -2.401639223098755
-0.25539061427116394 -5.182240009307861 -2.40169095993042
-1.653688907623291 -4.607696533203125 -2.401336431503296
-1.3788403272628784 -4.697412490844727 -2.4014053344726562
-1.0991649627685547 -4.770758628845215 -2.4014766216278076
-0.9105151295661926 -4.810429573059082 -2.401524543762207
-0.8156371712684631 -4.82747220993042 -2.4015486240386963
-0.529248058795929 -4.8673505783081055 -2.4016215801239014
-0.4333227574825287 -4.8768768310546875 -2.4016458988189697
-0.3372265696525574 -4.884511470794678 -2.401670217514038
-0.2409960925579071 -4.890255451202393 -2.4016947746276855
-0.14467285573482513 -4.894100189208984 -2.401719331741333
-0.04829101637005806 -4.896049499511719 -2.4017438888549805
-1.563635230064392 -4.356778144836426 -2.4013590812683105
-1.4775707721710205 -4.38674783706665 -2.4013805389404297
-0.9503002762794495 -4.530572414398193 -2.4015145301818848
-0.7712182402610779 -4.564558982849121 -2.401560068130493
-0.50042724609375 -4.60225772857666 -2.4016289710998535
-0.3188574016094208 -4.6184797286987305 -2.401675224304199
-1.3995531797409058 -4.155118942260742 -2.401400327682495
-0.984423816204071 -4.272746562957764 -2.401505947113037
-0.8154687285423279 -4.30826473236084 -2.4015491008758545
-0.7304931282997131 -4.323523998260498 -2.4015707969665527
-0.6452343463897705 -4.3371076583862305 -2.401592254638672
-0.4739990234375 -4.359226226806641 -2.4016358852386475
-0.3880908191204071 -4.367750644683838 -2.4016575813293457
-0.30202147364616394 -4.37458610534668 -2.401679515838623
-0.12957030534744263 -4.383164405822754 -2.4017233848571777
-1.4050341844558716 -3.9148483276367188 -2.4013991355895996
-1.2498462200164795 -3.9671947956085205 -2.4014387130737305
-0.7735912799835205 -4.087055683135986 -2.401559829711914
-0.6929858326911926 -4.101530075073242 -2.401580333709717
-0.6121044754981995 -4.114413738250732 -2.4016008377075195
-0.28651610016822815 -4.149960041046143 -2.4016835689544678
-0.20475341379642487 -4.154831409454346 -2.4017045497894287
-0.12291748076677322 -4.158095836639404 -2.4017252922058105
-0.04103027284145355 -4.1597442626953125 -2.4017462730407715
