ply
format ascii 1.0
element vertex 237
property float x
property float y
property float z
end_header
-31.814794540405273 -10.88421630859375 5.929014682769775
-31.759105682373047 -11.582756996154785 5.960794925689697
-31.737714767456055 -14.55782413482666 5.34912633895874
-31.69110107421875 -15.314193725585938 5.392035007476807
-31.69121742248535 -15.314236640930176 4.583470344543457
-31.65167236328125 -15.295136451721191 2.9758453369140625
-31.691741943359375 -15.314496994018555 0.5944123864173889
-31.69185447692871 -15.31454086303711 -0.1984310895204544
-46.65586853027344 -6.996892929077148 -2.3925774097442627
-46.5064697265625 -7.932633399963379 -2.392605781555176
-46.338558197021484 -8.865230560302734 -2.3926379680633545
-46.15176010131836 -9.79426097869873 -2.3926737308502197
-45.94639587402344 -10.719372749328613 -2.3927133083343506
-45.48063278198242 -12.556452751159668 -2.3928029537200928
-42.60595703125 -12.68896484375 -2.2545018196105957
-42.10426712036133 -13.466017723083496 -2.2418301105499268
-41.44622039794922 -15.115739822387695 -2.237344264984131
-41.14578628540039 -15.949541091918945 -2.237964391708374
-40.820438385009766 -16.77405548095703 -2.2381398677825928
-40.477386474609375 -17.591440200805664 -2.2382595539093018
-38.94700622558594 -20.789674758911133 -2.2389509677886963
-32.30833435058594 -4.844685077667236 -2.39540696144104
-31.95879364013672 -6.782417297363281 -2.3954737186431885
-31.81649398803711 -7.422841548919678 -2.395501136779785
-31.493526458740234 -8.694853782653809 -2.3955633640289307
-31.313058853149414 -9.325770378112793 -2.3955981731414795
-30.91421890258789 -10.576123237609863 -2.3956751823425293
-30.465620040893555 -11.809662818908691 -2.395761728286743
-29.700979232788086 -13.62358570098877 -2.3959062099456787
-29.4219970703125 -14.217681884765625 -2.3959577083587646
-28.82853889465332 -15.38850212097168 -2.3960673809051514
-28.51438331604004 -15.964826583862305 -2.396127462387085
-24.522069931030273 -4.691429138183594 -2.39693284034729
-24.423051834106445 -5.1830291748046875 -2.396951913833618
-24.31423568725586 -5.672557830810547 -2.39697265625
-24.06728744506836 -6.644575595855713 -2.397020101547241
-23.624393463134766 -8.082246780395508 -2.3971056938171387
-23.45753288269043 -8.555126190185547 -2.39713716506958
-23.281322479248047 -9.024650573730469 -2.3971714973449707
-23.095714569091797 -9.490557670593262 -2.397207498550415
-22.900819778442383 -9.95266342163086 -2.397245168685913
-22.69667625427246 -10.410768508911133 -2.397284984588623
-22.48338508605957 -10.864713668823242 -2.3973262310028076
-22.02972412109375 -11.7593355178833 -2.3974146842956543
-19.898845672607422 -3.394155263900757 -2.3978428840637207
-19.82677459716797 -3.7931480407714844 -2.3978567123413086
-19.562774658203125 -4.980355262756348 -2.397907257080078
-19.4589786529541 -5.372308254241943 -2.3979272842407227
-19.347326278686523 -5.762094497680664 -2.397948741912842
-19.100690841674805 -6.534577369689941 -2.397996425628662
-18.96580696105957 -6.916954040527344 -2.398022413253784
-18.82326316833496 -7.296555519104004 -2.39805006980896
-18.67314910888672 -7.673225402832031 -2.3980791568756104
-18.51551055908203 -8.046817779541016 -2.3981099128723145
-18.35040283203125 -8.4171724319458 -2.398141860961914
-18.177898406982422 -8.784158706665039 -2.3981752395629883
-17.61672019958496 -9.863359451293945 -2.398284435272217
-16.74044418334961 -2.5105342864990234 -2.3984649181365967
-16.686716079711914 -2.846262216567993 -2.398475170135498
-16.626251220703125 -3.1808390617370605 -2.398486614227295
-16.559093475341797 -3.5141475200653076 -2.3984994888305664
-16.485294342041016 -3.846050262451172 -2.3985135555267334
-16.404823303222656 -4.176392555236816 -2.398529052734375
-16.017221450805664 -5.479682445526123 -2.398603916168213
-15.904081344604492 -5.800325393676758 -2.3986258506774902
-15.092385292053223 -7.6707916259765625 -2.3987834453582764
-14.772526741027832 -8.270936012268066 -2.398845672607422
-14.354684829711914 -2.4484896659851074 -2.3989343643188477
-14.30267333984375 -2.736311674118042 -2.398944139480591
-14.24489688873291 -3.0230324268341064 -2.3989551067352295
-14.181381225585938 -3.308537721633911 -2.3989672660827637
-14.037226676940918 -3.8754515647888184 -2.3989951610565186
-13.778654098510742 -4.713845729827881 -2.399044990539551
-13.681320190429688 -4.9896721839904785 -2.3990638256073
-13.578458786010742 -5.263482093811035 -2.3990838527679443
-13.470121383666992 -5.535184383392334 -2.3991048336029053
-13.356359481811523 -5.804659843444824 -2.3991267681121826
-12.982951164245605 -6.59865665435791 -2.3991994857788086
-12.847936630249023 -6.858154296875 -2.3992257118225098
-12.707751274108887 -7.114897727966309 -2.3992531299591064
-12.623598098754883 -1.8931344747543335 -2.399275302886963
-12.5374755859375 -2.3986010551452637 -2.399291515350342
-12.486818313598633 -2.6499321460723877 -2.399301290512085
-12.158539772033691 -3.8886125087738037 -2.399364471435547
-11.992719650268555 -4.3738274574279785 -2.3993966579437256
-11.902545928955078 -4.613917827606201 -2.3994140625
-11.807562828063965 -4.852022171020508 -2.399432420730591
-11.707831382751465 -5.088183879852295 -2.399451732635498
-11.603378295898438 -5.3223490715026855 -2.399472236633301
-11.494233131408691 -5.554442405700684 -2.399493455886841
-11.38046646118164 -5.78441858291626 -2.3995161056518555
-11.262113571166992 -6.011651992797852 -2.3995394706726074
-11.139216423034668 -6.236690998077393 -2.399564266204834
-11.226301193237305 -1.6835873126983643 -2.3995513916015625
-11.104655265808105 -2.356614828109741 -2.3995752334594727
-11.055124282836914 -2.579178810119629 -2.399585008621216
-11.001139640808105 -2.800708293914795 -2.3995954990386963
-10.879887580871582 -3.240285873413086 -2.3996193408966064
-10.8126802444458 -3.4581737518310547 -2.399632692337036
-10.74111270904541 -3.6746647357940674 -2.399646759033203
-10.585000038146973 -4.103115558624268 -2.3996777534484863
-10.411826133728027 -4.52496862411499 -2.399712085723877
-10.120683670043945 -5.143894672393799 -2.3997702598571777
-10.01541519165039 -5.346172332763672 -2.3997910022735596
-9.906105995178223 -5.54629373550415 -2.399812936782837
-10.097895622253418 -1.5143667459487915 -2.3997786045074463
-10.065475463867188 -1.7168731689453125 -2.399784803390503
-9.98846435546875 -2.1197402477264404 -2.3997998237609863
-9.895353317260742 -2.519192695617676 -2.399818181991577
-9.786283493041992 -2.9145872592926025 -2.3998396396636963
-9.725825309753418 -3.110565185546875 -2.3998515605926514
-9.6614351272583 -3.3052966594696045 -2.399864435195923
-9.593156814575195 -3.498692512512207 -2.3998780250549316
-9.521013259887695 -3.6906707286834717 -2.3998923301696777
-9.365239143371582 -4.070122718811035 -2.399923086166382
-9.194345474243164 -4.4430131912231445 -2.3999571800231934
-8.910307884216309 -4.988760948181152 -2.4000136852264404
-9.137274742126465 -1.5585507154464722 -2.3999717235565186
-9.10414981842041 -1.7417569160461426 -2.3999781608581543
-9.067353248596191 -1.9242620468139648 -2.3999855518341064
-8.982831954956055 -2.286884069442749 -2.4000020027160645
-8.883808135986328 -2.6458139419555664 -2.400021553039551
-8.708486557006836 -3.176042318344116 -2.4000563621520996
-8.57399845123291 -3.523261547088623 -2.400083065032959
-8.346420288085938 -4.033268451690674 -2.4001288414001465
-8.263789176940918 -4.200115203857422 -2.4001452922821045
-8.17782211303711 -4.365276336669922 -2.4001622200012207
-8.32723617553711 -1.5931203365325928 -2.400134563446045
-8.216254234313965 -2.091731309890747 -2.400156259536743
-8.125678062438965 -2.4200026988983154 -2.400174140930176
-8.075469017028809 -2.5827412605285645 -2.400184392929077
-7.965302467346191 -2.9050018787384033 -2.4002058506011963
-7.634120941162109 -3.6890599727630615 -2.4002702236175537
-7.558535099029541 -3.841665267944336 -2.400285005569458
-7.717416763305664 -1.1573662757873535 -2.400256633758545
-7.664741039276123 -1.4663769006729126 -2.400266408920288
-7.633759498596191 -1.6200262308120728 -2.4002723693847656
-7.479213714599609 -2.2274892330169678 -2.4003024101257324
-7.432997703552246 -2.3772616386413574 -2.400311231613159
-7.331596374511719 -2.673879861831665 -2.4003310203552246
-7.218354225158691 -2.966188907623291 -2.400352954864502
-6.884785175323486 -3.675055503845215 -2.4004178047180176
-7.118412971496582 -1.2141921520233154 -2.4003746509552
-7.063935279846191 -1.499098777770996 -2.4003849029541016
-7.032421588897705 -1.6406770944595337 -2.400391101837158
-6.998071193695068 -1.7815908193588257 -2.400397539138794
-6.960893630981445 -1.9217901229858398 -2.400404691696167
-6.920917987823486 -2.061211109161377 -2.4004125595092773
-6.679526329040527 -2.74476957321167 -2.4004592895507812
-6.56396484375 -3.0108368396759033 -2.400481700897217
-6.301283836364746 -3.5280003547668457 -2.4005331993103027
-6.593037128448486 -1.2613449096679688 -2.400477886199951
-6.566386699676514 -1.393507957458496 -2.4004831314086914
-6.537089824676514 -1.5251150131225586 -2.4004886150360107
-6.393681526184082 -2.0448622703552246 -2.4005165100097656
-6.351337909698486 -2.172870397567749 -2.400524616241455
-6.306440353393555 -2.3000011444091797 -2.400533437728882
-6.259003639221191 -2.4262073040008545 -2.4005424976348877
-6.156567096710205 -2.6756365299224854 -2.4005625247955322
-6.044198989868164 -2.920754909515381 -2.4005844593048096
-6.194926738739014 -0.9290417432785034 -2.400556802749634
-6.175034046173096 -1.0532788038253784 -2.4005606174468994
-6.127768516540527 -1.30042564868927 -2.400569438934326
-6.100429534912109 -1.4232406616210938 -2.4005749225616455
-6.070629596710205 -1.545479655265808 -2.400580644607544
-6.038378715515137 -1.6670986413955688 -2.4005868434906006
-5.640444278717041 -2.725646495819092 -2.4006640911102295
-5.761113166809082 -1.1021838188171387 -2.400641918182373
-5.712221622467041 -1.332672119140625 -2.400651454925537
-5.654120922088623 -1.5610101222991943 -2.400662660598755
-5.621640682220459 -1.674257516860962 -2.4006688594818115
-5.586899280548096 -1.7868322134017944 -2.4006757736206055
-5.549897193908691 -1.8986873626708984 -2.4006829261779785
-5.510668754577637 -2.0097756385803223 -2.4006903171539307
-5.425541877746582 -2.229477882385254 -2.4007070064544678
-5.379692077636719 -2.3380072116851807 -2.4007158279418945
-5.229194164276123 -2.657766342163086 -2.400745153427124
-5.118281364440918 -2.8656578063964844 -2.4007668495178223
-5.430097579956055 -0.9262139797210693 -2.400707483291626
-5.410409927368164 -1.035089373588562 -2.4007112979888916
-5.388535022735596 -1.1435472965240479 -2.4007153511047363
-5.33828592300415 -1.3590383529663086 -2.4007251262664795
-5.246791839599609 -1.67805814743042 -2.400743007659912
-5.136264324188232 -1.9909945726394653 -2.400764226913452
-5.095258712768555 -2.093757390975952 -2.4007720947265625
-5.052192211151123 -2.1956799030303955 -2.40078067779541
-5.007099628448486 -2.2967145442962646 -2.400789499282837
-4.959975242614746 -2.3968265056610107 -2.4007985591888428
-4.910859107971191 -2.495969772338867 -2.400808095932007
-5.094155311584473 -0.9745846390724182 -2.400773763656616
-5.073569297790527 -1.0767037868499756 -2.400777578353882
-5.026249885559082 -1.279599905014038 -2.4007866382598877
-4.999545574188232 -1.3802932500839233 -2.400791883468628
-4.970820426940918 -1.4804306030273438 -2.4007973670959473
-4.907382488250732 -1.6788760423660278 -2.4008097648620605
-4.872690200805664 -1.7771029472351074 -2.4008164405822754
-4.836030006408691 -1.8746123313903809 -2.4008235931396484
-4.797416687011719 -1.971371054649353 -2.4008309841156006
-4.714414119720459 -2.162461519241333 -2.4008471965789795
-4.670048713684082 -2.2567195892333984 -2.400855779647827
-4.623784065246582 -2.3500707149505615 -2.400864839553833
-4.525717735290527 -2.533888816833496 -2.4008841514587402
-4.840288162231445 -0.7258886694908142 -2.4008238315582275
-4.787807464599609 -1.0160622596740723 -2.400834083557129
-4.766440391540527 -1.1120193004608154 -2.4008381366729736
-4.743159294128418 -1.2075271606445312 -2.4008424282073975
-4.717954158782959 -1.3025493621826172 -2.4008474349975586
-4.661855220794678 -1.4909822940826416 -2.400858163833618
-4.630986213684082 -1.5843157768249512 -2.4008641242980957
-4.563652038574219 -1.7690279483795166 -2.4008772373199463
-4.488945007324219 -1.9508931636810303 -2.4008917808532715
-4.407006740570068 -2.129610300064087 -2.4009077548980713
-4.270820140838623 -2.3911681175231934 -2.4009344577789307
-4.576752662658691 -0.6863659620285034 -2.400876045227051
-4.545507907867432 -0.8696200251579285 -2.4008820056915283
-4.43545389175415 -1.320984125137329 -2.4009032249450684
-4.378837585449219 -1.498055338859558 -2.400914192199707
-4.347880840301514 -1.5857006311416626 -2.4009201526641846
-4.315175533294678 -1.6727099418640137 -2.400926351547241
-4.280722618103027 -1.759045124053955 -2.400933265686035
-4.125785827636719 -2.096952199935913 -2.400963306427002
-4.082851409912109 -2.17940092086792 -2.4009716510772705
-4.269003868103027 -0.9959652423858643 -2.4009361267089844
-4.225566387176514 -1.166611909866333 -2.400944709777832
-4.087363243103027 -1.5844042301177979 -2.4009714126586914
-4.020458698272705 -1.7472872734069824 -2.400984525680542
-3.9470653533935547 -1.907353162765503 -2.400998592376709
-3.8250732421875 -2.1416103839874268 -2.401022434234619
-4.09939432144165 -0.6992367506027222 -2.400969982147217
-4.030077934265137 -1.0259902477264404 -2.4009833335876465
-3.9856345653533936 -1.1870172023773193 -2.400991916656494
-3.9069433212280273 -1.4248888492584229 -2.4010071754455566
-3.8775486946105957 -1.5030721426010132 -2.401012897491455
-3.8465819358825684 -1.580649971961975 -2.4010188579559326
-3.814077138900757 -1.657593011856079 -2.4010252952575684
-3.7073583602905273 -1.8842885494232178 -2.40104603767395
-3.628715753555298 -2.0316720008850098 -2.4010612964630127
