ply
format ascii 1.0
element vertex 221
property float x
property float y
property float z
end_header
-28.043325424194336 -33.98463439941406 -2.234530210494995
-27.4077091217041 -34.623600006103516 -2.239468574523926
-26.00012969970703 -35.73743438720703 -2.2412989139556885
-23.80538558959961 -37.30152893066406 -2.244126319885254
-23.052812576293945 -37.79376220703125 -2.245095729827881
-22.289743423461914 -38.27029800415039 -2.246046304702759
-21.515865325927734 -38.72967529296875 -2.24688982963562
-20.73267936706543 -39.1737060546875 -2.247746467590332
-19.940441131591797 -39.60207748413086 -2.2486157417297363
-17.185699462890625 -42.38543701171875 -2.3195152282714844
-16.86904525756836 -44.159873962402344 -2.397373676300049
-20.4584903717041 -22.836254119873047 -2.2480673789978027
-19.988527297973633 -23.244916915893555 -2.2478585243225098
-19.016054153442383 -24.0225830078125 -2.246453285217285
-18.518230438232422 -24.39603042602539 -2.2457289695739746
-17.6342716217041 -25.303314208984375 -2.26139760017395
-17.600799560546875 -26.38193130493164 -2.3253583908081055
-17.564769744873047 -27.52290916442871 -2.393981456756592
-17.02606201171875 -27.913278579711914 -2.397350788116455
-15.880244255065918 -28.58525276184082 -2.397644281387329
-15.297289848327637 -28.903690338134766 -2.397793769836426
-14.112509727478027 -29.50489616394043 -2.398097276687622
-12.904179573059082 -30.05763053894043 -2.398406982421875
-15.501315116882324 -19.582500457763672 -2.3977510929107666
-13.438886642456055 -21.057905197143555 -2.3982791900634766
-12.573691368103027 -21.588359832763672 -2.398500680923462
-11.687604904174805 -22.083343505859375 -2.3987278938293457
-11.237165451049805 -22.31723403930664 -2.398843288421631
-8.918681144714355 -23.34737777709961 -2.399437427520752
-13.472189903259277 -15.037824630737305 -2.3982787132263184
-12.208818435668945 -16.08382225036621 -2.3986003398895264
-11.8799409866333 -16.329036712646484 -2.398684501647949
-11.546208381652832 -16.56757926940918 -2.3987698554992676
-10.516928672790527 -17.241907119750977 -2.399033546447754
-10.164831161499023 -17.45263671875 -2.3991236686706543
-9.808991432189941 -17.656171798706055 -2.39921498298645
-9.448495864868164 -17.852449417114258 -2.3993072509765625
-8.34460163116455 -18.39691925048828 -2.399590015411377
-7.969521522521973 -18.56336212158203 -2.399686336517334
-7.591127872467041 -18.72216033935547 -2.3997833728790283
-7.209572792053223 -18.87324333190918 -2.39988112449646
-10.237428665161133 -13.48684024810791 -2.399113893508911
-9.961662292480469 -13.692408561706543 -2.399184226989746
-9.397894859313965 -14.086549758911133 -2.3993284702301025
-9.110107421875 -14.274965286254883 -2.399401903152466
-8.818339347839355 -14.457511901855469 -2.399475574493408
-8.224626541137695 -14.8046875 -2.3996264934539795
-7.922429084777832 -14.969164848327637 -2.3997035026550293
-7.617089748382568 -15.127493858337402 -2.3997814655303955
-7.308383464813232 -15.279586791992188 -2.399860382080078
-9.495898246765137 -11.042909622192383 -2.399306535720825
-9.269855499267578 -11.233778953552246 -2.399364471435547
-9.039987564086914 -11.420031547546387 -2.399423122406006
-8.806381225585938 -11.601574897766113 -2.3994827270507812
-8.569132804870605 -11.778366088867188 -2.399543285369873
-8.084094047546387 -12.117301940917969 -2.399667501449585
-7.074704647064209 -12.734838485717773 -2.399925470352173
-6.814765453338623 -12.876269340515137 -2.399991989135742
-6.551994323730469 -13.01239013671875 -2.400059223175049
-5.747839450836182 -13.38841724395752 -2.4002649784088135
-5.199628829956055 -13.611629486083984 -2.4004054069519043
-8.323786735534668 -9.679831504821777 -2.399608612060547
-8.125617027282715 -9.847116470336914 -2.3996591567993164
-7.511313438415527 -10.324377059936523 -2.3998162746429443
-7.300221920013428 -10.475043296813965 -2.3998701572418213
-7.086108207702637 -10.621414184570312 -2.3999247550964355
-6.869067192077637 -10.763407707214355 -2.399980306625366
-6.649177074432373 -10.900961875915527 -2.400036573410034
-6.20123291015625 -11.162555694580078 -2.400151252746582
-5.973371505737305 -11.286490440368652 -2.400209426879883
-5.743027210235596 -11.405771255493164 -2.400268316268921
-5.510307312011719 -11.520355224609375 -2.4003279209136963
-5.275302410125732 -11.63019847869873 -2.400388240814209
-4.798832893371582 -11.835458755493164 -2.40051007270813
-6.864696979522705 -9.043600082397461 -2.3999834060668945
-6.679718971252441 -9.181340217590332 -2.4000306129455566
-6.301559925079346 -9.44544506072998 -2.400127410888672
-5.107104301452637 -10.142810821533203 -2.400432825088501
-4.900136470794678 -10.244674682617188 -2.4004857540130615
-6.813957214355469 -7.605903625488281 -2.3999979496002197
-6.008183479309082 -8.258304595947266 -2.4002037048339844
-5.839306354522705 -8.378789901733398 -2.400247097015381
-5.318479061126709 -8.719346046447754 -2.4003801345825195
-4.960131645202637 -8.928497314453125 -2.4004719257354736
-4.407416820526123 -9.214556694030762 -2.400613307952881
-4.219428539276123 -9.30236530303955 -2.4006614685058594
-4.029689788818359 -9.386343002319336 -2.400709867477417
-5.90017557144165 -7.1501946449279785 -2.4002327919006348
-5.753815650939941 -7.268677711486816 -2.4002702236175537
-5.605075359344482 -7.3841705322265625 -2.400308132171631
-5.454023361206055 -7.496613502502441 -2.4003467559814453
-5.300715446472168 -7.6059746742248535 -2.400386095046997
-4.987590312957764 -7.815247535705566 -2.400466203689575
-4.827900409698486 -7.91507625579834 -2.4005067348480225
-4.502594947814941 -8.104915618896484 -2.400589942932129
-4.169843673706055 -8.281399726867676 -2.400675058364868
-4.000839710235596 -8.364538192749023 -2.4007184505462646
-3.8301877975463867 -8.444229125976562 -2.4007620811462402
-3.657951593399048 -8.5204439163208 -2.400806188583374
-3.48419189453125 -8.593141555786133 -2.400850534439087
-3.3089940547943115 -8.662307739257812 -2.400895595550537
-5.657631874084473 -6.31519079208374 -2.4002957344055176
-5.528271198272705 -6.428893089294434 -2.4003288745880127
-4.988523006439209 -6.856775283813477 -2.4004669189453125
-4.561877250671387 -7.148180961608887 -2.400575876235962
-4.415812969207764 -7.239482402801514 -2.400613307952881
-4.267917156219482 -7.327794551849365 -2.400650978088379
-4.118261814117432 -7.413091659545898 -2.4006893634796143
-3.9668993949890137 -7.495331764221191 -2.4007279872894287
-3.659318685531616 -7.650517463684082 -2.4008069038391113
-3.3456835746765137 -7.7930908203125 -2.4008870124816895
-3.186760187149048 -7.859576225280762 -2.400927782058716
-5.207495212554932 -5.8127360343933105 -2.40041184425354
-4.718771934509277 -6.216543674468994 -2.4005367755889893
-4.591594219207764 -6.311196804046631 -2.400569200515747
-4.331593990325928 -6.492653846740723 -2.4006357192993164
-4.19888162612915 -6.57939338684082 -2.400669574737549
-3.9283056259155273 -6.744697093963623 -2.4007387161254883
-3.7905516624450684 -6.8231964111328125 -2.4007740020751953
-3.6512303352355957 -6.898886680603027 -2.4008097648620605
-3.3681225776672363 -7.041704177856445 -2.4008820056915283
-3.0794310569763184 -7.172911643981934 -2.40095591545105
-2.9331469535827637 -7.234090328216553 -2.4009933471679688
-4.818752288818359 -5.378813743591309 -2.4005119800567627
-4.596418380737305 -5.57021951675415 -2.400568723678589
-4.248805999755859 -5.840028762817383 -2.4006576538085938
-4.129364967346191 -5.925204277038574 -2.4006881713867188
-3.8854002952575684 -6.088191986083984 -2.4007506370544434
-2.7141380310058594 -6.693939685821533 -2.401050090789795
-2.577648878097534 -6.747790813446045 -2.401085138320923
-4.376889705657959 -5.089943885803223 -2.400625467300415
-4.272646427154541 -5.177854537963867 -2.4006521701812744
-4.058908462524414 -5.347238540649414 -2.4007067680358887
-3.611689329147339 -5.659302711486816 -2.4008212089538574
-3.496037483215332 -5.731564998626709 -2.400850772857666
-3.1406030654907227 -5.9340667724609375 -2.4009416103363037
-2.8970701694488525 -6.056885719299316 -2.4010040760040283
-2.7734813690185547 -6.114559650421143 -2.4010355472564697
-2.648747444152832 -6.169717788696289 -2.4010674953460693
-2.5229175090789795 -6.222327709197998 -2.401099681854248
-4.180097579956055 -4.665931701660156 -2.4006764888763428
-3.7877585887908936 -4.990020751953125 -2.4007768630981445
-3.685659170150757 -5.065983295440674 -2.4008028507232666
-3.476940870285034 -5.211610794067383 -2.4008562564849854
-3.3704028129577637 -5.281221866607666 -2.400883436203003
-3.2624731063842773 -5.348649978637695 -2.4009110927581787
-3.153193235397339 -5.413881301879883 -2.4009389877319336
-3.042617082595825 -5.476874828338623 -2.4009671211242676
-2.8177270889282227 -5.596065998077393 -2.40102481842041
-2.7035131454467773 -5.652215480804443 -2.4010539054870605
-2.5881786346435547 -5.706029415130615 -2.401083469390869
-3.914079427719116 -4.368997097015381 -2.400744915008545
-3.6408348083496094 -4.599396228790283 -2.400815010070801
-3.4510984420776367 -4.743570327758789 -2.4008631706237793
-3.354067325592041 -4.812740802764893 -2.400888204574585
-3.2556543350219727 -4.8799262046813965 -2.4009132385253906
-2.8489646911621094 -5.128290176391602 -2.401017189025879
-2.638381242752075 -5.239888668060303 -2.401071071624756
-2.093630313873291 -5.480715274810791 -2.4012105464935303
-3.6758008003234863 -4.103023529052734 -2.400806427001953
-3.591728448867798 -4.176876544952393 -2.4008278846740723
-3.419184446334839 -4.319390296936035 -2.400871992111206
-3.057448625564575 -4.582830905914307 -2.4009644985198975
-2.963762044906616 -4.644032955169678 -2.4009883403778076
-2.6755077838897705 -4.816060543060303 -2.40106201171875
-2.4777464866638184 -4.920857906341553 -2.4011127948760986
-2.377309560775757 -4.9702253341674805 -2.4011383056640625
-2.275886297225952 -5.017539978027344 -2.4011642932891846
-1.966152310371399 -5.147003173828125 -2.4012436866760254
-3.381777286529541 -3.93271541595459 -2.4008820056915283
-3.301223039627075 -4.000628471374512 -2.400902509689331
-3.219311475753784 -4.066893100738525 -2.400923490524292
-3.0515332221984863 -4.19436502456665 -2.4009664058685303
-2.9657373428344727 -4.25552225112915 -2.4009883403778076
-2.878710985183716 -4.314924716949463 -2.401010513305664
-2.7904980182647705 -4.372546195983887 -2.4010331630706787
-2.7011375427246094 -4.4283671379089355 -2.4010560512542725
-2.2383251190185547 -4.679649353027344 -2.401174306869507
-2.142834424972534 -4.7241973876953125 -2.4011988639831543
-3.265995979309082 -3.6455869674682617 -2.400912046432495
-3.1152782440185547 -3.77528977394104 -2.4009506702423096
-3.037978410720825 -3.837820053100586 -2.400970220565796
-2.959423780441284 -3.8987677097320557 -2.4009904861450195
-2.879645824432373 -3.9581072330474854 -2.401010751724243
-2.7986814975738525 -4.015815258026123 -2.401031494140625
-2.633315324783325 -4.126245498657227 -2.401073694229126
-2.5489819049835205 -4.178919792175293 -2.401095151901245
-2.4635961055755615 -4.229869842529297 -2.4011170864105225
-2.377192258834839 -4.279078483581543 -2.401139259338379
-2.201474666595459 -4.37217903137207 -2.40118408203125
-2.0221190452575684 -4.458070755004883 -2.4012298583984375
-1.9311717748641968 -4.498269557952881 -2.4012532234191895
-1.8394237756729126 -4.536610126495361 -2.4012768268585205
-1.7469115257263184 -4.573081016540527 -2.4013004302978516
-2.9456567764282227 -3.569728374481201 -2.400994300842285
-2.872560977935791 -3.6288530826568604 -2.401012897491455
-2.646289110183716 -3.797153949737549 -2.4010705947875977
-2.3294506072998047 -3.999542713165283 -2.401151657104492
-2.081598997116089 -4.134094715118408 -2.401215076446533
-1.9120043516159058 -4.215304851531982 -2.4012584686279297
-1.8260058164596558 -4.253312587738037 -2.401280403137207
-1.7392553091049194 -4.289564609527588 -2.4013028144836426
-2.858225107192993 -3.323873281478882 -2.4010169506073
-2.7209081649780273 -3.4372689723968506 -2.4010519981384277
-2.6505467891693115 -3.4918529987335205 -2.4010698795318604
-2.4330272674560547 -3.6468772888183594 -2.40112566947937
-2.1290698051452637 -3.832444906234741 -2.401203155517578
-1.5645678043365479 -4.095733642578125 -2.4013476371765137
-2.774973154067993 -3.09749436378479 -2.401038408279419
-2.711501359939575 -3.153242826461792 -2.401054620742798
-2.64691162109375 -3.207691192626953 -2.401071310043335
-2.581228017807007 -3.2608158588409424 -2.401087999343872
-2.514475107192993 -3.3125953674316406 -2.4011049270629883
-2.4466917514801025 -3.363009452819824 -2.4011223316192627
-2.3778979778289795 -3.4120378494262695 -2.401139974594116
-2.308122396469116 -3.459660291671753 -2.401157855987549
-2.1657323837280273 -3.5506041049957275 -2.4011943340301514
-2.0931835174560547 -3.5938901901245117 -2.401212692260742
-1.9455199241638184 -3.675997734069824 -2.4012506008148193
-1.562841773033142 -3.85447096824646 -2.40134859085083
-1.4842382669448853 -3.8854527473449707 -2.4013686180114746
