ply
format ascii 1.0
element vertex 851
property float x
property float y
property float z
end_header
25.920995712280273 20.94491958618164 0.5629321336746216
29.81511688232422 25.09378433227539 0.6582663059234619
22.856473922729492 21.7082462310791 0.5324758887290955
22.392791748046875 22.13652801513672 0.5318844318389893
29.814998626708984 31.9310245513916 0.7379491925239563
29.814979553222656 33.23977279663086 0.7542544603347778
29.814950942993164 34.60828399658203 0.7716201543807983
29.795310974121094 36.018131256103516 0.7896087765693665
29.76429557800293 37.48274230957031 0.8084942698478699
29.75786018371582 39.054019927978516 0.8293792605400085
42.9587287902832 4.28731107711792 -0.24306625127792358
36.292724609375 4.356878757476807 -0.20580260455608368
31.032743453979492 4.356789588928223 -0.17643417418003082
29.815399169921875 5.40985631942749 -0.1706077605485916
29.81538963317871 6.028280735015869 -0.1712600737810135
29.81536102294922 7.280758380889893 -0.17279906570911407
29.815351486206055 7.915970802307129 -0.17368240654468536
29.81534194946289 8.557964324951172 -0.1746433973312378
29.815330505371094 9.207375526428223 -0.1756884753704071
29.815292358398438 11.206823348999023 -0.17933334410190582
29.815282821655273 11.89279556274414 -0.18072448670864105
29.81525230407715 13.298684120178223 -0.18380461633205414
29.815242767333984 14.020336151123047 -0.18549728393554688
29.815195083618164 16.2716064453125 -0.19123321771621704
29.81516456604004 17.855234146118164 -0.19566710293293
29.815107345581055 21.2674503326416 -0.20619536936283112
29.815086364746094 22.18052864074707 -0.20922362804412842
29.751922607421875 23.072208404541016 -0.21197661757469177
29.815019607543945 26.13027572631836 -0.22321105003356934
29.814998626708984 27.20380973815918 -0.2272351086139679
29.814823150634766 36.0417366027832 -0.26335158944129944
29.785654067993164 39.09051513671875 -0.2766728103160858
36.29273223876953 4.356877326965332 -1.0292640924453735
29.81534194946289 4.795895099639893 -0.8503279089927673
29.81532096862793 6.028266906738281 -0.8565243482589722
29.8153018951416 6.651712894439697 -0.8601742386817932
29.815282821655273 7.915952682495117 -0.8686213493347168
29.81525230407715 9.207352638244629 -0.8786510825157166
29.81523323059082 10.531071662902832 -0.8903635740280151
29.815223693847656 11.206799507141113 -0.896881103515625
29.815195083618164 12.589767456054688 -0.911310076713562
29.815176010131836 13.298649787902832 -0.9192599058151245
29.81516456604004 14.020302772521973 -0.927719235420227
29.8150577545166 19.516584396362305 -1.0033984184265137
29.79212760925293 20.364362716674805 -1.0161346197128296
29.81502914428711 21.26739501953125 -1.0312199592590332
29.81500816345215 22.180461883544922 -1.046359658241272
29.751853942871094 23.072153091430664 -1.0601195096969604
29.81494140625 25.0936222076416 -1.0972989797592163
29.814931869506836 26.130205154418945 -1.1163181066513062
29.81490135192871 27.20372772216797 -1.1364631652832031
29.814882278442383 28.317167282104492 -1.1578339338302612
29.814775466918945 33.23954391479492 -1.2573059797286987
29.81474494934082 34.6080207824707 -1.2862392663955688
29.785634994506836 39.09048080444336 -1.3838207721710205
47.0356330871582 -2.8524067401885986 -2.3897533416748047
47.11217498779297 -0.968719482421875 -2.3897628784179688
47.12222671508789 -0.026115722954273224 -2.3897650241851807
44.12946319580078 0.8584679961204529 -2.2384114265441895
44.15001678466797 1.7428900003433228 -2.2407732009887695
44.138328552246094 2.627615213394165 -2.242401123046875
42.958553314208984 4.28729248046875 -2.1894288063049316
29.81527328491211 4.7958831787109375 -1.531496286392212
29.815223693847656 7.280725479125977 -1.556488275527954
29.815214157104492 7.915935516357422 -1.56444251537323
29.815176010131836 9.864812850952148 -1.5926704406738281
29.81514549255371 11.206771850585938 -1.6153401136398315
29.815135955810547 11.892736434936523 -1.6279048919677734
29.81511688232422 12.589734077453613 -1.6413241624832153
29.815107345581055 13.298620223999023 -1.6556451320648193
29.815086364746094 14.020268440246582 -1.6708838939666748
29.8150577545166 15.505690574645996 -1.7043044567108154
29.81502914428711 17.054262161254883 -1.7419289350509644
29.81500816345215 17.855138778686523 -1.7624449729919434
29.814998626708984 18.675432205200195 -1.7841805219650269
29.792098999023438 20.36434555053711 -1.8301283121109009
29.81494140625 21.26732635498047 -1.857299566268921
29.81492042541504 22.180400848388672 -1.8845630884170532
25.90230369567871 20.929826736450195 -1.688859224319458
29.771738052368164 27.164337158203125 -2.0438876152038574
31.57948112487793 31.21813201904297 -2.251981258392334
30.9578800201416 31.853099822998047 -2.252652645111084
29.677127838134766 33.08609390258789 -2.2540321350097656
26.922147750854492 35.33245086669922 -2.252751350402832
26.205272674560547 35.857479095458984 -2.2523491382598877
25.479042053222656 36.36919021606445 -2.2520177364349365
25.22380828857422 37.582881927490234 -2.2954623699188232
25.19138526916504 39.20735168457031 -2.3634233474731445
24.01089859008789 40.87820816040039 -2.4042727947235107
23.18756866455078 41.348876953125 -2.4041905403137207
22.354990005493164 41.802978515625 -2.404107093811035
21.5135440826416 42.24032211303711 -2.404022693634033
20.663496017456055 42.66061782836914 -2.403937578201294
18.065624237060547 43.818538665771484 -2.403677225112915
17.18486213684082 44.16960906982422 -2.4035887718200684
15.40322208404541 44.818260192871094 -2.403409957885742
32.466854095458984 -2.621675968170166 -2.3882858753204346
32.545780181884766 -1.3209185600280762 -2.3882954120635986
32.57267379760742 -0.0180517565459013 -2.3882994651794434
30.492704391479492 1.8152740001678467 -2.239753484725952
30.467626571655273 2.4262609481811523 -2.2410240173339844
30.412939071655273 3.035231351852417 -2.2410190105438232
30.26700210571289 4.2492828369140625 -2.2410056591033936
30.217451095581055 4.860564231872559 -2.2440907955169678
30.087411880493164 6.08327054977417 -2.2507166862487793
29.98235321044922 6.688960552215576 -2.252410650253296
29.844482421875 7.287839889526367 -2.252556562423706
29.354774475097656 9.06503677368164 -2.252647876739502
29.167646408081055 9.650514602661133 -2.252657890319824
28.9688663482666 10.231985092163086 -2.2526659965515137
28.536561965942383 11.38277530670166 -2.252676010131836
28.303241729736328 11.95126724243164 -2.2526779174804688
28.05843734741211 12.514982223510742 -2.2526779174804688
26.66231346130371 15.25090503692627 -2.2521588802337646
26.351346969604492 15.780868530273438 -2.2521135807037354
25.479764938354492 17.416643142700195 -2.2629806995391846
25.461591720581055 18.162038803100586 -2.2931783199310303
25.43024444580078 19.720800399780273 -2.3595705032348633
25.413602828979492 20.534976959228516 -2.3956665992736816
24.222850799560547 22.101423263549805 -2.4042742252349854
23.775487899780273 22.58113670349121 -2.4042296409606934
23.31853485107422 23.051715850830078 -2.404184103012085
22.852313995361328 23.513158798217773 -2.40413761138916
22.376943588256836 23.965057373046875 -2.404090166091919
21.399608612060547 24.839996337890625 -2.4039926528930664
20.897968292236328 25.262557983398438 -2.403942584991455
20.38800811767578 25.674999237060547 -2.4038918018341064
19.869911193847656 26.077157974243164 -2.4038400650024414
19.3438663482666 26.468812942504883 -2.40378737449646
18.268857955932617 27.22016143798828 -2.403679847717285
14.875887870788574 29.207740783691406 -2.4033403396606445
6.087685585021973 13.966300964355469 -1.1170920133590698
6.064208984375 15.586613655090332 -1.22628915309906
6.136650085449219 17.855621337890625 -1.3843753337860107
5.753222465515137 17.896976470947266 -1.378381609916687
24.945409774780273 -2.0143282413482666 -2.402676820755005
25.004735946655273 -1.014852523803711 -2.402554512023926
25.0152530670166 0.9875537157058716 -2.403452157974243
24.990360260009766 1.487709879875183 -2.4034454822540283
24.91996955871582 2.487028121948242 -2.4043235778808594
24.86519432067871 2.9850213527679443 -2.4043185710906982
24.8004093170166 3.4818108081817627 -2.4043126106262207
24.641141891479492 4.471004486083984 -2.4042975902557373
24.328319549560547 5.9408392906188965 -2.4042677879333496
24.20448112487793 6.426276206970215 -2.4042556285858154
24.070966720581055 6.9091362953186035 -2.404242753982544
23.927791595458984 7.389215469360352 -2.404228687286377
23.61277198791504 8.340315818786621 -2.404198169708252
23.259912490844727 9.277962684631348 -2.4041635990142822
22.86985206604004 10.200769424438477 -2.404125213623047
22.661014556884766 10.656123161315918 -2.404104709625244
22.443124771118164 11.107199668884277 -2.404083251953125
22.21626853942871 11.553839683532715 -2.4040608406066895
21.980525970458984 11.996034622192383 -2.4040374755859375
21.220731735229492 13.2921724319458 -2.4039623737335205
20.671581268310547 14.130019187927246 -2.4039080142974854
18.15380859375 17.24185562133789 -2.4036576747894287
17.805028915405273 17.60131072998047 -2.403623104095459
17.4490909576416 17.953676223754883 -2.4035873413085938
17.086210250854492 18.298837661743164 -2.4035513401031494
16.71648406982422 18.636688232421875 -2.4035143852233887
16.340097427368164 18.967079162597656 -2.4034767150878906
15.172285079956055 19.912015914916992 -2.40336012840271
6.499433517456055 10.11561107635498 -1.1543259620666504
6.17125940322876 11.004826545715332 -1.2112979888916016
6.101454734802246 11.409503936767578 -1.242155909538269
6.011610984802246 11.803383827209473 -1.2716901302337646
5.97594690322876 12.993913650512695 -1.3730838298797607
5.984658241271973 13.729948043823242 -1.4379202127456665
6.11013650894165 17.778484344482422 -1.8048113584518433
6.020341873168945 18.727943420410156 -1.8885908126831055
20.1656436920166 -1.6283828020095825 -2.4031982421875
20.21464729309082 -0.8204424977302551 -2.4031925201416016
20.22698211669922 -0.4159066677093506 -2.403188943862915
20.227352142333984 0.3934912085533142 -2.4031805992126465
20.167490005493164 1.6060198545455933 -2.403200149536133
20.131404876708984 2.0091264247894287 -2.4032111167907715
19.558650970458984 5.192812919616699 -2.4037864208221436
19.450780868530273 5.5829973220825195 -2.403775930404663
19.21173858642578 6.3564887046813965 -2.4037528038024902
19.08063507080078 6.739482879638672 -2.4037399291992188
18.94189453125 7.119777202606201 -2.40372633934021
18.64173698425293 7.871654510498047 -2.4036967754364014
18.480409622192383 8.242925643920898 -2.4036810398101807
18.13565444946289 8.975419044494629 -2.4036471843719482
17.76185417175293 9.693500518798828 -2.4036102294921875
17.564237594604492 10.046819686889648 -2.403590679168701
17.359600067138672 10.396015167236328 -2.4035704135894775
16.704355239868164 11.418241500854492 -2.403505563735962
15.73753833770752 12.716423034667969 -2.403409481048584
15.479863166809082 13.028564453125 -2.40338397026062
14.388251304626465 14.223617553710938 -2.4032750129699707
6.66540002822876 6.858161926269531 -1.1360145807266235
6.709511756896973 7.185707092285156 -1.1678011417388916
6.142099380493164 8.404481887817383 -1.236515760421753
6.156884670257568 9.173646926879883 -1.3123716115951538
6.061933517456055 9.863106727600098 -1.3751846551895142
5.760546684265137 11.310417175292969 -1.5077377557754517
6.03518533706665 12.459887504577637 -1.644541621208191
5.965351581573486 12.97085189819336 -1.695888638496399
5.753271579742432 13.199071884155273 -1.710336685180664
5.760468482971191 13.972135543823242 -1.7952125072479248
5.760761737823486 14.806645393371582 -1.887250304222107
6.074589729309082 16.587865829467773 -2.098370313644409
16.904647827148438 -1.365040898323059 -2.4030063152313232
16.956035614013672 -0.3486505150794983 -2.402998447418213
16.95962905883789 -0.009393921121954918 -2.4029951095581055
16.94649314880371 0.6689886450767517 -2.4030065536499023
16.929784774780273 1.007853388786316 -2.4030165672302246
16.90629768371582 1.3463177680969238 -2.4030261039733887
16.876073837280273 1.6842418909072876 -2.4030351638793945
16.744813919067383 2.693455696105957 -2.4030604362487793
16.626630783081055 3.3616857528686523 -2.403489112854004
16.478788375854492 4.024042129516602 -2.403474807739258
16.39493179321289 4.352848529815674 -2.4034667015075684
16.10416030883789 5.328346252441406 -2.4034385681152344
15.99428653717041 5.649353504180908 -2.403427839279175
15.877997398376465 5.968137741088867 -2.403416395187378
15.49120044708252 6.90963077545166 -2.403378486633301
15.349784851074219 7.218086242675781 -2.403364419937134
15.048603057861328 7.8262038230896 -2.403334856033325
14.888935089111328 8.12561321258545 -2.4033191204071045
14.551796913146973 8.714540481567383 -2.4032857418060303
14.191367149353027 9.289497375488281 -2.403249979019165
13.808075904846191 9.85046672821045 -2.403212070465088
13.402968406677246 10.393811225891113 -2.4031717777252197
13.192255973815918 10.659748077392578 -2.403150796890259
12.976259231567383 10.921403884887695 -2.4031293392181396
12.755078315734863 11.178703308105469 -2.4031074047088623
12.52879810333252 11.431513786315918 -2.4030847549438477
12.297499656677246 11.679733276367188 -2.403061866760254
6.180908203125 6.359652519226074 -1.2565525770187378
5.962978363037109 6.647945880889893 -1.2653385400772095
6.056552410125732 7.948629379272461 -1.415913701057434
5.753398418426514 8.212501525878906 -1.4207634925842285
6.059521198272705 9.02856731414795 -1.5406560897827148
6.018486022949219 9.367090225219727 -1.5775587558746338
6.032392501831055 9.815040588378906 -1.6323422193527222
5.775400161743164 10.799762725830078 -1.7352763414382935
5.753242015838623 13.198993682861328 -2.040114164352417
4.860537052154541 15.120097160339355 -2.2503302097320557
14.538554191589355 -1.173980712890625 -2.402866840362549
14.559130668640137 -0.8829128742218018 -2.402864933013916
14.58275318145752 -0.29985105991363525 -2.402860164642334
14.583163261413574 0.28369200229644775 -2.402874231338501
14.574638366699219 0.5753564238548279 -2.4028830528259277
14.540058135986328 1.1578850746154785 -2.402899742126465
14.514022827148438 1.4485094547271729 -2.402907609939575
14.444560050964355 2.027918577194214 -2.4029223918914795
14.401151657104492 2.31646728515625 -2.4029293060302734
14.297040939331055 2.8906712532043457 -2.402942180633545
14.238173484802246 3.176492929458618 -2.4032483100891113
14.099970817565918 3.743436098098755 -2.4032349586486816
14.021903991699219 4.024733066558838 -2.4032273292541504
13.849579811096191 4.582345008850098 -2.4032106399536133
13.755106925964355 4.8584513664245605 -2.4032013416290283
13.322489738464355 5.942307472229004 -2.4031589031219482
13.200898170471191 6.207596778869629 -2.403146982192993
13.074013710021973 6.470383644104004 -2.40313458442688
12.80459976196289 6.988083839416504 -2.4031078815460205
12.362167358398438 7.743373394012451 -2.403064250946045
11.703330039978027 8.706520080566406 -2.402998685836792
11.526738166809082 8.938822746276855 -2.4029812812805176
10.77499008178711 9.831306457519531 -2.4029064178466797
6.378925800323486 6.305948734283447 -1.4776564836502075
6.243671894073486 6.424241065979004 -1.4758065938949585
5.914882659912109 6.594324111938477 -1.459317922592163
5.75341796875 6.6783976554870605 -1.4521645307540894
5.943554401397705 7.80033016204834 -1.6155387163162231
5.753368854522705 8.212467193603516 -1.6518839597702026
6.001884460449219 8.942693710327148 -1.7742506265640259
6.032070159912109 9.388233184814453 -1.838335394859314
6.077939510345459 10.838424682617188 -2.047096014022827
5.943163871765137 11.668991088867188 -2.157303810119629
5.458105564117432 12.52188491821289 -2.250293493270874
4.952773094177246 12.729924201965332 -2.2502472400665283
4.697080135345459 12.826300621032715 -2.2502236366271973
4.180195331573486 13.003642082214355 -2.2501752376556396
12.772772789001465 -0.5184018015861511 -2.402757406234741
12.780634880065918 -0.26279541850090027 -2.4027652740478516
12.783378601074219 -0.007084960583597422 -2.40277361869812
12.780985832214355 0.24863341450691223 -2.4027814865112305
12.773505210876465 0.504254162311554 -2.4027891159057617
12.760908126831055 0.7596752643585205 -2.402796506881714
12.69247055053711 1.5237096548080444 -2.4028172492980957
12.62142562866211 2.0301952362060547 -2.402829647064209
12.578330039978027 2.2822723388671875 -2.4028353691101074
12.53017520904541 2.5334343910217285 -2.402841091156006
12.418876647949219 3.032621383666992 -2.402851104736328
12.356767654418945 3.2807116508483887 -2.4030511379241943
12.215595245361328 3.7723381519317627 -2.403045177459717
12.054853439331055 4.257906436920166 -2.403029441833496
11.967236518859863 4.4981818199157715 -2.4030208587646484
11.874804496765137 4.736650466918945 -2.4030117988586426
11.675742149353027 5.207805633544922 -2.4029922485351562
11.457987785339355 5.6706109046936035 -2.402970790863037
11.221894264221191 6.124331474304199 -2.4029476642608643
10.834179878234863 6.786281108856201 -2.402909278869629
10.69620132446289 7.001607894897461 -2.40289568901062
10.553945541381836 7.214127540588379 -2.402881383895874
10.407450675964355 7.423752784729004 -2.402866840362549
9.605996131896973 7.146242141723633 -2.2503857612609863
9.461064338684082 7.3369317054748535 -2.250372886657715
9.312362670898438 7.524698734283447 -2.250364303588867
8.844160079956055 8.069574356079102 -2.2503371238708496
8.680937767028809 8.24484634399414 -2.2503278255462646
6.31823205947876 6.245941638946533 -1.6699049472808838
6.211669921875 6.3913164138793945 -1.6752070188522339
5.988437175750732 6.413447856903076 -1.6492748260498047
5.973827838897705 6.660044193267822 -1.6816164255142212
5.890751838684082 7.121066093444824 -1.7370883226394653
5.998749732971191 7.55438756942749 -1.8131413459777832
5.973564147949219 7.8397040367126465 -1.8525710105895996
6.083446979522705 8.324212074279785 -1.9379123449325562
5.753349304199219 8.212435722351074 -1.8847119808197021
6.048798561096191 9.012598037719727 -2.0401740074157715
5.855712890625 10.442123413085938 -2.2502553462982178
5.64562463760376 10.557096481323242 -2.250237464904785
5.433271408081055 10.667824745178223 -2.2502188682556152
5.218720436096191 10.774282455444336 -2.250200033187866
5.002109050750732 10.876425743103027 -2.250180721282959
4.783505916595459 10.974210739135742 -2.2501611709594727
4.56298828125 11.067611694335938 -2.250141143798828
4.340644359588623 11.156574249267578 -2.2501206398010254
4.116572380065918 11.241066932678223 -2.2501001358032227
3.8908300399780273 11.321054458618164 -2.2500789165496826
11.329765319824219 -0.9148684740066528 -2.4026777744293213
11.34579086303711 -0.6880480647087097 -2.4026787281036377
11.364306449890137 -0.23367248475551605 -2.4026939868927
11.346757888793945 0.6754876375198364 -2.402721881866455
11.330986022949219 0.9023327231407166 -2.402728319168091
11.31070327758789 1.1288158893585205 -2.4027345180511475
11.2227144241333 1.8052074909210205 -2.4027514457702637
11.1843843460083 2.029348134994507 -2.402756690979004
11.094305992126465 2.4751062393188477 -2.402766227722168
11.042597770690918 2.696540355682373 -2.402770519256592
10.986464500427246 2.9169018268585205 -2.4027748107910156
10.92593765258789 3.1360924243927 -2.4027786254882812
10.86141586303711 3.3541483879089355 -2.402867317199707
10.792284965515137 3.5707969665527344 -2.4029016494750977
10.640761375427246 3.9995951652526855 -2.4028868675231934
10.472207069396973 4.421990394592285 -2.4028701782226562
10.187997817993164 5.042084217071533 -2.4028422832489014
10.085058212280273 5.2448554039001465 -2.40283203125
9.86709976196289 5.6440043449401855 -2.402810573577881
9.13338851928711 5.4696550369262695 -2.2503366470336914
8.907196998596191 5.830545902252197 -2.250314235687256
8.78873062133789 6.007533550262451 -2.250302314758301
8.412470817565918 6.523741722106934 -2.250264883041382
8.144697189331055 6.8549394607543945 -2.2502384185791016
7.863876819610596 7.175151824951172 -2.2502102851867676
7.718984127044678 7.331231117248535 -2.2502708435058594
6.072558403015137 6.50354528427124 -1.8808252811431885
5.753378868103027 6.67834997177124 -1.8632867336273193
5.75979471206665 6.9627532958984375 -1.9100909233093262
6.025918006896973 7.588608741760254 -2.048295021057129
5.993808269500732 7.8662872314453125 -2.0904572010040283
5.753320217132568 8.212401390075684 -2.119551181793213
5.754325866699219 8.955921173095703 -2.2501869201660156
5.391406059265137 9.178810119628906 -2.2501566410064697
5.206689357757568 9.284750938415527 -2.250140905380249
5.019882678985596 9.386984825134277 -2.250124931335449
4.447704792022705 9.670961380004883 -2.250074625015259
3.6603221893310547 9.99521541595459 -2.25000262260437
10.189716339111328 -0.8228133916854858 -2.402615785598755
10.204179763793945 -0.6188174486160278 -2.402622938156128
10.214550971984863 -0.41457244753837585 -2.402629852294922
10.22109317779541 0.1988348364830017 -2.4026496410369873
10.215097427368164 0.40325742959976196 -2.402655839920044
10.172607421875 1.0152331590652466 -2.4026732444763184
10.150282859802246 1.2185229063034058 -2.4026782512664795
10.123896598815918 1.421328067779541 -2.4026834964752197
10.093457221984863 1.6235625743865967 -2.4026882648468018
9.931435585021973 2.4252049922943115 -2.402705430984497
9.880956649780273 2.623391628265381 -2.4027092456817627
9.7058687210083 3.2113335132598877 -2.402719020843506
9.49599552154541 3.787781238555908 -2.402771234512329
9.16268539428711 4.5346574783325195 -2.402738332748413
8.404501914978027 4.586745738983154 -2.2502620220184326
8.214228630065918 4.9192070960998535 -2.2502434253692627
8.114150047302246 5.082516193389893 -2.2502334117889404
7.565878868103027 5.867229461669922 -2.2501790523529053
7.325058460235596 6.165104389190674 -2.250155210494995
7.20022439956665 6.310373783111572 -2.2501425743103027
6.171777248382568 6.350268840789795 -2.0811984539031982
6.061953067779541 6.492186546325684 -2.0875442028045654
5.753359317779541 6.678330421447754 -2.071690797805786
5.802626609802246 7.615333557128906 -2.2501399517059326
5.649101257324219 7.7298455238342285 -2.2501280307769775
5.335341453552246 7.949531555175781 -2.250102996826172
4.848837852478027 8.255080223083496 -2.2500627040863037
4.682714939117432 8.350370407104492 -2.2500483989715576
4.17333984375 8.616040229797363 -2.250004291534424
4.000126838684082 8.697733879089355 -2.2499887943267822
3.825312376022339 8.77595043182373 -2.2499730587005615
2.9297266006469727 9.113744735717773 -2.2498903274536133
9.249159812927246 -0.7468640208244324 -2.4025702476501465
9.271689414978027 -0.3763061463832855 -2.402583122253418
9.279364585876465 -0.005142821930348873 -2.402595281600952
9.272187232971191 0.3660339415073395 -2.402606725692749
9.263036727905273 0.5514416098594666 -2.4026122093200684
9.233603477478027 0.9215191602706909 -2.4026222229003906
9.213339805603027 1.1060454845428467 -2.4026272296905518
9.161757469177246 1.473696231842041 -2.4026362895965576
9.130468368530273 1.6566741466522217 -2.4026403427124023
9.095507621765137 1.8389910459518433 -2.402644395828247
8.968876838684082 2.381232738494873 -2.4026551246643066
8.866474151611328 2.7380833625793457 -2.4026613235473633
8.809931755065918 2.9149010181427 -2.4026639461517334
8.686308860778809 3.2649638652801514 -2.4026687145233154
8.619257926940918 3.438070058822632 -2.4026708602905273
8.474833488464355 3.7800822257995605 -2.4026684761047363
7.864657878875732 3.6982805728912354 -2.25020694732666
7.789082050323486 3.8548498153686523 -2.250199317932129
7.628612995147705 4.163295269012451 -2.250183582305908
7.543778896331787 4.31503963470459 -2.2501752376556396
7.271298885345459 4.759695529937744 -2.250148057937622
7.174550533294678 4.904204368591309 -2.250138521194458
7.075029373168945 5.0466837882995605 -2.250128746032715
6.648847579956055 5.595975875854492 -2.2500863075256348
6.535546779632568 5.727832317352295 -2.250075101852417
6.419628620147705 5.857390403747559 -2.25006365776062
6.180136680603027 6.109415531158447 -2.250039577484131
6.056650161743164 6.231791019439697 -2.2500274181365967
5.930849552154541 6.351770401000977 -2.250054359436035
5.127880573272705 7.016639709472656 -2.250180721282959
4.986552715301514 7.117883682250977 -2.2502036094665527
4.84280252456665 7.215644836425781 -2.250027894973755
4.697460651397705 7.311029434204102 -2.2500128746032715
4.550234317779541 7.403484344482422 -2.249997615814209
4.401191234588623 7.492987632751465 -2.2499849796295166
4.250410079956055 7.579477787017822 -2.249972105026245
4.097909927368164 7.662943363189697 -2.2499592304229736
3.943789005279541 7.7433390617370605 -2.249945878982544
3.7880859375 7.8206329345703125 -2.249932050704956
3.630859375 7.89479398727417 -2.249917984008789
3.472177743911743 7.9658026695251465 -2.249903917312622
3.1507225036621094 8.098203659057617 -2.2498745918273926
2.988085985183716 8.159553527832031 -2.24985933303833
2.8242480754852295 8.217637062072754 -2.2498440742492676
8.471181869506836 -0.5137225389480591 -2.4025380611419678
8.484980583190918 -0.1744677722454071 -2.4025495052337646
8.486806869506836 -0.004703368991613388 -2.402554988861084
8.471855163574219 0.5043420195579529 -2.4025704860687256
8.460097312927246 0.6737115383148193 -2.4025752544403076
8.444931030273438 0.8428100347518921 -2.4025797843933105
8.426405906677246 1.011574625968933 -2.4025840759277344
8.404501914978027 1.1799359321594238 -2.402588367462158
8.379218101501465 1.3478240966796875 -2.402592420578003
8.350605010986328 1.515173316001892 -2.4025962352752686
8.318633079528809 1.6819164752960205 -2.402599811553955
8.283339500427246 1.8479876518249512 -2.4026033878326416
8.202812194824219 2.1778435707092285 -2.4026095867156982
7.944345474243164 2.9860808849334717 -2.402614116668701
7.051747798919678 3.6673436164855957 -2.250124931335449
6.899364948272705 3.946444511413574 -2.250109910964966
6.735927581787109 4.219236850738525 -2.250093698501587
6.650146484375 4.353105545043945 -2.2500851154327393
6.377011775970459 4.744086265563965 -2.250058174133301
6.182099342346191 4.99532413482666 -2.2500386238098145
5.977284908294678 5.23856258392334 -2.250018358230591
5.762900352478027 5.47340726852417 -2.249997138977051
5.539306640625 5.6994829177856445 -2.2499747276306152
5.424160003662109 5.809116840362549 -2.2499632835388184
5.306835651397705 5.9164252281188965 -2.2499513626098633
4.942568302154541 6.224267959594727 -2.2500200271606445
4.817119121551514 6.321954727172852 -2.250041961669922
4.68972635269165 6.417113304138184 -2.250063419342041
4.161933422088623 6.771688461303711 -2.2501442432403564
4.025673866271973 6.853647708892822 -2.2501628398895264
3.8878026008605957 6.932859420776367 -2.2501814365386963
3.748368978500366 7.009302139282227 -2.25019907951355
3.4640233516693115 7.152616500854492 -2.249884843826294
3.1755664348602295 7.2853851318359375 -2.2498550415039062
3.029189348220825 7.3474016189575195 -2.249840021133423
2.881591796875 7.406482219696045 -2.2498250007629395
2.732861280441284 7.462589740753174 -2.249809503555298
2.43212890625 7.565816879272461 -2.249776840209961
7.804618835449219 -0.3167620897293091 -2.402510404586792
7.809413909912109 -0.16057677567005157 -2.4025156497955322
7.809618949890137 0.15192382037639618 -2.4025256633758545
7.805028915405273 0.30811643600463867 -2.4025301933288574
7.772538661956787 0.7757055759429932 -2.402543544769287
7.735332012176514 1.0859887599945068 -2.4025514125823975
7.685712814331055 1.3945330381393433 -2.4025585651397705
7.415830135345459 2.453641891479492 -2.402560234069824
7.255273342132568 2.893998861312866 -2.4025444984436035
7.19591760635376 3.0385453701019287 -2.402538776397705
6.68102502822876 2.9799773693084717 -2.250086784362793
6.620058536529541 3.1130211353302 -2.2500808238983154
6.556435585021973 3.2448246479034424 -2.250074625015259
6.421367168426514 3.5044517517089844 -2.250061273574829
6.275986194610596 3.7584941387176514 -2.250046730041504
6.199550628662109 3.8832457065582275 -2.2500393390655518
6.12060546875 4.0064849853515625 -2.2500314712524414
5.955410003662109 4.2480621337890625 -2.2500150203704834
5.869208812713623 4.36631965637207 -2.2500064373016357
5.596699237823486 4.710438251495361 -2.2499794960021973
5.501318454742432 4.821432590484619 -2.249969959259033
5.107978343963623 5.255685329437256 -2.2542293071746826
5.002197265625 5.357213497161865 -2.2544002532958984
4.894394397735596 5.456608295440674 -2.2545671463012695
4.784609317779541 5.553821086883545 -2.254729747772217
4.559257507324219 5.7415618896484375 -2.255042791366577
4.443798542022705 5.832003593444824 -2.255192995071411
4.316201210021973 5.905999183654785 -2.2499635219573975
4.076581954956055 6.0740203857421875 -2.2500016689300537
3.8304295539855957 6.23232364654541 -2.250037908554077
3.705019474029541 6.30774450302124 -2.2500550746917725
3.189042806625366 6.5839152336120605 -2.250119686126709
2.923173666000366 6.7062907218933105 -2.2501485347747803
2.788456916809082 6.76346492767334 -2.250162363052368
2.6526269912719727 6.817930221557617 -2.2501754760742188
2.5157225131988525 6.869670867919922 -2.250188112258911
2.377822160720825 6.9186530113220215 -2.2502002716064453
7.226240158081055 0.1405755579471588 -2.4024956226348877
7.204833984375 0.5737506151199341 -2.40250825881958
7.176132678985596 0.8614831566810608 -2.4025158882141113
7.157480239868164 1.0048620700836182 -2.4025192260742188
7.135956764221191 1.147839903831482 -2.4025228023529053
7.08434534072876 1.4323699474334717 -2.4025256633758545
6.985644340515137 1.854685664176941 -2.4025163650512695
6.905849456787109 2.1326165199279785 -2.402508497238159
6.765459060668945 2.542966842651367 -2.4024949073791504
6.658300399780273 2.811535596847534 -2.40248441696167
6.380742073059082 2.8460423946380615 -2.3224167823791504
6.125468730926514 2.8804447650909424 -2.250030755996704
6.066620826721191 3.002394914627075 -2.2500250339508057
6.005331993103027 3.1231377124786377 -2.250018835067749
5.941630840301514 3.242633581161499 -2.2500126361846924
5.875556468963623 3.360825777053833 -2.2500059604644775
5.736396312713623 3.5931456089019775 -2.2499923706054688
5.663339614868164 3.707163095474243 -2.2499849796295166
5.588027000427246 3.8196897506713867 -2.2499775886535645
5.348827838897705 4.147944927215576 -2.2499539852142334
5.178584098815918 4.358537673950195 -2.249936819076538
5.096894264221191 4.466984748840332 -2.2528252601623535
5.006904125213623 4.568397521972656 -2.252997398376465
4.820878982543945 4.765717029571533 -2.253331184387207
4.724912166595459 4.861550807952881 -2.253492593765259
4.527304649353027 5.047348976135254 -2.253804922103882
4.425732135772705 5.137248992919922 -2.253955364227295
4.110410213470459 5.394476890563965 -2.2543835639953613
4.001923561096191 5.475954055786133 -2.254518508911133
2.8282909393310547 6.149745464324951 -2.250035285949707
2.580068349838257 6.258024215698242 -2.250061273574829
2.327714681625366 6.3562846183776855 -2.2500851154327393
2.2001073360443115 6.401610374450684 -2.250096321105957
6.69631814956665 -0.5407229661941528 -2.402446985244751
6.712607383728027 -0.2724420130252838 -2.402456283569336
6.716728210449219 -0.1381097435951233 -2.402460813522339
6.712958812713623 0.2650042772293091 -2.4024734497070312
6.670312404632568 0.8007580637931824 -2.4024834632873535
6.632948875427246 1.0669317245483398 -2.402479887008667
6.610273361206055 1.199398159980774 -2.402477741241455
6.526406288146973 1.5937145948410034 -2.4024696350097656
6.493212699890137 1.7239446640014648 -2.4024665355682373
6.419042587280273 1.9822851419448853 -2.4024593830108643
6.378095626831055 2.110288619995117 -2.4024553298950195
6.288544654846191 2.363708972930908 -2.402446746826172
6.188954830169678 2.6133453845977783 -2.4024369716644287
5.582001686096191 2.902979612350464 -2.2499759197235107
5.522792816162109 3.0140647888183594 -2.2499701976776123
5.461386680603027 3.1239280700683594 -2.2499639987945557
5.397792816162109 3.2325432300567627 -2.249957799911499
5.33203125 3.33986759185791 -2.2499513626098633
5.264150142669678 3.4458489418029785 -2.2499444484710693
5.194140434265137 3.55045223236084 -2.2499377727508545
5.125380516052246 3.6559863090515137 -2.25138521194458
4.567255973815918 4.337828159332275 -2.2525463104248047
4.479873180389404 4.428619861602783 -2.252699613571167
4.390693187713623 4.517654895782471 -2.252849817276001
4.299726486206055 4.604878902435303 -2.2529964447021484
4.207021236419678 4.690263748168945 -2.2531397342681885
4.112597465515137 4.773782253265381 -2.253279685974121
4.016523361206055 4.8553876876831055 -2.253415822982788
3.918828010559082 4.935051918029785 -2.2535486221313477
3.8195409774780273 5.0127434730529785 -2.2536773681640625
3.6163768768310547 5.162076950073242 -2.2539241313934326
3.512578010559082 5.233654022216797 -2.254041910171509
3.407343626022339 5.3031415939331055 -2.2541558742523193
3.3007421493530273 5.37050199508667 -2.254265785217285
3.192802667617798 5.435708522796631 -2.2543716430664062
2.5195605754852295 5.7803263664245605 -2.254922389984131
2.403515577316284 5.829771995544434 -2.2549993991851807
2.281327962875366 5.863613605499268 -2.2499845027923584
2.044980525970459 5.950227737426758 -2.2500054836273193
1.9255565404891968 5.989971160888672 -2.2500154972076416
6.25759744644165 -0.379476934671402 -2.4024298191070557
6.26394510269165 -0.2542279064655304 -2.4024341106414795
6.267783164978027 -0.12887634336948395 -2.402438163757324
6.269150257110596 -0.003419799730181694 -2.402442216873169
6.249335765838623 0.4976605176925659 -2.4024407863616943
6.208222389221191 0.8715905547142029 -2.4024369716644287
6.144736289978027 1.2423864603042603 -2.402431011199951
6.118661880493164 1.3650561571121216 -2.402428388595581
6.059150218963623 1.6087017059326172 -2.4024226665496826
6.02575159072876 1.7295831441879272 -2.4024195671081543
5.9111328125 2.087877035140991 -2.4024081230163574
5.868183612823486 2.205700635910034 -2.4024040699005127
5.82287073135376 2.322641611099243 -2.402399778366089
5.775234222412109 2.4386510848999023 -2.402395009994507
5.725283145904541 2.5536820888519287 -2.4023900032043457
5.673046588897705 2.667694568634033 -2.4023849964141846
5.153623104095459 2.8125805854797363 -2.2499327659606934
5.037685394287109 3.0168864727020264 -2.2502400875091553
4.913720607757568 3.2164671421051025 -2.2505834102630615
4.712997913360596 3.5061700344085693 -2.251080274581909
4.642255783081055 3.600001811981201 -2.2512407302856445
4.569628715515137 3.692403554916382 -2.2513983249664307
4.418867111206055 3.87276291847229 -2.2517051696777344
4.260995864868164 4.046945095062256 -2.252000331878662
4.011328220367432 4.296029090881348 -2.25242018699646
3.9248340129852295 4.375669479370117 -2.252553939819336
3.6559276580810547 4.6039838790893555 -2.2529351711273193
3.0792479515075684 5.010112762451172 -2.2536041736602783
2.5640721321105957 5.293634414672852 -2.2540605068206787
2.3504393100738525 5.392332077026367 -2.254216194152832
2.2421679496765137 5.438444137573242 -2.2542881965637207
2.0229687690734863 5.5241007804870605 -2.254420280456543
1.912109375 5.5636115074157715 -2.2544801235198975
1.8004882335662842 5.600886821746826 -2.2545361518859863
5.850849628448486 -0.4724471867084503 -2.4023995399475098
5.869892597198486 -0.0032543945126235485 -2.402401924133301
5.868779182434082 0.114166259765625 -2.402401924133301
5.865322113037109 0.23154295980930328 -2.4024016857147217
5.859521389007568 0.3488256633281708 -2.4024012088775635
5.840868949890137 0.5829229354858398 -2.402399778366089
5.828046798706055 0.6996453404426575 -2.4023985862731934
5.812870979309082 0.8160924911499023 -2.4023971557617188
5.795380592346191 0.9322052001953125 -2.402395486831665
5.775566101074219 1.0479480028152466 -2.4023935794830322
5.75344705581665 1.1632696390151978 -2.4023914337158203
5.729013442993164 1.2781274318695068 -2.4023890495300293
5.702304363250732 1.3924713134765625 -2.4023866653442383
5.572714805603027 1.8438177108764648 -2.402373790740967
5.360693454742432 2.3910632133483887 -2.402353048324585
5.2607421875 2.603564977645874 -2.402343273162842
4.886669635772705 2.666893243789673 -2.2784488201141357
4.771777153015137 2.7294702529907227 -2.249894142150879
4.727304458618164 2.831012010574341 -2.2551774978637695
4.659072399139404 2.9183337688446045 -2.2500293254852295
4.539247989654541 3.1027934551239014 -2.2503464221954346
4.136689186096191 3.6254491806030273 -2.251239061355591
3.988847494125366 3.788475275039673 -2.2515151500701904
3.8345799446105957 3.9454619884490967 -2.2517802715301514
3.507685422897339 4.2402825355529785 -2.25227427482605
3.3356151580810547 4.377641677856445 -2.252502679824829
3.2475292682647705 4.443702697753906 -2.2526118755340576
2.9755663871765137 4.631120681762695 -2.252920150756836
2.882460832595825 4.689916133880615 -2.253016233444214
2.692763566970825 4.801845073699951 -2.25319766998291
2.596269369125366 4.854935646057129 -2.2532830238342285
2.498730421066284 4.9060797691345215 -2.2533650398254395
1.9966405630111694 5.131885051727295 -2.2537200450897217
1.8936327695846558 5.170934200286865 -2.2537801265716553
1.6853710412979126 5.242794513702393 -2.2538886070251465
5.494433403015137 -0.443671852350235 -2.4023637771606445
5.502206802368164 -0.3336743116378784 -2.402364492416382
5.507792949676514 -0.223541259765625 -2.402365207672119
5.511152267456055 -0.11331786960363388 -2.4023656845092773
5.512324333190918 -0.0030487061012536287 -2.4023659229278564
5.511289119720459 0.10720580816268921 -2.4023659229278564
5.508037090301514 0.21744200587272644 -2.4023656845092773
5.502577781677246 0.32757994532585144 -2.402365207672119
5.494931697845459 0.43758299946784973 -2.402364492416382
5.485068321228027 0.5474139451980591 -2.4023637771606445
5.458779335021973 0.7663769125938416 -2.4023613929748535
5.354931354522705 1.3076488971710205 -2.4023513793945312
5.327704906463623 1.4145050048828125 -2.4023489952087402
5.119960784912109 2.0422613620758057 -2.4023284912109375
4.988212585449219 2.345662832260132 -2.402315616607666
4.940283298492432 2.444971799850464 -2.402310848236084
4.456386566162109 2.668768882751465 -2.263803243637085
4.374980449676514 2.7403881549835205 -2.249854326248169
4.325390338897705 2.8313512802124023 -2.2530343532562256
4.262109279632568 2.913358688354492 -2.249983787536621
4.142704963684082 3.0819036960601807 -2.250272512435913
4.0166015625 3.245547294616699 -2.25055193901062
3.884033203125 3.4040215015411377 -2.250821590423584
3.8153905868530273 3.481238842010498 -2.2509524822235107
3.7452049255371094 3.557065963745117 -2.2510809898376465
3.5256834030151367 3.7759130001068115 -2.2514498233795166
3.4496288299560547 3.8458850383758545 -2.2515671253204346
3.2933592796325684 3.981191873550415 -2.251793384552002
3.2132225036621094 4.046473503112793 -2.2519021034240723
3.049082040786743 4.172146320343018 -2.252110481262207
2.965136766433716 4.232491970062256 -2.2522101402282715
2.8799901008605957 4.291140556335449 -2.2523064613342285
2.6177635192871094 4.456691265106201 -2.2525765895843506
2.5281736850738525 4.508329391479492 -2.2526602745056152
2.3459863662719727 4.606173515319824 -2.252817153930664
2.2534472942352295 4.652328968048096 -2.2528908252716064
2.1599998474121094 4.696622371673584 -2.2529609203338623
2.065673828125 4.7390313148498535 -2.2530276775360107
1.9705175161361694 4.779537677764893 -2.2530908584594727
1.7778515815734863 4.854783058166504 -2.253206729888916
1.582314372062683 4.9222331047058105 -2.2533085346221924
5.173076152801514 -0.4177221655845642 -2.4023313522338867
5.185644626617432 -0.2104669213294983 -2.4023327827453613
5.188808441162109 -0.1066918894648552 -2.4023332595825195
5.188935279846191 0.10094238072633743 -2.4023334980010986
5.185869216918945 0.20472106337547302 -2.4023332595825195
5.180732250213623 0.30841490626335144 -2.4023327827453613
5.164247989654541 0.5153955221176147 -2.4023313522338867
5.139492034912109 0.7215508818626404 -2.4023289680480957
5.124032974243164 0.8242163062095642 -2.4023277759552
5.106513500213623 0.9265515208244324 -2.4023261070251465
5.065361022949219 1.1300671100616455 -2.4023220539093018
5.041738033294678 1.2311657667160034 -2.40231990814209
5.016093730926514 1.3317724466323853 -2.4023172855377197
4.958798885345459 1.531343936920166 -2.4023118019104004
4.893593788146973 1.7284612655639648 -2.4023053646087646
4.739716529846191 2.114084482192993 -2.4022903442382812
4.604345798492432 2.3945488929748535 -2.4022769927978516
4.504872798919678 2.576796293258667 -2.4022669792175293
4.082450866699219 2.672328472137451 -2.25856614112854
4.012578010559082 2.7427923679351807 -2.2498178482055664
3.781122922897339 3.0552685260772705 -2.2501914501190186
3.719472646713257 3.1304712295532227 -2.250319480895996
3.525576114654541 3.3484771251678467 -2.2506892681121826
3.458076000213623 3.4185094833374023 -2.250807762145996
3.389169931411743 3.4871838092803955 -2.2509233951568604
3.318915843963623 3.554457902908325 -2.2510366439819336
3.247304677963257 3.620314836502075 -2.2511470317840576
3.174384593963623 3.6847288608551025 -2.2512550354003906
3.024726390838623 3.809102773666382 -2.251462459564209
2.94805645942688 3.8690178394317627 -2.2515618801116943
2.870195150375366 3.927384614944458 -2.2516584396362305
2.7911815643310547 3.9841794967651367 -2.2517521381378174
2.7110350131988525 4.039378643035889 -2.251842737197876
2.6297948360443115 4.092959880828857 -2.2519307136535645
2.464160203933716 4.195183753967285 -2.2520971298217773
2.379814386367798 4.243786334991455 -2.252175807952881
2.2945311069488525 4.290686130523682 -2.252251148223877
2.208300828933716 4.335867404937744 -2.252323627471924
2.1212010383605957 4.379307746887207 -2.2523927688598633
2.0332324504852295 4.420996189117432 -2.2524588108062744
1.9444433450698853 4.460907459259033 -2.252521514892578
1.8548730611801147 4.499027729034424 -2.2525808811187744
1.6735057830810547 4.569841384887695 -2.252690076828003
1.489443302154541 4.633322238922119 -2.2527859210968018
4.888437271118164 -0.29645201563835144 -2.4023027420043945
4.893388748168945 -0.1986059546470642 -2.402303457260132
4.896396160125732 -0.10067931562662125 -2.402303695678711
4.896503925323486 0.09525329619646072 -2.40230393409729
4.888769626617432 0.2910357713699341 -2.402303457260132
4.873212814331055 0.4863506853580475 -2.4023020267486572
4.862509727478027 0.5837353467941284 -2.402301073074341
4.849863052368164 0.6808886528015137 -2.4022998809814453
4.835253715515137 0.7777667045593262 -2.4022984504699707
4.818730354309082 0.8743340969085693 -2.402297019958496
4.779892444610596 1.0663812160491943 -2.4022934436798096
4.757616996765137 1.1617815494537354 -2.4022910594940186
4.707314491271973 1.3511511087417603 -2.4022862911224365
4.679345607757568 1.4450433254241943 -2.4022836685180664
4.649492263793945 1.5383563041687012 -2.402280569076538
4.617783069610596 1.6310522556304932 -2.4022774696350098
4.584248065948486 1.7230968475341797 -2.4022743701934814
4.548828125 1.8144500255584717 -2.402270793914795
4.431796550750732 2.0840094089508057 -2.402259349822998
4.298798561096191 2.3460614681243896 -2.4022462368011475
4.150312423706055 2.5996618270874023 -2.402231454849243
3.6243650913238525 2.8106510639190674 -2.2497787475585938
3.44976544380188 3.023418426513672 -2.2501039505004883
3.3887693881988525 3.0919811725616455 -2.25022029876709
3.0638084411621094 3.415750741958618 -2.2507660388946533
2.924990177154541 3.53588604927063 -2.250966787338257
2.633417844772339 3.7589972019195557 -2.2513368129730225
2.481152296066284 3.8616130352020264 -2.251505136489868
2.245292901992798 4.003890514373779 -2.2517364025115967
2.1648242473602295 4.048131465911865 -2.251807689666748
1.834511637687683 4.208700656890869 -2.2520625591278076
1.6647753715515137 4.27891731262207 -2.252171754837036
1.5788769721984863 4.311459064483643 -2.2522215843200684
4.615595817565918 -0.37270689010620117 -2.4022750854492188
4.622138500213623 -0.2803027331829071 -2.402276039123535
4.626816272735596 -0.1877862513065338 -2.4022765159606934
4.622441291809082 0.27518126368522644 -2.4022765159606934
4.616015434265137 0.3675927519798279 -2.402276039123535
4.607744216918945 0.45985594391822815 -2.402275323867798
4.597617149353027 0.5519360303878784 -2.4022743701934814
4.585654258728027 0.6437951326370239 -2.402273178100586
4.556220531463623 0.8267034888267517 -2.402270555496216
4.538769245147705 0.917680025100708 -2.402268886566162
4.498437404632568 1.0984917879104614 -2.4022650718688965
4.450869083404541 1.2775439023971558 -2.4022603034973145
4.366230487823486 1.5421984195709229 -2.402252197265625
4.265839576721191 1.8012957572937012 -2.4022421836853027
4.150107383728027 2.0539069175720215 -2.402230978012085
4.064619064331055 2.218257427215576 -2.4022223949432373
3.972607374191284 2.3790581226348877 -2.4022133350372314
3.9242186546325684 2.458045482635498 -2.4022085666656494
3.874267578125 2.536046028137207 -2.4022035598754883
3.82275390625 2.6130332946777344 -2.402198314666748
3.569658041000366 2.6555986404418945 -2.308112621307373
3.44140625 2.6687610149383545 -2.2592568397521973
3.3730762004852295 2.7255547046661377 -2.249753475189209
3.31787109375 2.792478561401367 -2.2497479915618896
3.261415958404541 2.8583483695983887 -2.2497928142547607
3.144785165786743 2.986804246902466 -2.2500104904174805
2.9603710174560547 3.170483350753784 -2.2503201961517334
2.7652440071105957 3.342766761779785 -2.250608444213867
2.6979198455810547 3.397550582885742 -2.250699758529663
2.629521369934082 3.4509758949279785 -2.250788450241089
2.489570140838623 3.5536601543426514 -2.250958204269409
2.4180760383605957 3.6028783321380615 -2.2510390281677246
2.2721874713897705 3.696969509124756 -2.251192808151245
2.1978416442871094 3.741804838180542 -2.25126576423645
2.122617244720459 3.785137891769409 -2.251335859298706
2.0465428829193115 3.8269567489624023 -2.2514030933380127
1.8919237852096558 3.9059746265411377 -2.2515294551849365
1.5738085508346558 4.045098304748535 -2.2517473697662354
1.4926073551177979 4.075856685638428 -2.2517945766448975
1.3284374475479126 4.132453918457031 -2.251879930496216
4.382421970367432 -0.1778680384159088 -2.402251720428467
4.386044979095459 -0.0024310301523655653 -2.402252435684204
4.385214805603027 0.08530700206756592 -2.402252435684204
4.382627010345459 0.17301085591316223 -2.402252197265625
4.364365100860596 0.4355657994747162 -2.4022507667541504
4.330380916595459 0.6965533494949341 -2.402247667312622
4.315566539764404 0.7830370664596558 -2.4022462368011475
4.239160060882568 1.1254931688308716 -2.4022388458251953
4.215790748596191 1.210065245628357 -2.4022364616394043
4.190732479095459 1.2941534519195557 -2.4022340774536133
4.135605335235596 1.4607409238815308 -2.402228832244873
4.105556488037109 1.543174386024475 -2.402225971221924
4.073857307434082 1.6249890327453613 -2.4022226333618164
4.005585670471191 1.7866369485855103 -2.4022159576416016
3.9690427780151367 1.8664031028747559 -2.402212381362915
3.7627928256988525 2.253399610519409 -2.4021921157836914
3.7169432640075684 2.328214645385742 -2.4021875858306885
3.6208300590515137 2.4750189781188965 -2.4021780490875244
3.4102537631988525 2.644613027572632 -2.3636374473571777
3.2839550971984863 2.65354061126709 -2.312429189682007
3.1634862422943115 2.6623082160949707 -2.264462471008301
3.0890820026397705 2.707317352294922 -2.2497246265411377
2.9783105850219727 2.82869815826416 -2.249713897705078
2.921259641647339 2.8878369331359863 -2.2498135566711426
2.863027334213257 2.94582462310791 -2.2499115467071533
2.7431445121765137 3.0582427978515625 -2.2501003742218018
2.681533098220825 3.1126298904418945 -2.2501912117004395
2.6188182830810547 3.1657731533050537 -2.2502801418304443
2.490283250808716 3.2682390213012695 -2.250450372695923
2.357734203338623 3.3654730319976807 -2.2506110668182373
2.221376895904541 3.45732045173645 -2.2507617473602295
2.0814452171325684 3.5436272621154785 -2.2509024143218994
1.8653026819229126 3.6624035835266113 -2.251093626022339
1.6423925161361694 3.7679693698883057 -2.25126051902771
1.5667284727096558 3.8001561164855957 -2.2513108253479004
1.4135351181030273 3.8599400520324707 -2.2514030933380127
