ply
format ascii 1.0
element vertex 181
property float x
property float y
property float z
end_header
25.624746322631836 -26.899871826171875 -1.0461039543151855
25.531444549560547 -24.716718673706055 -1.000600814819336
25.80074119567871 -23.985057830810547 -0.9919193983078003
25.864501953125 -23.08628273010254 -0.976205587387085
25.108827590942383 -24.307586669921875 -1.7723182439804077
25.102773666381836 -23.33623695373535 -1.7381916046142578
25.143251419067383 -22.442489624023438 -1.7091834545135498
25.21826171875 -21.608442306518555 -1.6842015981674194
25.25852394104004 -20.771286010742188 -1.6584703922271729
25.207332611083984 -18.282516479492188 -1.5792075395584106
24.92167854309082 -17.316543579101562 -1.5390359163284302
25.47696304321289 -16.94821548461914 -1.5518178939819336
41.05247116088867 -23.848983764648438 -2.4077651500701904
21.680204391479492 -21.855688095092773 -2.257206439971924
22.119197845458984 -21.41339874267578 -2.257312536239624
23.381250381469727 -20.034414291381836 -2.257633686065674
24.175262451171875 -19.073537826538086 -2.257849931716919
24.973896026611328 -17.352827072143555 -2.229783535003662
25.49225616455078 -16.9583797454834 -2.24495267868042
25.92469596862793 -16.49906349182129 -2.2531638145446777
16.21574592590332 -17.022655487060547 -2.2570788860321045
16.557353973388672 -16.69135856628418 -2.257129430770874
17.213823318481445 -16.00244903564453 -2.2564070224761963
17.529619216918945 -15.646703720092773 -2.2558236122131348
17.8380069732666 -15.284637451171875 -2.255227565765381
18.994707107543945 -13.776582717895508 -2.252725839614868
19.26504898071289 -13.386122703552246 -2.25219464302063
20.835927963256836 -13.260456085205078 -2.3710989952087402
21.400897979736328 -13.019036293029785 -2.404906749725342
13.074755668640137 -13.725381851196289 -2.2517242431640625
13.347553253173828 -13.455585479736328 -2.2513303756713867
13.74819278717041 -13.3095064163208 -2.272994041442871
14.885468482971191 -13.286569595336914 -2.3700990676879883
15.368207931518555 -13.168378829956055 -2.4040257930755615
15.631845474243164 -12.85482406616211 -2.404064655303955
15.889086723327637 -12.535998344421387 -2.4041025638580322
16.383930206298828 -11.883039474487305 -2.4041755199432373
16.8519229888916 -11.210538864135742 -2.4042444229125977
17.075590133666992 -10.867287635803223 -2.4042775630950928
11.70009708404541 -12.282301902770996 -2.4034910202026367
11.946450233459473 -12.0431489944458 -2.40352725982666
12.187963485717773 -11.799067497253418 -2.4035627841949463
12.42446231842041 -11.550131797790527 -2.403597593307495
12.655868530273438 -11.296457290649414 -2.4036316871643066
12.882099151611328 -11.038134574890137 -2.403665065765381
13.10305118560791 -10.775273323059082 -2.4036974906921387
13.932318687438965 -9.6807279586792 -2.4038197994232178
14.125580787658691 -9.396862030029297 -2.40384840965271
14.313036918640137 -9.109142303466797 -2.4038760662078857
10.8839111328125 -9.714841842651367 -2.403374671936035
11.268446922302246 -9.266592025756836 -2.4034311771392822
11.634526252746582 -8.803146362304688 -2.4034852981567383
12.147705078125 -8.08111572265625 -2.4035608768463135
12.465048789978027 -7.582996845245361 -2.4036078453063965
12.616103172302246 -7.329212665557861 -2.403630256652832
9.1859130859375 -8.89279842376709 -2.403127431869507
9.875468254089355 -8.121070861816406 -2.403228998184204
10.037915229797363 -7.919605731964111 -2.4032530784606934
10.19625473022461 -7.714888572692871 -2.403276205062866
10.350415229797363 -7.507008075714111 -2.40329909324646
7.840810298919678 -8.230985641479492 -2.4029316902160645
8.00588321685791 -8.070682525634766 -2.402956008911133
8.167685508728027 -7.907064437866211 -2.402979850769043
8.481171607971191 -7.570174217224121 -2.4030261039733887
8.632734298706055 -7.397027492523193 -2.403048276901245
8.780766487121582 -7.220846176147461 -2.4030702114105225
8.92519474029541 -7.041705131530762 -2.4030914306640625
9.065966606140137 -6.859673976898193 -2.4031121730804443
9.713031768798828 -5.9088335037231445 -2.403207540512085
7.345658779144287 -7.111267566680908 -2.402860641479492
7.488144397735596 -6.961195468902588 -2.402881622314453
7.897006511688232 -6.494091510772705 -2.402941942214966
8.513046264648438 -5.6631975173950195 -2.4030327796936035
8.84122085571289 -5.136232852935791 -2.403081178665161
6.400668621063232 -6.719174861907959 -2.4027230739593506
6.535409927368164 -6.5883026123046875 -2.402742862701416
6.66747522354126 -6.454723834991455 -2.4027624130249023
6.796811580657959 -6.318504333496094 -2.4027812480926514
7.047070026397705 -6.03833532333374 -2.402818202972412
7.167895317077637 -5.894512176513672 -2.4028360843658447
7.285786151885986 -5.748262405395508 -2.40285325050354
7.400693416595459 -5.599656105041504 -2.4028701782226562
7.512499809265137 -5.448757171630859 -2.4028868675231934
7.621313095092773 -5.295621395111084 -2.402902841567993
7.829540729522705 -4.982897758483887 -2.4029335975646973
7.928837776184082 -4.8234357833862305 -2.4029481410980225
5.977109432220459 -6.025482654571533 -2.4026620388031006
6.097880840301514 -5.903312683105469 -2.402679681777954
6.216166973114014 -5.778726100921631 -2.4026973247528076
6.331899166107178 -5.651768207550049 -2.402714252471924
6.663354396820068 -5.2571845054626465 -2.4027628898620605
6.768437385559082 -5.121272563934326 -2.4027786254882812
6.970248699188232 -4.843204021453857 -2.402808427810669
7.16063928604126 -4.557192325592041 -2.402836322784424
7.251445293426514 -4.411348819732666 -2.4028499126434326
5.387719631195068 -5.655823707580566 -2.402576446533203
5.50112771987915 -5.545653343200684 -2.4025931358337402
5.827656269073486 -5.201687335968018 -2.4026410579681396
5.931782245635986 -5.082698345184326 -2.402656316757202
6.033486366271973 -4.96162748336792 -2.4026713371276855
6.132704734802246 -4.838517189025879 -2.4026858806610107
6.229418754577637 -4.713428974151611 -2.402700185775757
6.41515588760376 -4.4575018882751465 -2.4027276039123535
6.504091739654541 -4.326769828796387 -2.402740716934204
6.590375900268555 -4.194261074066162 -2.4027535915374756
6.67394495010376 -4.060031890869141 -2.402765989303589
5.192978382110596 -5.027278423309326 -2.4025485515594482
5.392255783081055 -4.813052177429199 -2.4025778770446777
5.488588809967041 -4.702949047088623 -2.402592182159424
5.582690238952637 -4.590919017791748 -2.4026060104370117
5.763984203338623 -4.361262798309326 -2.402632713317871
5.935834884643555 -4.12445592880249 -2.402657985687256
6.018129825592041 -4.003488540649414 -2.40267014503479
6.175282955169678 -3.7566795349121094 -2.402693510055542
4.731308460235596 -4.769601821899414 -2.4024815559387207
4.826904296875 -4.672887325286865 -2.4024956226348877
5.101679801940918 -4.3714165687561035 -2.402535915374756
5.274482250213623 -4.161402702331543 -2.4025614261627197
5.43862771987915 -3.94456148147583 -2.402585506439209
5.517382621765137 -3.833695650100708 -2.402597188949585
5.59386682510376 -3.721254587173462 -2.4026083946228027
4.324018478393555 -4.539183139801025 -2.4024221897125244
4.591591835021973 -4.268473148345947 -2.402461528778076
4.760629653930664 -4.079185962677002 -2.4024863243103027
4.999501705169678 -3.7828056812286377 -2.4025216102600098
4.133862018585205 -4.167325973510742 -2.4023947715759277
4.299184322357178 -3.996645927429199 -2.402419090270996
4.379223346710205 -3.9088289737701416 -2.402431011199951
4.457456111907959 -3.819411039352417 -2.402442455291748
4.681103229522705 -3.541904926300049 -2.402475357055664
4.887475490570068 -3.2513365745544434 -2.402505874633789
5.015102386474609 -3.050891160964966 -2.402524709701538
3.8020312786102295 -3.991222381591797 -2.402346611022949
4.037304401397705 -3.7531821727752686 -2.402381181716919
4.185937404632568 -3.5867412090301514 -2.4024031162261963
4.257675647735596 -3.501300573348999 -2.4024136066436768
4.327690124511719 -3.4144225120544434 -2.402423858642578
4.395942211151123 -3.326141595840454 -2.4024341106414795
4.526982307434082 -3.1455318927764893 -2.4024531841278076
4.589745998382568 -3.053269624710083 -2.4024624824523926
4.709584712982178 -2.8650362491607666 -2.402480363845825
3.6549949645996094 -3.6845715045928955 -2.402325391769409
3.801157236099243 -3.533658742904663 -2.4023468494415283
3.8719091415405273 -3.4560179710388184 -2.402357339859009
4.074555397033691 -3.214714288711548 -2.4023871421813965
4.262197017669678 -2.961540460586548 -2.4024147987365723
4.378588676452637 -2.786637306213379 -2.4024319648742676
4.434115886688232 -2.697451114654541 -2.402440309524536
3.3779101371765137 -3.546004295349121 -2.402285099029541
3.586928606033325 -3.3345134258270264 -2.402315855026245
3.6537108421325684 -3.261241912841797 -2.4023256301879883
3.844926595687866 -3.0335328578948975 -2.4023537635803223
3.9055614471435547 -2.955098867416382 -2.402362823486328
4.131821155548096 -2.6295855045318604 -2.4023962020874023
4.1842041015625 -2.54542875289917 -2.4024038314819336
3.1938915252685547 -3.352829933166504 -2.4022583961486816
3.261118173599243 -3.287510871887207 -2.402268409729004
3.45464825630188 -3.0835814476013184 -2.402296781539917
3.576650381088257 -2.9412572383880615 -2.4023146629333496
3.6354637145996094 -2.868271827697754 -2.4023234844207764
3.6927831172943115 -2.794109344482422 -2.402331829071045
3.9562597274780273 -2.406754493713379 -2.4023706912994385
3.1512646675109863 -3.0507214069366455 -2.402252435684204
3.2123827934265137 -2.9863226413726807 -2.40226149559021
3.2721776962280273 -2.9207022190093994 -2.4022703170776367
3.330634593963623 -2.8538856506347656 -2.4022789001464844
3.497734308242798 -2.6465227603912354 -2.402303457260132
3.550590753555298 -2.5751943588256836 -2.402311325073242
3.651928663253784 -2.4294018745422363 -2.4023263454437256
3.7003660202026367 -2.354994773864746 -2.4023334980010986
3.7472801208496094 -2.279623031616211 -2.4023404121398926
3.79266095161438 -2.2033140659332275 -2.4023470878601074
2.930224657058716 -2.9539403915405273 -2.4022204875946045
3.0473926067352295 -2.8329498767852783 -2.4022374153137207
3.1595799922943115 -2.7073111534118652 -2.402254104614258
3.2137451171875 -2.6428136825561523 -2.402261972427368
3.2665820121765137 -2.5772340297698975 -2.4022698402404785
3.3180859088897705 -2.510596513748169 -2.4022774696350098
3.510307550430298 -2.234039068222046 -2.402305841445923
3.554819345474243 -2.162541151046753 -2.4023125171661377
3.5978710651397705 -2.09015154838562 -2.4023187160491943
