ply
format ascii 1.0
element vertex 385
property float x
property float y
property float z
end_header
-18.629453659057617 -7.640976428985596 3.550441265106201
-18.140878677368164 -8.73651123046875 3.550342321395874
-17.963607788085938 -9.094979286193848 3.550307512283325
-16.97249984741211 -10.830575942993164 3.5501208305358887
-16.753881454467773 -11.16538143157959 3.5500810146331787
-16.528642654418945 -11.49577808380127 3.5500407218933105
-16.296903610229492 -11.821638107299805 3.549999237060547
-16.058719635009766 -12.14281177520752 3.549957275390625
-15.81419849395752 -12.459181785583496 3.5499143600463867
-15.306571960449219 -13.077049255371094 3.5498266220092773
-14.854066848754883 -14.305651664733887 3.6363353729248047
-14.854047775268555 -14.885469436645508 3.70798397064209
-14.798070907592773 -15.4304780960083 3.769779682159424
-39.43783187866211 -16.175642013549805 6.530094623565674
-21.26555061340332 -9.219710350036621 3.5507593154907227
-20.882171630859375 -10.05670166015625 3.550682306289673
-20.465877532958984 -10.877817153930664 3.5506017208099365
-20.017269134521484 -11.681689262390137 3.550516366958618
-19.78107452392578 -12.076780319213867 3.5504722595214844
-19.537065505981445 -12.46708869934082 3.5504276752471924
-19.285381317138672 -12.852470397949219 3.550381898880005
-17.914920806884766 -14.700139045715332 3.550140380859375
-17.61919403076172 -15.05282211303711 3.550089120864868
-17.31649398803711 -15.39953327178955 3.550037145614624
-16.368022918701172 -16.402647018432617 3.549877882003784
-15.8721923828125 -16.550504684448242 3.512948513031006
-39.43796920776367 -16.175695419311523 5.550839900970459
-39.43792724609375 -18.037090301513672 5.647273540496826
-39.437904357910156 -18.993019104003906 5.700173854827881
-39.39772415161133 -19.947063446044922 5.750494956970215
-38.7750129699707 -22.62834930419922 5.846235275268555
-38.37355422973633 -23.427919387817383 5.8547234535217285
-36.13943099975586 -24.084613800048828 5.655429363250732
-34.628822326660156 -24.084579467773438 5.492826461791992
-33.202110290527344 -24.084543228149414 5.341345310211182
-20.905405044555664 -16.470279693603516 3.4656872749328613
-20.115814208984375 -16.50608253479004 3.38848876953125
-19.278261184692383 -16.470245361328125 3.301863431930542
-17.88258171081543 -16.550527572631836 3.172971725463867
-17.162290573120117 -16.528650283813477 3.1028130054473877
-15.872177124023438 -16.55048942565918 2.986130952835083
-39.43806457519531 -18.03714942932129 4.65682315826416
-39.43804168701172 -18.993087768554688 4.700442790985107
-38.16267013549805 -23.29916000366211 4.801346778869629
-37.64731979370117 -24.023691177368164 4.795600414276123
-33.202064514160156 -24.084516525268555 4.404534816741943
-21.88795280456543 -16.550594329833984 2.9466552734375
-20.11589813232422 -16.506145477294922 2.794196605682373
-18.61076545715332 -16.550527572631836 2.6743884086608887
-17.8825626373291 -16.550514221191406 2.616467237472534
-16.435400009155273 -16.470172882080078 2.498502254486084
-40.35283279418945 -16.550941467285156 3.692141056060791
-38.1751594543457 -16.5508975982666 3.5222837924957275
-37.765682220458984 -20.07283592224121 3.6204919815063477
-37.76565933227539 -21.045175552368164 3.659837007522583
-37.63701248168945 -22.97824478149414 3.7329320907592773
-37.41204071044922 -23.873554229736328 3.7569072246551514
-35.82268142700195 -23.87351417541504 3.644207715988159
-34.325321197509766 -23.873477935791016 3.5394256114959717
-21.887929916381836 -16.550575256347656 2.322944164276123
-20.115976333618164 -16.506214141845703 2.202775478363037
-18.610755920410156 -16.550512313842773 2.108311891555786
-16.43538475036621 -16.470157623291016 1.9696851968765259
-15.872142791748047 -16.550457000732422 1.9411927461624146
-37.765872955322266 -17.272357940673828 2.5751805305480957
-37.76583480834961 -19.120849609375 2.6249260902404785
-37.76581573486328 -20.072893142700195 2.652111053466797
-37.76579666137695 -21.04525375366211 2.680936336517334
-37.765769958496094 -22.039377212524414 2.7114806175231934
-37.63714599609375 -22.97832489013672 2.734477996826172
-37.6370735168457 -26.176855087280273 2.8428680896759033
-21.781694412231445 -16.470243453979492 1.6933618783950806
-20.905336380004883 -16.470226287841797 1.6503382921218872
-20.072099685668945 -16.470211029052734 1.610068440437317
-17.101531982421875 -16.47015380859375 1.4723072052001953
-37.98978042602539 -16.47052574157715 1.6327054500579834
-37.76596450805664 -19.12091064453125 1.6691404581069946
-37.765926361083984 -21.045318603515625 1.7047544717788696
-37.63728332519531 -22.9783878326416 1.7388017177581787
-37.63724136352539 -25.082807540893555 1.783447027206421
-37.63721466064453 -26.176923751831055 1.8077290058135986
-21.78166961669922 -16.470226287841797 1.0767719745635986
-20.905330657958984 -16.4702091217041 1.0493824481964111
-20.072065353393555 -16.47019386291504 1.0238053798675537
-19.278182983398438 -16.470178604125977 0.9998063445091248
-17.79572296142578 -16.470151901245117 0.9561100602149963
-15.795092582702637 -16.470115661621094 0.8998149037361145
-40.15684509277344 -16.470539093017578 0.7331587076187134
-37.98973083496094 -16.470500946044922 0.6994419693946838
-37.765342712402344 -19.12060546875 0.7150294184684753
-37.76531982421875 -20.072629928588867 0.7224369645118713
-37.76528549194336 -22.03909683227539 0.7386054992675781
-37.55710983276367 -22.929468154907227 0.7433012127876282
-37.55704116821289 -26.121191024780273 0.7727616429328918
-21.78165054321289 -16.4702091217041 0.4612773060798645
-17.79570198059082 -16.470134735107422 0.4095896780490875
-16.435346603393555 -16.470111846923828 0.39303237199783325
-37.76548767089844 -18.18758201599121 -0.23599974811077118
-37.765472412109375 -19.12066650390625 -0.2383233606815338
-37.76545715332031 -20.07271957397461 -0.24079100787639618
-38.22551345825195 -24.39264678955078 -0.25530287623405457
-38.22549819946289 -25.474843978881836 -0.25862884521484375
-38.22547149658203 -26.586063385009766 -0.2621493339538574
-38.2254524230957 -27.728431701660156 -0.2658698856830597
-21.869842529296875 -16.536895751953125 -0.1543690413236618
-21.753549575805664 -17.13848114013672 -0.15591827034950256
-19.271854400634766 -17.138437271118164 -0.14520126581192017
-17.79542350769043 -17.138410568237305 -0.13910308480262756
-17.10222053527832 -17.138397216796875 -0.13631713390350342
-40.156673431396484 -16.470483779907227 -1.22214937210083
-37.9896240234375 -16.47044563293457 -1.1659307479858398
-37.76563262939453 -17.27225112915039 -1.1693391799926758
-37.76560592651367 -19.120718002319336 -1.1919296979904175
-37.765560150146484 -22.039262771606445 -1.2312270402908325
-38.22563934326172 -25.474939346313477 -1.2934752702713013
-38.22561264038086 -26.586166381835938 -1.3110907077789307
-21.753524780273438 -17.13846206665039 -0.7797968983650208
-20.060375213623047 -17.13843536376953 -0.7429348826408386
-18.517778396606445 -17.138408660888672 -0.7104688882827759
-17.10220718383789 -17.138383865356445 -0.6817516684532166
-37.765750885009766 -18.187725067138672 -2.12579083442688
-37.7657356262207 -19.120792388916016 -2.1467480659484863
-37.76572036743164 -20.072856903076172 -2.1689844131469727
-38.321781158447266 -22.36386489868164 -2.2501943111419678
-37.87158203125 -23.121429443359375 -2.250277519226074
-37.40623092651367 -23.86983871459961 -2.2503623962402344
-21.75350570678711 -17.138444900512695 -1.4044628143310547
-20.886444091796875 -17.138431549072266 -1.3701958656311035
-20.060365676879883 -17.138418197631836 -1.3380712270736694
-18.51775360107422 -17.138391494750977 -1.2795987129211426
-15.795039176940918 -16.470054626464844 -1.157288670539856
-30.259994506835938 -12.411239624023438 -2.3980915546417236
-26.500341415405273 -15.465096473693848 -2.2497313022613525
-25.888206481933594 -16.51991081237793 -2.2517263889312744
-25.555912017822266 -17.031370162963867 -2.2518064975738525
-24.86081886291504 -18.033828735351562 -2.2519302368164062
-19.271800994873047 -17.13838768005371 -1.890979290008545
-18.517744064331055 -17.13837432861328 -1.8500328063964844
-17.795366287231445 -17.138364791870117 -1.8115153312683105
-17.1021728515625 -17.13835334777832 -1.775256872177124
-15.795023918151855 -16.470041275024414 -1.6732043027877808
-23.1191349029541 -9.482442855834961 -2.3989923000335693
-22.72514533996582 -10.393415451049805 -2.3990728855133057
-22.29524803161621 -11.288081169128418 -2.399157762527466
-22.067041397094727 -11.72884750366211 -2.3992018699645996
-21.584707260131836 -12.596424102783203 -2.3992934226989746
-19.216644287109375 -13.36534309387207 -2.247241973876953
-18.68083381652832 -14.12551498413086 -2.248450756072998
-18.40247917175293 -14.498344421386719 -2.2491650581359863
-18.1165714263916 -14.865602493286133 -2.2498700618743896
-17.823266983032227 -15.227179527282715 -2.250566005706787
-17.522708892822266 -15.582917213439941 -2.2512526512145996
-17.214946746826172 -15.932636260986328 -2.25192928314209
-15.795023918151855 -16.47002601623535 -2.1908175945281982
-18.53398895263672 -8.035435676574707 -2.399583339691162
-18.37098503112793 -8.402037620544434 -2.399616241455078
-18.023334503173828 -9.125215530395508 -2.3996849060058594
-17.647294998168945 -9.83406925201416 -2.399757146835327
-17.24336814880371 -10.527456283569336 -2.3998327255249023
-16.812259674072266 -11.204286575317383 -2.399911642074585
-16.586708068847656 -11.53616714477539 -2.3999524116516113
-16.354604721069336 -11.863500595092773 -2.399993658065796
-15.871147155761719 -12.504048347473145 -2.400078773498535
-15.36263656616211 -13.124954223632812 -2.4001667499542236
-14.949345588684082 -13.29448127746582 -2.3763949871063232
-14.371806144714355 -13.301274299621582 -2.326120615005493
-13.817777633666992 -13.307625770568848 -2.2787837982177734
-15.671064376831055 -6.427574157714844 -2.3999321460723877
-15.540497779846191 -6.737599849700928 -2.399958848953247
-15.403793334960938 -7.044978618621826 -2.399986743927002
-15.261030197143555 -7.349600791931152 -2.400015115737915
-15.112236022949219 -7.651326656341553 -2.4000442028045654
-14.796835899353027 -8.24563980102539 -2.4001047611236572
-14.630346298217773 -8.537988662719727 -2.4001359939575195
-14.45809555053711 -8.826987266540527 -2.4001681804656982
-14.2801513671875 -9.112509727478027 -2.400200843811035
-13.907485008239746 -9.672696113586426 -2.400268316268921
-13.71275806427002 -9.947115898132324 -2.4003031253814697
-13.512680053710938 -10.217621803283691 -2.4003384113311768
-13.307313919067383 -10.484137535095215 -2.400374412536621
-12.88084888458252 -11.00466251373291 -2.4004480838775635
-12.659955978393555 -11.258471488952637 -2.4004859924316406
-12.43407154083252 -11.507878303527832 -2.400524139404297
-12.20328140258789 -11.752724647521973 -2.4005630016326904
-11.727313995361328 -12.228471755981445 -2.4006423950195312
-13.47998046875 -5.528880596160889 -2.4002084732055664
-13.127192497253418 -6.321962356567383 -2.400279998779297
-12.99917984008789 -6.581485271453857 -2.4003050327301025
-12.86605453491211 -6.838431358337402 -2.4003307819366455
-12.436410903930664 -7.592705726623535 -2.400411605834961
-12.2833251953125 -7.8382887840271 -2.400439739227295
-12.125380516052246 -8.080781936645508 -2.400468587875366
-11.265199661254883 -9.243682861328125 -2.400620460510254
-10.889511108398438 -9.684022903442383 -2.4006848335266113
-10.496644973754883 -10.109106063842773 -2.4007513523101807
-11.71712875366211 -5.07997465133667 -2.4004387855529785
-11.61403751373291 -5.311720371246338 -2.4004597663879395
-11.394135475158691 -5.7688517570495605 -2.400502920150757
-11.156264305114746 -6.216907978057861 -2.4005486965179443
-10.766581535339355 -6.870420932769775 -2.400621175765991
-10.485478401184082 -7.29271936416626 -2.400672197341919
-10.338690757751465 -7.49960470199585 -2.40069842338562
-10.187822341918945 -7.703533172607422 -2.4007248878479004
-10.032949447631836 -7.904430866241455 -2.400752067565918
-9.874091148376465 -8.102208137512207 -2.4007797241210938
-9.711347579956055 -8.296815872192383 -2.4008076190948486
-9.022714614868164 -9.041791915893555 -2.40092396736145
-10.419687271118164 -4.517470359802246 -2.400601625442505
-10.232226371765137 -4.927768230438232 -2.400639057159424
-10.132421493530273 -5.130044460296631 -2.4006588459014893
-10.028573989868164 -5.330312252044678 -2.400678873062134
-9.920868873596191 -5.528470516204834 -2.4006993770599365
-9.059599876403809 -6.850418567657471 -2.4008560180664062
-8.635848999023438 -7.377971172332764 -2.4009296894073486
-8.48770523071289 -7.548104286193848 -2.4009549617767334
-8.336220741271973 -7.715271949768066 -2.4009807109832764
-7.862246036529541 -8.198256492614746 -2.401059865951538
-9.450761795043945 -3.876284122467041 -2.400716781616211
-9.37198257446289 -4.063232421875 -2.400733232498169
-9.289502143859863 -4.248584747314453 -2.400749683380127
-9.020215034484863 -4.794332504272461 -2.4008026123046875
-8.718925476074219 -5.323090553283691 -2.4008593559265137
-8.500800132751465 -5.665229320526123 -2.4008991718292236
-8.148573875427246 -6.1615447998046875 -2.4009621143341064
-7.497890472412109 -6.939387798309326 -2.401073932647705
-7.216552734375 -7.231810569763184 -2.401121139526367
-7.071572303771973 -7.373773574829102 -2.4011452198028564
-8.507451057434082 -3.6884171962738037 -2.40084171295166
-8.432568550109863 -3.8566691875457764 -2.4008567333221436
-8.354374885559082 -4.023406505584717 -2.400872230529785
-8.272871017456055 -4.188554286956787 -2.400888204574585
-8.188115119934082 -4.352062702178955 -2.400904655456543
-7.914589881896973 -4.832031726837158 -2.400956153869629
-7.817128658294678 -4.988297939300537 -2.4009740352630615
-7.716591835021973 -5.142604351043701 -2.4009923934936523
-7.396835803985596 -5.593117713928223 -2.4010493755340576
-7.168993949890137 -5.882540225982666 -2.4010891914367676
-7.05081033706665 -6.023809909820557 -2.401109457015991
-6.929853439331055 -6.162703514099121 -2.401130199432373
-6.80615234375 -6.299177169799805 -2.401151180267334
-6.419150352478027 -6.6934709548950195 -2.4012157917022705
-7.641220569610596 -3.6799583435058594 -2.400960683822632
-7.489150047302246 -3.980555295944214 -2.4009904861450195
-7.325263500213623 -4.2748799324035645 -2.4010214805603027
-7.149804592132568 -4.562472343444824 -2.4010539054870605
-7.057558536529541 -4.703590393066406 -2.4010705947875977
-6.765370845794678 -5.115640640258789 -2.401122808456421
-6.662402153015137 -5.249025344848633 -2.4011409282684326
-6.556933403015137 -5.38035249710083 -2.4011590480804443
-6.225107192993164 -5.7614006996154785 -2.4012157917022705
-6.109501838684082 -5.883939743041992 -2.401235342025757
-5.87112283706665 -6.12202262878418 -2.4012749195098877
-7.222255706787109 -2.962244749069214 -2.400998115539551
-7.162021160125732 -3.1051056385040283 -2.401010274887085
-7.098984241485596 -3.2467479705810547 -2.4010231494903564
-6.496161937713623 -4.329272747039795 -2.401137351989746
-6.408945083618164 -4.45746374130249 -2.401153087615967
-6.035146236419678 -4.9521589279174805 -2.401218891143799
-5.935654163360596 -5.071077346801758 -2.401235818862915
-5.5146484375 -5.526309490203857 -2.4013071060180664
-6.627294540405273 -2.8732705116271973 -2.4010775089263916
-6.508017539978027 -3.1342194080352783 -2.401101589202881
-6.444530963897705 -3.2628657817840576 -2.401113748550415
-6.378486156463623 -3.390228509902954 -2.4011266231536865
-6.309941291809082 -3.5162553787231445 -2.401139736175537
-6.011113166809082 -4.00602388381958 -2.4011950492858887
-5.847362995147705 -4.241627216339111 -2.401224374771118
-5.762001991271973 -4.356942176818848 -2.4012393951416016
-5.584511756896973 -4.582386016845703 -2.4012703895568848
-5.102870941162109 -5.113650321960449 -2.4013519287109375
-6.106162071228027 -2.792678117752075 -2.4011471271514893
-6.049530982971191 -2.913407802581787 -2.401158332824707
-5.990498065948486 -3.0329904556274414 -2.401169776916504
-5.929111003875732 -3.151383399963379 -2.401181697845459
-5.799355506896973 -3.3843870162963867 -2.4012062549591064
-5.66042947769165 -3.612060785293579 -2.4012320041656494
-5.587607383728027 -3.723783493041992 -2.401245355606079
-5.435390472412109 -3.9427850246429443 -2.4012725353240967
-5.274580001831055 -4.155572891235352 -2.4013009071350098
-4.928281307220459 -4.561180114746094 -2.401360273361206
-4.836767673492432 -4.6581830978393555 -2.4013757705688477
-4.648017406463623 -4.846648216247559 -2.40140700340271
-5.79714822769165 -2.3777315616607666 -2.4011778831481934
-5.748798847198486 -2.4924049377441406 -2.4011876583099365
-5.698203086853027 -2.6060948371887207 -2.401197910308838
-5.645351409912109 -2.7187588214874268 -2.4012084007263184
-5.590273380279541 -2.8303515911102295 -2.401219367980957
-5.411874771118164 -3.158268928527832 -2.4012532234191895
-5.282236099243164 -3.370727062225342 -2.4012773036956787
-5.214286804199219 -3.4749810695648193 -2.401289701461792
-5.072216510772705 -3.679349184036255 -2.401315212249756
-4.764345645904541 -4.070375919342041 -2.4013688564300537
-4.598984241485596 -4.256415367126465 -2.4013969898223877
-4.513564586639404 -4.346933364868164 -2.401411294937134
-4.426386833190918 -4.4357428550720215 -2.401425838470459
-4.337450981140137 -4.5228071212768555 -2.4014406204223633
-5.428173542022705 -2.226395606994629 -2.401224374771118
-5.382910251617432 -2.3337697982788086 -2.401233673095703
-5.180810451507568 -2.7536492347717285 -2.401273488998413
-5.125126838684082 -2.856008291244507 -2.4012842178344727
-5.06741189956665 -2.957245349884033 -2.4012951850891113
-5.007704734802246 -3.0573129653930664 -2.40130615234375
-4.946025371551514 -3.156174898147583 -2.401317596435547
-4.882382869720459 -3.253798246383667 -2.4013290405273438
-4.816835880279541 -3.350137948989868 -2.401340961456299
-4.749365329742432 -3.445152521133423 -2.401352882385254
-4.680038928985596 -3.538814067840576 -2.401365041732788
-4.608857154846191 -3.6310789585113525 -2.4013776779174805
-4.535869121551514 -3.721912145614624 -2.401390314102173
-4.461074352264404 -3.811284065246582 -2.4014031887054443
-4.306250095367432 -3.985480785369873 -2.4014296531677246
-4.144629001617432 -4.153395175933838 -2.401456594467163
-4.061347484588623 -4.234908580780029 -2.401470422744751
-5.055165767669678 -2.191676378250122 -2.4012749195098877
-4.964189529418945 -2.3907158374786377 -2.4012930393218994
-4.813076019287109 -2.682116985321045 -2.401322364807129
-4.585107326507568 -3.055682897567749 -2.401364326477051
-4.523544788360596 -3.146155834197998 -2.4013755321502686
-4.460195064544678 -3.2353854179382324 -2.4013867378234863
-4.395078182220459 -3.3233413696289062 -2.401398181915283
-4.328232288360596 -3.409987688064575 -2.4014101028442383
-4.259677410125732 -3.4952871799468994 -2.4014220237731934
-3.968935489654541 -3.8223977088928223 -2.4014713764190674
-3.892275333404541 -3.900491237640381 -2.401484251022339
-3.8140525817871094 -3.9770426750183105 -2.4014971256256104
-4.759628772735596 -2.0635461807250977 -2.4013118743896484
-4.717724323272705 -2.1576695442199707 -2.401320219039917
-4.673974514007568 -2.2509469985961914 -2.4013290405273438
-4.628359317779541 -2.343337297439575 -2.4013381004333496
-4.580917835235596 -2.4348034858703613 -2.4013471603393555
-4.480654239654541 -2.614821434020996 -2.4013662338256836
-4.427861213684082 -2.7033042907714844 -2.4013760089874268
-4.373310565948486 -2.790719747543335 -2.401386022567749
-4.138114929199219 -3.129040479660034 -2.40142822265625
-4.075175762176514 -3.2106218338012695 -2.4014391899108887
-4.010624885559082 -3.2909350395202637 -2.4014503955841064
-3.944511651992798 -3.3699536323547363 -2.4014618396759033
-3.876826047897339 -3.4476444721221924 -2.4014732837677
-3.736884593963623 -3.598914384841919 -2.4014968872070312
-3.664677619934082 -3.6724395751953125 -2.4015090465545654
-3.5910449028015137 -3.7445127964019775 -2.4015212059020996
-4.529286861419678 -1.8577117919921875 -2.4013376235961914
-4.491513729095459 -1.9473024606704712 -2.4013454914093018
-4.41067361831665 -2.1241466999053955 -2.4013617038726807
-4.228241920471191 -2.4675228595733643 -2.4013967514038086
-4.073857307434082 -2.7149596214294434 -2.4014251232147217
-4.019150257110596 -2.795342445373535 -2.401435136795044
-3.9628612995147705 -2.8746228218078613 -2.401445150375366
-3.9050097465515137 -2.9527695178985596 -2.4014554023742676
-3.722285032272339 -3.1801092624664307 -2.401486873626709
-3.6584179401397705 -3.253422260284424 -2.4014978408813477
-3.593085765838623 -3.3254518508911133 -2.4015090465545654
-3.526357412338257 -3.396167516708374 -2.401520252227783
-3.458242177963257 -3.465549945831299 -2.40153169631958
-4.209531307220459 -1.9252499341964722 -2.401383876800537
-4.043535232543945 -2.2532830238342285 -2.401416063308716
-3.997997999191284 -2.3331518173217773 -2.4014246463775635
-3.9508886337280273 -2.4121012687683105 -2.4014334678649902
-3.9022068977355957 -2.490098237991333 -2.401442289352417
-3.8520116806030273 -2.5671145915985107 -2.401451587677002
-3.5785937309265137 -2.9364216327667236 -2.4014997482299805
-3.4591894149780273 -3.076247453689575 -2.401520252227783
-3.3974218368530273 -3.1443536281585693 -2.4015307426452637
-3.3343162536621094 -3.2112178802490234 -2.4015414714813232
-3.987294912338257 -1.8235992193222046 -2.401411533355713
-3.830029249191284 -2.1343095302581787 -2.401442050933838
-3.7869040966033936 -2.2099623680114746 -2.4014503955841064
-3.7422752380371094 -2.2847423553466797 -2.401458501815796
-3.696171760559082 -2.358621835708618 -2.4014670848846436
-3.549208879470825 -2.5745651721954346 -2.401493549346924
-3.497392416000366 -2.644552230834961 -2.4015026092529297
-3.389638662338257 -2.7813754081726074 -2.4015214443206787
-3.333750009536743 -2.8481571674346924 -2.4015309810638428
-3.2180371284484863 -2.978327512741089 -2.401550769805908
-3.816171884536743 -1.6545089483261108 -2.401430368423462
-3.782587766647339 -1.729976773262024 -2.4014370441436768
-3.7474803924560547 -1.8047631978988647 -2.4014439582824707
-3.7109179496765137 -1.8788366317749023 -2.4014511108398438
-3.6728711128234863 -1.9521721601486206 -2.401458501815796
-3.592480421066284 -2.096503257751465 -2.4014737606048584
-3.506415843963623 -2.2375290393829346 -2.401489734649658
-3.4148242473602295 -2.375026226043701 -2.401506185531616
-3.3669919967651367 -2.442384958267212 -2.401514768600464
-3.1625781059265137 -2.7019267082214355 -2.40155029296875
-2.8791699409484863 -3.0022196769714355 -2.4015953540802
