ply
format ascii 1.0
element vertex 411
property float x
property float y
property float z
end_header
5.102392673492432 6.273361682891846 1.4258466958999634
4.899955749511719 6.273360252380371 1.40359628200531
4.147631645202637 6.273354530334473 1.3260648250579834
3.6335058212280273 6.273349285125732 1.2783069610595703
3.4700536727905273 6.273348331451416 1.2641078233718872
3.310131788253784 6.273346900939941 1.2507020235061646
3.104311466217041 6.49157190322876 1.2687864303588867
3.104321241378784 6.834887504577637 1.3236567974090576
3.1043553352355957 8.072134971618652 1.5249613523483276
3.104374885559082 8.57332706451416 1.6077604293823242
3.1043896675109863 9.132292747497559 1.7007654905319214
3.1044092178344727 9.76017951965332 1.8059394359588623
3.10442852973938 10.471112251281738 1.9257755279541016
4.899965763092041 6.273360252380371 1.2194569110870361
4.703676700592041 6.273359298706055 1.2011774778366089
4.327880859375 6.273355484008789 1.167553186416626
4.147631645202637 6.273354530334473 1.1520963907241821
3.6335105895996094 6.273349285125732 1.1106038093566895
3.4700536727905273 6.273346900939941 1.098267912864685
3.1042919158935547 7.209288120269775 1.2024580240249634
3.104301691055298 7.619756698608398 1.2604584693908691
3.104311466217041 8.072005271911621 1.3248786926269531
3.1043357849121094 9.132144927978516 1.4776145219802856
3.1043701171875 10.470932006835938 1.6731001138687134
5.102397441864014 6.273361682891846 1.0530155897140503
4.899960994720459 6.273360252380371 1.0365828275680542
4.513114929199219 6.27335786819458 1.0063565969467163
4.327880859375 6.273355484008789 0.9924635291099548
4.147626876831055 6.273354530334473 0.9793247580528259
3.6335105895996094 6.273348331451416 0.9440534710884094
3.104238271713257 6.491413593292236 0.9369993209838867
3.104243040084839 6.834715366363525 0.9775214791297913
3.104252815246582 7.209200382232666 1.0221208333969116
3.1042871475219727 9.132002830505371 1.256007194519043
3.104311466217041 10.470726013183594 1.4221683740615845
5.102392673492432 6.273361682891846 0.868327796459198
4.899960994720459 6.273360252380371 0.8547791838645935
4.703676700592041 6.27335786819458 0.8419685363769531
4.147626876831055 6.273354530334473 0.8075639009475708
3.800732374191284 6.273350715637207 0.7876328825950623
3.310126781463623 6.273345947265625 0.761667013168335
3.103442430496216 6.489753246307373 0.7724637985229492
3.103447198867798 6.832956314086914 0.80586838722229
3.1042284965515137 8.572930335998535 0.9790672063827515
3.104238271713257 9.131850242614746 1.0357019901275635
3.104257822036743 10.470541000366211 1.1727176904678345
3.1042675971984863 11.282793998718262 1.2565852403640747
4.899960994720459 6.273360252380371 0.6738511323928833
4.513110160827637 6.273355484008789 0.6542032957077026
4.327885627746582 6.273354530334473 0.6451704502105713
3.9720165729522705 6.273352146148682 0.6285536289215088
3.800737142562866 6.273350715637207 0.6209183931350708
3.6335058212280273 6.273348331451416 0.6137019395828247
3.310131788253784 6.273345947265625 0.6004481315612793
3.15350079536438 6.27334451675415 0.5943772792816162
3.103408098220825 6.832874774932861 0.6352869868278503
3.103408098220825 7.207238674163818 0.6642698645591736
3.1034131050109863 7.617575645446777 0.6963096261024475
3.1034178733825684 8.06968879699707 0.7318962216377258
3.1034228801727295 8.570701599121094 0.7716324925422668
3.1034326553344727 9.75712776184082 0.8667423725128174
3.1042089462280273 11.282575607299805 0.9905900359153748
5.311435222625732 6.273364067077637 0.5097178816795349
5.102397441864014 6.273360252380371 0.5014387369155884
4.899960994720459 6.273359298706055 0.49361371994018555
4.703671932220459 6.27335786819458 0.4862159490585327
4.513110160827637 6.273355484008789 0.4792207181453705
3.6335105895996094 6.273349285125732 0.44955185055732727
3.470048666000366 6.273345947265625 0.44455915689468384
3.1033689975738525 6.489595890045166 0.4460676610469818
3.1033689975738525 7.207142353057861 0.4865879714488983
3.1033689975738525 7.617471694946289 0.5100575089454651
3.1033740043640137 8.570571899414062 0.5652323961257935
3.1033787727355957 9.1293306350708 0.5979267954826355
3.103383779525757 10.467597007751465 0.6770246624946594
3.103388547897339 11.279595375061035 0.7254413962364197
5.102397441864014 6.273361682891846 0.3188542127609253
4.703671932220459 6.27335786819458 0.3091740310192108
4.513114929199219 6.273355484008789 0.30472609400749207
4.327885627746582 6.273354530334473 0.3005189299583435
3.9720165729522705 6.273350715637207 0.2927790880203247
3.800737142562866 6.273350715637207 0.28922194242477417
3.6335058212280273 6.273348331451416 0.2858610451221466
3.4700536727905273 6.273346900939941 0.2826850712299347
3.153505802154541 6.273345947265625 0.27685898542404175
3.103325128555298 6.489511489868164 0.28364211320877075
3.103325128555298 7.617369174957275 0.324329674243927
3.10332989692688 8.069454193115234 0.34090590476989746
3.10332989692688 9.129176139831543 0.38020217418670654
3.10332989692688 10.467411041259766 0.43049848079681396
5.102392673492432 6.273360252380371 0.13659362494945526
4.571455001831055 7.220101356506348 0.14435210824012756
3.310131788253784 6.27334451675415 0.11981566995382309
3.1032958030700684 6.489439487457275 0.1215069517493248
3.103286027908325 7.617262840270996 0.1389378309249878
3.103266477584839 10.467215538024902 0.18441756069660187
3.103271484375 11.279154777526855 0.1976054310798645
5.102397441864014 6.273361682891846 -0.04552764818072319
5.097885608673096 6.799123287200928 -0.04784408584237099
5.097876071929932 7.710622310638428 -0.052040860056877136
4.984218597412109 7.872012615203857 -0.0524568147957325
4.769291877746582 7.872010231018066 -0.051820676773786545
3.310131788253784 6.27334451675415 -0.039932556450366974
3.15350079536438 6.273343563079834 -0.039530638605356216
3.1032519340515137 6.832529067993164 -0.042249295860528946
3.1032421588897705 8.069223403930664 -0.048675537109375
5.311440467834473 6.27336311340332 -0.23145216703414917
5.102397441864014 6.273360252380371 -0.22769209742546082
5.097846508026123 6.526708602905273 -0.23319320380687714
5.097841739654541 7.086142539978027 -0.24579940736293793
4.559443473815918 7.872007846832275 -0.2561541795730591
4.354345798492432 7.872006893157959 -0.25330930948257446
3.15350079536438 6.273343563079834 -0.19770874083042145
3.103222608566284 6.489283084869385 -0.2025417983531952
3.10320782661438 7.206763744354248 -0.2209406942129135
3.1031787395477295 9.128740310668945 -0.27149108052253723
3.103159189224243 10.466842651367188 -0.30740341544151306
5.311435222625732 6.27336311340332 -0.4168652296066284
5.102392673492432 6.273360252380371 -0.410092294216156
5.097797870635986 6.79900598526001 -0.43096327781677246
5.097797870635986 7.086080074310303 -0.44269758462905884
5.097787857055664 7.389346599578857 -0.45527219772338867
5.097783088684082 7.710477352142334 -0.46876540780067444
4.984218597412109 7.872011661529541 -0.47251614928245544
4.5594482421875 7.872007846832275 -0.4613519310951233
4.354340553283691 7.872006893157959 -0.45622846484184265
3.310131788253784 6.27334451675415 -0.3597160279750824
3.15350079536438 6.273343563079834 -0.35608214139938354
3.1031835079193115 6.489203929901123 -0.3647877275943756
3.1031737327575684 6.832359313964844 -0.3805616796016693
3.1031689643859863 7.206673622131348 -0.39792296290397644
3.1031494140625 8.06899356842041 -0.4384307861328125
3.1031298637390137 9.128594398498535 -0.4889654517173767
3.103105306625366 10.466639518737793 -0.5536445379257202
5.31143045425415 6.27336311340332 -0.602698028087616
5.102392673492432 6.27335786819458 -0.5929102897644043
5.097763538360596 6.526600360870361 -0.6072202920913696
5.097754001617432 7.086019039154053 -0.6400434970855713
5.097743988037109 7.389283180236816 -0.658219575881958
5.097734451293945 7.710406303405762 -0.6777322292327881
4.984218597412109 7.872011661529541 -0.6831600666046143
4.5594482421875 7.872007846832275 -0.667018711566925
4.354340553283691 7.872007846832275 -0.6596094965934753
3.1031346321105957 6.832277774810791 -0.5502073764801025
3.103105306625366 8.068870544433594 -0.6338700652122498
3.103090763092041 8.569792747497559 -0.6682816743850708
3.1030614376068115 9.75595760345459 -0.7506406903266907
3.1030468940734863 10.466449737548828 -0.8004404902458191
5.102392673492432 6.273359298706055 -0.7763305306434631
5.097709655761719 6.798887729644775 -0.815825343132019
5.09768533706665 7.710332870483398 -0.8873856663703918
4.984223365783691 7.872011661529541 -0.8945010304450989
4.769291877746582 7.872010231018066 -0.8836359977722168
4.354340553283691 7.872005462646484 -0.8636637926101685
3.310131788253784 6.27334451675415 -0.6809733510017395
3.15350079536438 6.273343563079834 -0.6740841269493103
3.103095531463623 6.832184791564941 -0.7204075455665588
3.1030468940734863 8.56965446472168 -0.8750041127204895
3.103032112121582 9.128300666809082 -0.9256126284599304
3.1030125617980957 9.7557954788208 -0.9828396439552307
3.1029930114746094 10.466254234313965 -1.0480414628982544
5.311435222625732 6.273361682891846 -0.9764048457145691
5.102397441864014 6.273359298706055 -0.9605424404144287
5.097675800323486 6.526492595672607 -0.9837127327919006
5.097636699676514 7.710259914398193 -1.097944736480713
4.769291877746582 7.872007846832275 -1.093313217163086
4.354340553283691 7.872005462646484 -1.0686033964157104
3.310126781463623 6.273343563079834 -0.8425577878952026
3.1030712127685547 6.488970756530762 -0.8543986082077026
3.1030566692352295 6.832101821899414 -0.8913428783416748
3.10302734375 7.616635799407959 -0.9769517183303833
3.103017568588257 8.06864070892334 -1.0268746614456177
3.1029980182647705 8.569531440734863 -1.0826177597045898
3.102983236312866 9.128142356872559 -1.145231008529663
5.097617149353027 7.085831165313721 -1.2368003129959106
5.097602367401123 7.389078140258789 -1.2719258069992065
5.097592830657959 7.71018648147583 -1.3096294403076172
4.984223365783691 7.872011661529541 -1.3201531171798706
4.769287109375 7.87200927734375 -1.3041157722473145
4.5594482421875 7.872006893157959 -1.2889602184295654
4.354340553283691 7.872005462646484 -1.2746431827545166
3.103032112121582 6.488896369934082 -1.0191246271133423
3.102968692779541 8.068527221679688 -1.2248508930206299
3.1029491424560547 8.569405555725098 -1.2913399934768677
3.1029295921325684 9.128005027770996 -1.3660246133804321
3.1028759479522705 10.465886116027832 -1.5467031002044678
5.311435222625732 6.273361682891846 -1.354133129119873
5.097587585449219 6.52638053894043 -1.3642446994781494
5.097578048706055 6.798710823059082 -1.3998736143112183
5.097568035125732 7.085762977600098 -1.4379874467849731
5.097543716430664 7.710113525390625 -1.5226638317108154
4.984218597412109 7.872010231018066 -1.5349149703979492
3.310131788253784 6.273342132568359 -1.168507695198059
3.15350079536438 6.27334451675415 -1.1566905975341797
3.102978467941284 6.831927299499512 -1.2361335754394531
3.10296368598938 7.206199645996094 -1.2925218343734741
3.1029443740844727 7.616426944732666 -1.3548551797866821
3.102919816970825 8.068399429321289 -1.4240859746932983
3.102900266647339 8.569271087646484 -1.501391887664795
5.311435222625732 6.273361682891846 -1.5450152158737183
5.0975341796875 6.798649787902832 -1.5971850156784058
4.984218597412109 7.872011661529541 -1.751275897026062
4.769291877746582 7.87200927734375 -1.7300024032592773
3.1029393672943115 6.831840515136719 -1.4103602170944214
3.102900266647339 7.616318225860596 -1.5458145141601562
3.1028759479522705 8.068286895751953 -1.624802827835083
3.1027636528015137 10.465489387512207 -2.0517332553863525
3.102724552154541 11.277158737182617 -2.198427438735962
5.102392673492432 6.27335786819458 -1.7092946767807007
5.097499847412109 6.526267051696777 -1.750458002090454
5.097475528717041 7.08563232421875 -1.8450759649276733
5.097460746765137 7.388871669769287 -1.8974738121032715
4.984218597412109 7.872010231018066 -1.9694777727127075
4.769291877746582 7.87200927734375 -1.9455538988113403
4.5594482421875 7.872006893157959 -1.922943115234375
4.354335784912109 7.87200403213501 -1.90158212184906
3.310126781463623 6.273343563079834 -1.4993386268615723
3.102919816970825 6.488653182983398 -1.520329236984253
3.102778196334839 9.127548217773438 -2.0378100872039795
3.102739095687866 9.754940032958984 -2.163790464401245
5.097455978393555 6.526208400726318 -1.9462319612503052
5.09744119644165 6.798528671264648 -1.997058391571045
5.097392559051514 7.709887504577637 -2.1722257137298584
4.984218597412109 7.872010231018066 -2.189765691757202
4.769291877746582 7.87200927734375 -2.163166046142578
4.5594482421875 7.872005462646484 -2.1380257606506348
3.310131788253784 6.273343563079834 -1.6670386791229248
3.15350079536438 6.273342132568359 -1.650179147720337
3.102861166000366 6.831658840179443 -1.763445496559143
3.102836847305298 7.205907821655273 -1.843885898590088
3.1027538776397705 8.568864822387695 -2.141838550567627
2.9018406867980957 9.123327255249023 -2.250041961669922
2.5395750999450684 9.230367660522461 -2.2499582767486572
5.311435222625732 6.273360252380371 -2.128274440765381
5.076093673706055 7.05592155456543 -2.2505428791046143
4.935834884643555 7.154591083526611 -2.2505104541778564
4.649609088897705 7.343528747558594 -2.2504444122314453
4.356152057647705 7.521011829376221 -2.2503767013549805
4.206855297088623 7.605373382568359 -2.2503421306610107
3.310131788253784 6.27334451675415 -1.8365247249603271
3.153505802154541 6.273343563079834 -1.817954659461975
2.9587109088897705 8.171052932739258 -2.250054121017456
2.796879768371582 8.227691650390625 -2.250016689300537
2.470034122467041 8.331341743469238 -2.249941110610962
2.3051464557647705 8.378316879272461 -2.2499029636383057
5.136972427368164 6.067304611206055 -2.2505581378936768
5.016230583190918 6.167398452758789 -2.250528573989868
4.893486022949219 6.265079021453857 -2.2504994869232178
4.768867015838623 6.360317230224609 -2.2504706382751465
4.642392635345459 6.45307731628418 -2.250441312789917
4.514130592346191 6.543327331542969 -2.2504119873046875
4.384091854095459 6.63102388381958 -2.2503819465637207
4.252363204956055 6.716137409210205 -2.250351905822754
4.118979454040527 6.798635005950928 -2.2503209114074707
3.983999013900757 6.87847900390625 -2.2502899169921875
3.8474607467651367 6.95564079284668 -2.250258445739746
3.1028027534484863 6.488401889801025 -2.036041498184204
3.1027488708496094 7.205706596374512 -2.220958709716797
2.9987645149230957 7.360724925994873 -2.2500624656677246
2.7059667110443115 7.473073482513428 -2.2499947547912598
2.5579638481140137 7.524887561798096 -2.2499606609344482
2.4089794158935547 7.57377290725708 -2.2499263286590576
2.2590575218200684 7.619712829589844 -2.249891519546509
2.1082568168640137 7.662678241729736 -2.24985671043396
4.738774299621582 5.596995830535889 -2.2556729316711426
4.512998104095459 5.777939319610596 -2.255030870437622
4.389057636260986 5.853782653808594 -2.250392436981201
4.272685527801514 5.939156532287598 -2.2503621578216553
4.154594421386719 6.022214412689209 -2.2503316402435303
4.0350341796875 6.102933406829834 -2.2503015995025635
3.9137449264526367 6.18126916885376 -2.2502729892730713
3.6667089462280273 6.330690860748291 -2.250215530395508
3.5410594940185547 6.40172004699707 -2.2501864433288574
3.15350079536438 6.273343563079834 -2.1596133708953857
2.893139600753784 6.71891450881958 -2.250037431716919
2.625746965408325 6.827628135681152 -2.2499754428863525
2.4904980659484863 6.878005027770996 -2.2499442100524902
2.217158079147339 6.970708847045898 -2.2498812675476074
2.079174757003784 7.012994289398193 -2.249849319458008
4.383237361907959 5.177065372467041 -2.254847288131714
4.280498027801514 5.262841701507568 -2.254977226257324
4.176064491271973 5.346563816070557 -2.25510311126709
3.9623095989227295 5.507730484008789 -2.255342721939087
3.8530712127685547 5.58511209487915 -2.2554562091827393
3.3927440643310547 5.857714653015137 -2.2501611709594727
3.2764892578125 5.923434734344482 -2.250131130218506
3.040156126022339 6.047918796539307 -2.2500717639923096
2.6769871711730957 6.216944217681885 -2.249986410140991
2.4295849800109863 6.317549705505371 -2.249929189682007
2.1783788204193115 6.408310413360596 -2.249871253967285
2.0515575408935547 6.449960708618164 -2.2498419284820557
1.9238183498382568 6.489089012145996 -2.249812364578247
4.073037147521973 4.810684680938721 -2.254127025604248
3.977548837661743 4.890370845794678 -2.2542476654052734
3.8804931640625 4.968145847320557 -2.254364490509033
3.7819089889526367 5.043990135192871 -2.2544777393341064
3.580322265625 5.189755916595459 -2.254692554473877
3.267470598220825 5.393165111541748 -2.2549855709075928
3.1605615615844727 5.456799030303955 -2.255074977874756
3.0524022579193115 5.518295764923096 -2.2551605701446533
2.943042039871216 5.577647686004639 -2.255241870880127
2.832524299621582 5.634816646575928 -2.255319356918335
2.7201902866363525 5.688317775726318 -2.2548091411590576
2.3738183975219727 5.826624393463135 -2.249925374984741
2.2583250999450684 5.872245788574219 -2.24989652633667
2.142031192779541 5.91558313369751 -2.2498679161071777
2.024858236312866 5.956615924835205 -2.2498390674591064
1.6689306497573853 6.065738201141357 -2.249753952026367
3.799760580062866 4.487917423248291 -2.2534923553466797
3.434765577316284 4.774425983428955 -2.2539215087890625
3.3400487899780273 4.841472148895264 -2.2540199756622314
3.1467137336730957 4.96987771987915 -2.2542057037353516
3.048159122467041 5.031187534332275 -2.2542929649353027
2.642382860183716 5.256569862365723 -2.2546043395996094
2.5382421016693115 5.307840347290039 -2.2546727657318115
2.433095693588257 5.357038497924805 -2.25473690032959
2.3269970417022705 5.4041428565979 -2.2547972202301025
1.8938720226287842 5.57127571105957 -2.2549989223480225
1.7836180925369263 5.607656002044678 -2.2550394535064697
1.6726610660552979 5.641841888427734 -2.255075693130493
3.4735400676727295 4.270697593688965 -2.2530341148376465
3.3887646198272705 4.3385910987854 -2.253136157989502
3.126577138900757 4.532035827636719 -2.253422260284424
3.036674737930298 4.593017101287842 -2.2535109519958496
2.9455761909484863 4.6522088050842285 -2.253596067428589
2.853325128555298 4.7095866203308105 -2.2536778450012207
2.759946346282959 4.765125751495361 -2.253756046295166
2.5699756145477295 4.870615005493164 -2.253901720046997
2.473461866378784 4.92051887512207 -2.253969192504883
2.277539014816284 5.014543533325195 -2.2540931701660156
2.17822265625 5.058626651763916 -2.254149913787842
1.875283122062683 5.178961277008057 -2.2542970180511475
1.6695703268051147 5.249095439910889 -2.2543764114379883
1.4612352848052979 5.311026573181152 -2.2544405460357666
3.3395848274230957 3.9444005489349365 -2.2524240016937256
3.2612645626068115 4.009696960449219 -2.2525229454040527
3.018730401992798 4.196113109588623 -2.252800941467285
2.8510496616363525 4.312260150909424 -2.2529704570770264
2.7655224800109863 4.367825031280518 -2.2530505657196045
2.5025341510772705 4.5242156982421875 -2.2532706260681152
2.4128613471984863 4.572843074798584 -2.2533373832702637
2.3222362995147705 4.619687557220459 -2.2534005641937256
2.230703115463257 4.664727687835693 -2.253460645675659
2.045038938522339 4.749327182769775 -2.253570318222046
1.9509813785552979 4.788856029510498 -2.25361967086792
1.6643749475479126 4.896158218383789 -2.2537474632263184
1.4699658155441284 4.958155632019043 -2.253814697265625
1.3718798160552979 4.986254692077637 -2.253843069076538
3.143666982650757 3.7129948139190674 -2.2519688606262207
3.0699267387390137 3.7744500637054443 -2.2520620822906494
2.9949803352355957 3.8344340324401855 -2.25215220451355
2.9188573360443115 3.892925977706909 -2.252239465713501
2.841601610183716 3.9499027729034424 -2.252323627471924
2.7632176876068115 4.005340099334717 -2.2524049282073975
2.6837499141693115 4.059215068817139 -2.252483367919922
2.6032323837280273 4.11151123046875 -2.252558708190918
2.099780321121216 4.390944004058838 -2.2529447078704834
2.0127880573272705 4.431621074676514 -2.252997875213623
1.8364745378494263 4.507767200469971 -2.253094434738159
1.7472167015075684 4.543209075927734 -2.2531378269195557
1.3836816549301147 4.667107582092285 -2.2532777786254883
2.896411180496216 3.561119318008423 -2.2516441345214844
2.825698137283325 3.617706298828125 -2.2517292499542236
2.7538769245147705 3.672882556915283 -2.2518115043640137
2.6070213317871094 3.7789251804351807 -2.2519679069519043
2.532045841217041 3.8297483921051025 -2.252041816711426
2.456064462661743 3.879079580307007 -2.252112627029419
2.3791308403015137 3.9268999099731445 -2.252180814743042
2.301259756088257 3.9731884002685547 -2.2522459030151367
2.222485303878784 4.017927646636963 -2.2523081302642822
2.1428418159484863 4.061102867126465 -2.2523672580718994
2.0623533725738525 4.102687835693359 -2.2524235248565674
1.981054663658142 4.142674922943115 -2.252476692199707
1.648413062095642 4.286312580108643 -2.2526588439941406
1.3920360803604126 4.376521110534668 -2.252762794494629
2.8039746284484863 3.3117876052856445 -2.2511801719665527
2.7381932735443115 3.366586923599243 -2.25126314163208
2.6034326553344727 3.4722325801849365 -2.2514214515686035
2.5345067977905273 3.523035764694214 -2.2514965534210205
2.249140501022339 3.71233868598938 -2.251770257949829
2.1755223274230957 3.756091833114624 -2.2518320083618164
2.025751829147339 3.8391900062561035 -2.2519466876983643
1.9496532678604126 3.878499746322632 -2.251999855041504
1.795204997062683 3.9525675773620605 -2.2520976066589355
1.7169140577316284 3.9872941970825195 -2.2521419525146484
1.3973095417022705 4.110513210296631 -2.252290725708008
1.1517480611801147 4.186122894287109 -2.252371072769165
2.6554930210113525 3.1364123821258545 -2.250835418701172
2.5931835174560547 3.1883037090301514 -2.2509138584136963
2.529863119125366 3.23895263671875 -2.250990152359009
2.400273323059082 3.3364481925964355 -2.2511351108551025
2.266918897628784 3.42874813079834 -2.251269817352295
2.1988964080810547 3.472902774810791 -2.251333236694336
2.0602831840515137 3.5571348667144775 -2.251452684402466
1.9184423685073853 3.6358189582824707 -2.251561164855957
1.7001073360443115 3.7431766986846924 -2.251703977584839
1.1687060594558716 3.942007303237915 -2.2519404888153076
2.5187742710113525 2.97493839263916 -2.2505180835723877
2.399614095687866 3.0721917152404785 -2.250664710998535
2.1501855850219727 3.2521934509277344 -2.250929832458496
2.020322322845459 3.334660530090332 -2.2510478496551514
1.954189419746399 3.373952627182007 -2.251103401184082
1.819643497467041 3.4485790729522705 -2.251206398010254
1.7512890100479126 3.483882427215576 -2.251254081726074
1.6822460889816284 3.517827033996582 -2.2512991428375244
1.612548828125 3.5503978729248047 -2.2513415813446045
1.5422167778015137 3.581582546234131 -2.2513816356658936
1.3997656106948853 3.639751434326172 -2.2514536380767822
1.3277050256729126 3.6667144298553467 -2.251485824584961
1.255126953125 3.692239284515381 -2.2515151500701904
1.1085107326507568 3.738964796066284 -2.251565933227539
