ply
format ascii 1.0
element vertex 252
property float x
property float y
property float z
end_header
-11.973541259765625 -30.72433090209961 5.8143815994262695
-28.66023826599121 -34.15427017211914 5.8060479164123535
-26.71309471130371 -37.6949348449707 -0.2601161003112793
-26.42144012451172 -28.995948791503906 -1.1045836210250854
-30.569894790649414 -37.97786331176758 -1.3727755546569824
-27.72130012512207 -37.472442626953125 -1.3124841451644897
-25.42400360107422 -37.47427749633789 -1.275117039680481
-24.323740005493164 -37.47654724121094 -1.258039951324463
-23.91975212097168 -38.55493927001953 -1.2775852680206299
-10.250082015991211 -23.42801284790039 -0.7200556993484497
-9.682003021240234 -23.419851303100586 -0.7135830521583557
-9.13846206665039 -23.449440002441406 -0.7086552381515503
-8.5894136428833 -23.44386100769043 -0.7030392289161682
-26.16720199584961 -28.7169189453125 -1.9702876806259155
-25.112667083740234 -28.715526580810547 -1.9346120357513428
-24.27337646484375 -28.92647361755371 -1.915050745010376
-24.581153869628906 -36.2319221496582 -2.2204396724700928
-23.791162490844727 -36.6558723449707 -2.2161951065063477
-23.102924346923828 -37.23833084106445 -2.2224366664886475
-17.035140991210938 -28.751710891723633 -1.6948394775390625
-16.25743293762207 -28.761877059936523 -1.675528883934021
-15.49331283569336 -28.765079498291016 -1.6569457054138184
-14.00905704498291 -28.762557983398438 -1.6224877834320068
-10.801393508911133 -23.376949310302734 -1.3059823513031006
-9.032919883728027 -23.178632736206055 -1.2615936994552612
-20.90296173095703 -22.01978302001953 -2.226149797439575
-19.99495506286621 -22.86357879638672 -2.227041482925415
-19.52830696105957 -23.271780014038086 -2.227508783340454
-18.570507049560547 -24.059850692749023 -2.228485345840454
-18.07973289489746 -24.43938446044922 -2.228994131088257
-17.581323623657227 -24.809066772460938 -2.2295165061950684
-16.042150497436523 -25.857473373413086 -2.2311623096466064
-13.347091674804688 -27.403453826904297 -2.234935998916626
-12.78774356842041 -27.675851821899414 -2.2354047298431396
-9.537799835205078 -23.071041107177734 -1.8304744958877563
-16.022037506103516 -16.878093719482422 -2.2342047691345215
-14.23160171508789 -18.438390731811523 -2.2361371517181396
-13.08372688293457 -19.285045623779297 -2.2373416423797607
-12.290563583374023 -19.810482025146484 -2.2381951808929443
-11.88602352142334 -20.061092376708984 -2.2386364936828613
-11.476468086242676 -20.30362319946289 -2.2390871047973633
-7.891180038452148 -15.395387649536133 -1.6608818769454956
-10.218962669372559 -20.980953216552734 -2.240494728088379
-9.790788650512695 -21.18975257873535 -2.2409815788269043
-9.358377456665039 -21.38988494873047 -2.2414772510528564
-12.458026885986328 -14.245346069335938 -2.247950792312622
-11.54872989654541 -14.963479995727539 -2.2453298568725586
-10.276127815246582 -15.832846641540527 -2.242121934890747
-9.624724388122559 -16.244504928588867 -2.2428836822509766
-8.956954002380371 -16.629602432250977 -2.2436742782592773
-7.891305923461914 -15.395641326904297 -2.055025815963745
-7.222648620605469 -17.470897674560547 -2.245648145675659
-6.865866661071777 -17.617929458618164 -2.246063232421875
-6.506104469299316 -17.7576904296875 -2.2464849948883057
-11.652209281921387 -12.2747802734375 -2.3980422019958496
-11.399653434753418 -12.5104341506958 -2.398122787475586
-11.075275421142578 -12.664237022399902 -2.383772850036621
-10.207206726074219 -12.680709838867188 -2.306480646133423
-8.901796340942383 -13.120945930480957 -2.246570348739624
-8.63421630859375 -13.303095817565918 -2.2471137046813965
-8.088094711303711 -13.650994300842285 -2.248206377029419
-7.809642314910889 -13.816458702087402 -2.2487335205078125
-7.527774333953857 -13.976154327392578 -2.2492477893829346
-6.95421838760376 -14.277971267700195 -2.2502355575561523
-6.662784099578857 -14.419961929321289 -2.250709056854248
-6.368409156799316 -14.555892944335938 -2.2511682510375977
-6.071226596832275 -14.68572998046875 -2.2516136169433594
-5.771352291107178 -14.809396743774414 -2.252044439315796
-9.359938621520996 -11.15418529510498 -2.398776054382324
-9.130629539489746 -11.343241691589355 -2.3988490104675293
-8.897503852844238 -11.527565956115723 -2.398923397064209
-8.66067123413086 -11.70711612701416 -2.398998975753784
-8.176240921020508 -12.051552772521973 -2.399153470993042
-7.162387371063232 -12.671364784240723 -2.3978657722473145
-5.554952144622803 -12.696625709533691 -2.28305983543396
-4.95573091506958 -12.716486930847168 -2.2483632564544678
-8.787066459655762 -9.256564140319824 -2.398961305618286
-8.596558570861816 -9.434199333190918 -2.399021863937378
-8.402443885803223 -9.607916831970215 -2.3990838527679443
-8.204833030700684 -9.777654647827148 -2.399146556854248
-7.799405574798584 -10.104872703552246 -2.3992760181427
-7.591767311096191 -10.262226104736328 -2.3993420600891113
-7.167077541351318 -10.564071655273438 -2.39947772026062
-6.282470703125 -11.11464786529541 -2.3997597694396973
-5.824031829833984 -11.362462997436523 -2.3999059200286865
-5.591104507446289 -11.479312896728516 -2.399980306625366
-4.878730297088623 -11.801032066345215 -2.40020751953125
-7.472442626953125 -8.544507026672363 -2.3993821144104004
-7.296674728393555 -8.695426940917969 -2.3994381427764893
-7.117874622344971 -8.842737197875977 -2.3994951248168945
-6.751428127288818 -9.126285552978516 -2.3996119499206543
-5.787347316741943 -9.767823219299316 -2.399919271469116
-5.586953163146973 -9.884161949157715 -2.3999834060668945
-5.384212493896484 -9.996394157409668 -2.400048017501831
-5.179221153259277 -10.104471206665039 -2.400113344192505
-4.551600456237793 -10.403326988220215 -2.40031361579895
-4.338470458984375 -10.494345664978027 -2.4003818035125732
-3.9068236351013184 -10.663261413574219 -2.400519609451294
-6.876717567443848 -7.546774864196777 -2.399573564529419
-6.721408367156982 -7.685708045959473 -2.399623155593872
-5.904133319854736 -8.331337928771973 -2.399883508682251
-5.732979774475098 -8.450287818908691 -2.3999381065368652
-5.205550193786621 -8.785872459411621 -2.400106191635132
-5.025286674499512 -8.89050006866455 -2.4001638889312744
-4.65852165222168 -9.088604927062988 -2.4002809524536133
-4.47218132019043 -9.182011604309082 -2.4003403186798096
-4.093961238861084 -9.357327461242676 -2.400460958480835
-3.9022483825683594 -9.43917179107666 -2.400522232055664
-3.7088940143585205 -9.517087936401367 -2.4005839824676514
-3.513986825942993 -9.591048240661621 -2.400646209716797
-6.242610931396484 -6.850886821746826 -2.3997769355773926
-6.101614952087402 -6.97699499130249 -2.3998217582702637
-5.812031269073486 -7.220451354980469 -2.399914264678955
-5.663582801818848 -7.337711811065674 -2.399961471557617
-5.512763500213623 -7.451908588409424 -2.4000096321105957
-5.35964822769165 -7.563015460968018 -2.4000582695007324
-5.204291820526123 -7.670976161956787 -2.4001078605651855
-4.228838920593262 -8.25031566619873 -2.400418996810913
-3.5422911643981934 -8.568471908569336 -2.4006381034851074
-3.3667662143707275 -8.639183044433594 -2.4006941318511963
-3.189829111099243 -8.706298828125 -2.4007506370544434
-5.836513519287109 -6.14835786819458 -2.3999075889587402
-5.709914207458496 -6.266287326812744 -2.3999478816986084
-5.449641227722168 -6.49431037902832 -2.4000308513641357
-5.316059589385986 -6.604294776916504 -2.400073289871216
-4.902242183685303 -6.917582988739014 -2.400205373764038
-4.760146141052246 -7.016320705413818 -2.4002506732940674
-4.6160569190979 -7.112139701843262 -2.400296688079834
-4.470034122467041 -7.205007076263428 -2.400343179702759
-4.021018028259277 -7.465476036071777 -2.400486469268799
-3.7131688594818115 -7.623657703399658 -2.4005844593048096
-3.3991148471832275 -7.76915979385376 -2.4006848335266113
-2.917536497116089 -7.963103294372559 -2.400838613510132
-5.255685806274414 -5.767800331115723 -2.4000935554504395
-5.136937141418457 -5.873942852020264 -2.4001314640045166
-5.016063213348389 -5.97764778137207 -2.400169849395752
-4.893141746520996 -6.078886985778809 -2.4002091884613037
-4.381428241729736 -6.458102703094482 -2.400372266769409
-3.9782590866088867 -6.714456558227539 -2.400500774383545
-3.7010765075683594 -6.871460437774658 -2.4005892276763916
-3.4177136421203613 -7.017035961151123 -2.400679588317871
-3.2738585472106934 -7.085458755493164 -2.4007256031036377
-2.982109308242798 -7.213436126708984 -2.4008188247680664
-2.6853649616241455 -7.329411506652832 -2.4009132385253906
-4.753538608551025 -5.435510158538818 -2.400254487991333
-4.527945518493652 -5.625146389007568 -2.4003262519836426
-4.29470682144165 -5.805400371551514 -2.4004006385803223
-4.175362586975098 -5.891915321350098 -2.4004385471343994
-4.054360389709473 -5.97601318359375 -2.400477170944214
-3.6812705993652344 -6.213205337524414 -2.4005961418151855
-3.5537610054016113 -6.287147045135498 -2.400636911392212
-3.424766778945923 -6.358470439910889 -2.4006781578063965
-3.294351816177368 -6.427155017852783 -2.40071964263916
-3.029435873031616 -6.556467056274414 -2.400804281234741
-2.895047426223755 -6.617039680480957 -2.4008471965789795
-2.7594592571258545 -6.674870014190674 -2.400890350341797
-2.622708797454834 -6.729916095733643 -2.4009339809417725
-2.4848644733428955 -6.782166481018066 -2.4009780883789062
-4.621116638183594 -4.868020534515381 -2.4002974033355713
-4.520865440368652 -4.961382865905762 -2.400329113006592
-4.314760684967041 -5.141878128051758 -2.400394916534424
-4.208981990814209 -5.228939056396484 -2.4004287719726562
-4.101449012756348 -5.313818454742432 -2.4004628658294678
-3.992210626602173 -5.396493911743164 -2.4004979133605957
-3.881307363510132 -5.476923942565918 -2.4005331993103027
-3.3034350872039795 -5.844274997711182 -2.4007174968719482
-2.309802293777466 -6.304352760314941 -2.4010345935821533
-4.312460899353027 -4.542874813079834 -2.4003963470458984
-4.218903541564941 -4.6299920082092285 -2.400426149368286
-3.725541830062866 -5.036022186279297 -2.400583505630493
-3.6220335960388184 -5.111072063446045 -2.400616407394409
-2.6278796195983887 -5.687411308288574 -2.4009335041046143
-2.393683910369873 -5.790098667144775 -2.401008129119873
-2.275059700012207 -5.837839126586914 -2.40104603767395
-2.1554808616638184 -5.883148670196533 -2.4010841846466064
-4.038053035736084 -4.253803730010986 -2.400484323501587
-3.4884605407714844 -4.71554708480835 -2.4006593227386475
-3.2932090759277344 -4.854100704193115 -2.400721788406372
-3.09246563911438 -4.984577178955078 -2.4007856845855713
-2.886556386947632 -5.106761455535889 -2.4008514881134033
-2.781778573989868 -5.164679527282715 -2.4008848667144775
-2.460639476776123 -5.32544469833374 -2.400987386703491
-2.130256414413452 -5.466273307800293 -2.401092767715454
-2.018287420272827 -5.508692741394043 -2.4011285305023193
-3.7922544479370117 -3.9948720932006836 -2.4005632400512695
-3.5408177375793457 -4.219574451446533 -2.4006433486938477
-3.365753173828125 -4.360656261444092 -2.4006991386413574
-3.2761011123657227 -4.42849063873291 -2.4007277488708496
-2.6124205589294434 -4.850253582000732 -2.4009392261505127
-2.512925863265991 -4.90262508392334 -2.400970935821533
-1.8954015970230103 -5.173290729522705 -2.40116810798645
-3.5706005096435547 -3.761376142501831 -2.400634288787842
-3.4142041206359863 -3.9040300846099854 -2.400684118270874
-3.333857297897339 -3.97293758392334 -2.400709629058838
-3.084604501724243 -4.1696319580078125 -2.4007890224456787
-2.8237805366516113 -4.350714683532715 -2.400872230529785
-2.7344372272491455 -4.40748929977417 -2.4009008407592773
-2.6439502239227295 -4.462430477142334 -2.4009296894073486
-2.271357297897339 -4.663407325744629 -2.401048421859741
-2.175738573074341 -4.708847999572754 -2.401078939437866
-1.9818187952041626 -4.79383659362793 -2.4011409282684326
-1.8835985660552979 -4.833346366882324 -2.401172161102295
-1.7845910787582397 -4.870845794677734 -2.4012038707733154
-3.3695068359375 -3.5495378971099854 -2.4006989002227783
-3.146090030670166 -3.7491767406463623 -2.4007699489593506
-2.9905333518981934 -3.874520778656006 -2.4008195400238037
-2.829993724822998 -3.9934139251708984 -2.4008708000183105
-2.6647350788116455 -4.1056623458862305 -2.400923490524292
-2.4950244426727295 -4.211078643798828 -2.400977611541748
-2.2327489852905273 -4.356011390686035 -2.4010612964630127
-2.1434106826782227 -4.4007248878479 -2.401089668273926
-1.9620909690856934 -4.4846343994140625 -2.4011476039886475
-1.8701831102371216 -4.523796558380127 -2.401176929473877
-3.1860594749450684 -3.3562889099121094 -2.4007575511932373
-2.8277111053466797 -3.6635680198669434 -2.400871753692627
-2.7523839473724365 -3.7205493450164795 -2.400895833969116
-2.675908088684082 -3.7759850025177 -2.4009201526641846
-2.5983190536499023 -3.829848289489746 -2.400944948196411
-2.5196447372436523 -3.882117748260498 -2.400969982147217
-2.439918041229248 -3.9327714443206787 -2.4009954929351807
-2.2774462699890137 -4.029151439666748 -2.4010472297668457
-2.194767951965332 -4.074836254119873 -2.401073694229126
-2.1111743450164795 -4.118823528289795 -2.4011001586914062
-2.026700496673584 -4.161098003387451 -2.401127338409424
-1.941381812095642 -4.201639175415039 -2.4011545181274414
-1.8552489280700684 -4.240433692932129 -2.401181936264038
-1.680700659751892 -4.312709331512451 -2.401237726211548
-3.0178723335266113 -3.179114818572998 -2.4008116722106934
-2.8856773376464844 -3.299677610397339 -2.4008536338806152
-2.748667001724243 -3.414750814437866 -2.400897264480591
-2.6784350872039795 -3.4701662063598633 -2.4009196758270264
-2.6070823669433594 -3.5241377353668213 -2.40094256401062
-2.5346434116363525 -3.576643228530884 -2.400965452194214
-2.4611473083496094 -3.62766170501709 -2.400989055633545
-2.386624813079834 -3.677165985107422 -2.401012659072876
-2.311105966567993 -3.725147008895874 -2.4010367393493652
-2.234626531600952 -3.771574020385742 -2.4010612964630127
-1.8388805389404297 -3.9798057079315186 -2.4011874198913574
-1.6749804019927979 -4.051620006561279 -2.4012396335601807
-1.5919628143310547 -4.0850043296813965 -2.40126633644104
-2.8629651069641113 -3.0159339904785156 -2.4008612632751465
-2.6075756549835205 -3.2394649982452393 -2.40094256401062
-2.5409436225891113 -3.29203462600708 -2.40096378326416
-2.473253011703491 -3.343234062194824 -2.4009852409362793
-2.404531240463257 -3.39304256439209 -2.4010074138641357
-2.0464696884155273 -3.6205153465270996 -2.4011213779449463
-1.9721728563308716 -3.66156005859375 -2.4011452198028564
-1.8970556259155273 -3.701082944869995 -2.4011693000793457
-1.8211462497711182 -3.7390666007995605 -2.401193380355835
-1.744478702545166 -3.7754905223846436 -2.4012179374694824
-1.5889904499053955 -3.8436152935028076 -2.4012675285339355
-1.43084716796875 -3.905334949493408 -2.401318073272705
