ply
format ascii 1.0
element vertex 837
property float x
property float y
property float z
end_header
-1.0375951528549194 17.477956771850586 1.8801199197769165
-2.1539318561553955 17.880531311035156 1.933925986289978
-16.43556022644043 31.30773162841797 3.7969770431518555
-17.302051544189453 29.95307731628418 3.7144575119018555
-17.93572425842285 29.65089225769043 3.7211544513702393
-17.761817932128906 23.608917236328125 3.1725142002105713
-17.76474952697754 21.727691650390625 3.013732433319092
-17.76296615600586 20.018043518066406 2.8738276958465576
-17.762130737304688 19.220808029174805 2.8103115558624268
-17.761329650878906 18.45773696899414 2.7506349086761475
-17.96323013305664 17.928363800048828 2.725255012512207
-18.293169021606445 17.534666061401367 2.7210328578948975
-17.76136589050293 16.349611282348633 2.592275619506836
-17.76217269897461 15.699647903442383 2.5455877780914307
-17.76441764831543 13.879738807678223 2.4207887649536133
-17.765117645263672 13.311347007751465 2.3837525844573975
-17.76579475402832 12.759882926940918 2.348783016204834
-17.703277587890625 12.18069076538086 2.307520627975464
-17.810760498046875 10.726457595825195 2.232609748840332
-18.089094161987305 10.402153015136719 2.24070143699646
-18.596635818481445 10.199906349182129 2.2775895595550537
-20.64654541015625 10.262309074401855 2.475828170776367
-21.73836326599121 10.262866020202637 2.5813686847686768
-22.92794418334961 10.263473510742188 2.697458028793335
-29.19180679321289 11.676405906677246 3.376127004623413
3.7883825302124023 18.380844116210938 1.5886929035186768
2.1145567893981934 17.179141998291016 1.4652379751205444
1.6989904642105103 16.55389404296875 1.4086949825286865
1.34405517578125 16.338293075561523 1.3877538442611694
1.0298327207565308 16.620342254638672 1.409656047821045
0.704071044921875 16.879838943481445 1.4301666021347046
0.34858763217926025 16.218612670898438 1.3732677698135376
0.02139892615377903 16.543901443481445 1.4004876613616943
-0.6558703184127808 16.76584243774414 1.4203603267669678
-1.6388475894927979 16.385133743286133 1.3939688205718994
-17.766571044921875 22.648300170898438 2.4367592334747314
-17.765592575073242 21.72871971130371 2.3759419918060303
-17.70330047607422 20.78150177001953 2.3110015392303467
-17.70343017578125 19.15728187561035 2.2081429958343506
-17.979351043701172 17.233854293823242 2.1082820892333984
-17.703649520874023 16.29647445678711 2.0369369983673096
-17.703739166259766 15.022184371948242 1.9654909372329712
-17.703889846801758 12.715434074401855 1.8451781272888184
-17.703922271728516 12.18112564086914 1.8191618919372559
-17.70395278930664 11.661491394042969 1.7945961952209473
-17.703981399536133 11.155478477478027 1.771398901939392
-17.811203002929688 10.726723670959473 1.7600878477096558
-18.08936309814453 10.40230655670166 1.7664498090744019
-18.596630096435547 10.199906349182129 1.795501708984375
-10.96291732788086 5.7280449867248535 1.0470839738845825
-21.604984283447266 10.199895858764648 2.0224967002868652
-22.7858829498291 10.199892044067383 2.1133267879486084
-24.07840919494629 10.199885368347168 2.213642120361328
-29.191795349121094 11.676405906677246 2.6615209579467773
1.6949353218078613 16.51435661315918 1.0294402837753296
1.3503954410552979 16.415346145629883 1.0213607549667358
1.0067797899246216 16.248294830322266 1.0094939470291138
0.6545299887657166 15.692138671875 0.9739227294921875
0.34059447050094604 15.846845626831055 0.982894241809845
-0.31947752833366394 16.89902114868164 1.0481014251708984
-1.9895250797271729 16.51568031311035 1.0315481424331665
-15.987481117248535 32.00870895385742 2.218684673309326
-16.708341598510742 30.323102951049805 2.1469011306762695
-17.633378982543945 30.52669334411621 2.186082124710083
-18.146669387817383 29.9996280670166 2.174143075942993
-19.023771286010742 30.06155014038086 2.2060296535491943
-17.703948974609375 23.532007217407227 1.826080322265625
-17.704010009765625 22.568546295166016 1.7787035703659058
-17.704065322875977 21.65346336364746 1.7344125509262085
-17.70411491394043 20.782453536987305 1.6929446458816528
-17.92178726196289 17.887001037597656 1.5701419115066528
-18.294687271118164 17.536123275756836 1.5714571475982666
-17.704368591308594 16.297147750854492 1.4921709299087524
-17.70443344116211 15.022768020629883 1.43982994556427
-17.704463958740234 14.418046951293945 1.415856957435608
-17.704492568969727 13.832914352416992 1.39323091506958
-17.704517364501953 13.265939712524414 1.3718637228012085
-17.8116455078125 10.726984977722168 1.289343237876892
-10.961565971374512 5.727335453033447 0.7669216990470886
-20.520986557006836 10.199897766113281 1.421033263206482
-21.604984283447266 10.199895858764648 1.481531023979187
-24.07840347290039 10.199885368347168 1.6215521097183228
2.707181453704834 14.622777938842773 0.5863900780677795
2.966137647628784 47.87015151977539 1.8911898136138916
1.990692138671875 47.72587966918945 1.8835140466690063
1.018245816230774 47.375823974609375 1.868510127067566
-0.6751965284347534 17.25996208190918 0.681099534034729
-1.217529296875 20.508867263793945 0.8101092576980591
-1.320013403892517 16.570507049560547 0.6554641723632812
-1.6662756204605103 16.659353256225586 0.6601729989051819
-2.0178685188293457 16.750959396362305 0.665283203125
-2.7214856147766113 16.834091186523438 0.6724044680595398
-16.089733123779297 33.90983581542969 1.4799820184707642
-15.915915489196777 31.865446090698242 1.4044976234436035
-16.601919174194336 30.129966735839844 1.356472134590149
-17.722810745239258 29.298925399780273 1.3502007722854614
-20.094114303588867 30.377399444580078 1.4361538887023926
-17.764280319213867 23.61219024658203 1.1651229858398438
-18.723669052124023 22.900529861450195 1.1663912534713745
-19.192487716674805 22.529613494873047 1.1670101881027222
-18.295366287231445 19.797842025756836 1.062940001487732
-18.295469284057617 16.841257095336914 0.9805209040641785
-18.295528411865234 14.899392127990723 0.9303717017173767
-18.3569278717041 13.754782676696777 0.9044857621192932
-18.712663650512695 13.439952850341797 0.908453643321991
-19.800302505493164 13.042346000671387 0.9349032640457153
-20.81060218811035 11.967155456542969 0.9465890526771545
-25.067352294921875 11.834508895874023 1.093048095703125
-27.50864601135254 11.652971267700195 1.178003191947937
2.9161314964294434 47.06312942504883 0.7965050935745239
1.025521159172058 47.71443176269531 0.8061742782592773
0.0614025853574276 47.46952438354492 0.8018499612808228
-16.589176177978516 30.106849670410156 0.5806549191474915
-17.206241607666016 29.7872257232666 0.5810745358467102
-19.091632843017578 30.168779373168945 0.6030770540237427
-20.155048370361328 29.171630859375 0.5989404320716858
-18.296159744262695 20.618938446044922 0.46564239263534546
-18.296178817749023 19.01356315612793 0.4457220435142517
-18.29619789123535 17.537578582763672 0.428109735250473
-18.29622459411621 15.524921417236328 0.4053271412849426
-18.296232223510742 14.89995288848877 0.39857572317123413
-18.713037490844727 13.440229415893555 0.38917937874794006
-19.800676345825195 13.042585372924805 0.40050962567329407
-20.81100845336914 11.967390060424805 0.40551695227622986
-21.461002349853516 11.770952224731445 0.41346433758735657
-24.687137603759766 12.270673751831055 0.46568235754966736
-28.97847557067871 12.27560043334961 0.5316107273101807
-16.337331771850586 32.709144592285156 -0.20584991574287415
-16.65730857849121 31.73013687133789 -0.2017640620470047
-16.89019203186035 30.653165817260742 -0.19704481959342957
-17.666339874267578 30.583723068237305 -0.19885146617889404
-18.373762130737305 30.375038146972656 -0.1998644918203354
-18.29697036743164 19.799571990966797 -0.15178145468235016
-18.296964645385742 19.014368057250977 -0.14856857061386108
-18.29695701599121 18.261430740356445 -0.1455412209033966
-18.29694938659668 16.84261131286621 -0.14001403748989105
-18.296937942504883 15.525527000427246 -0.1351029872894287
-18.296926498413086 14.295795440673828 -0.1307302862405777
-18.357666015625 13.75533676147461 -0.12915267050266266
-18.713415145874023 13.440500259399414 -0.12971755862236023
-20.21718406677246 12.739069938659668 -0.13453689217567444
-20.640060424804688 12.430395126342773 -0.13565368950366974
-20.811405181884766 11.96762466430664 -0.13516463339328766
-10.957523345947266 5.725218772888184 -0.06960540264844894
-24.687108993530273 12.27065372467041 -0.15521225333213806
-26.04990005493164 12.298371315002441 -0.16218627989292145
-26.505355834960938 11.864872932434082 -0.1635090559720993
-30.60700035095215 12.242477416992188 -0.1855943202972412
3.5518980026245117 28.856401443481445 -0.8186671137809753
1.204409122467041 28.8751220703125 -0.8137707114219666
-2.2857115268707275 28.693159103393555 -0.8104990720748901
-3.46915340423584 28.798545837402344 -0.8167649507522583
-4.657442092895508 28.80919647216797 -0.8217384219169617
-5.292128562927246 29.004289627075195 -0.8301815390586853
-5.898898124694824 29.000150680541992 -0.8333045840263367
-7.139771461486816 29.041704177856445 -0.8421037197113037
-12.293957710266113 28.865568161010742 -0.8834391832351685
-12.9883394241333 28.86465072631836 -0.8912591338157654
-14.491744995117188 29.014118194580078 -0.913215160369873
-15.155526161193848 28.86945915222168 -0.9181056022644043
-15.889169692993164 28.83648109436035 -0.9270747303962708
-16.774404525756836 29.039648056030273 -0.9443151354789734
-19.939599990844727 28.859804153442383 -0.9877215623855591
-21.752588272094727 28.9134464263916 -1.0188173055648804
-22.613367080688477 28.826866149902344 -1.031647801399231
-18.29779815673828 20.620792388916016 -0.7762680053710938
-18.297773361206055 19.800457000732422 -0.7591480612754822
-18.297748565673828 19.01519203186035 -0.7430578470230103
-18.297704696655273 17.539012908935547 -0.7136929035186768
-18.297651290893555 15.526134490966797 -0.675711989402771
-18.29763412475586 14.90111255645752 -0.6644604206085205
-18.3580322265625 13.755615234375 -0.6459385752677917
-18.71379280090332 13.440771102905273 -0.648767352104187
-19.391517639160156 13.34227466583252 -0.6627857685089111
-19.80141258239746 13.043073654174805 -0.6676551699638367
-20.640451431274414 12.43062973022461 -0.6784512400627136
-26.04986000061035 12.298354148864746 -0.8111451268196106
-30.607074737548828 12.242497444152832 -0.9282128810882568
13.366778373718262 45.78635025024414 -2.418949604034424
11.495232582092285 46.24168014526367 -2.4164786338806152
10.55360221862793 46.440452575683594 -2.4152355194091797
8.11097526550293 43.81131362915039 -2.2596070766448975
7.220789432525635 43.9432258605957 -2.258431911468506
6.328582763671875 44.05710220336914 -2.257253646850586
3.5555906295776367 28.88640594482422 -1.4760068655014038
2.962244749069214 28.862228393554688 -1.4714164733886719
2.370455265045166 28.81517219543457 -1.4662747383117676
0.03788207843899727 29.287452697753906 -1.485286831855774
-1.718880534172058 28.953964233398438 -1.470960021018982
-2.290969133377075 28.759103775024414 -1.463114857673645
-2.9052672386169434 29.046693801879883 -1.4804306030273438
-3.4738035202026367 28.837142944335938 -1.4730249643325806
-5.317595481872559 29.143844604492188 -1.5024056434631348
-6.483514785766602 28.87574005126953 -1.5008693933486938
-7.125303268432617 28.982852935791016 -1.5136089324951172
-7.696438312530518 28.785484313964844 -1.5111138820648193
-11.969858169555664 41.39915084838867 -2.1855201721191406
-12.797094345092773 41.12842559814453 -2.1844277381896973
-13.618304252624512 40.84131622314453 -2.183342933654785
-11.306330680847168 31.755680084228516 -1.7094942331314087
-13.683237075805664 28.838056564331055 -1.6187820434570312
-14.48417854309082 28.99894905090332 -1.6438955068588257
-16.751190185546875 28.999469757080078 -1.698411226272583
-19.11858367919922 28.902626037597656 -1.7574384212493896
-19.89139175415039 28.79002571105957 -1.7746576070785522
-21.819435119628906 29.002302169799805 -1.840596318244934
-27.02955436706543 33.059288024902344 -2.1656253337860107
-27.680702209472656 32.493736267089844 -2.164764881134033
-18.298620223999023 20.621715545654297 -1.3981789350509644
-18.298534393310547 19.01599884033203 -1.3383582830429077
-18.29849624633789 18.262975692749023 -1.3111073970794678
-18.298397064208984 16.17361068725586 -1.2385220527648926
-18.3584041595459 13.755890846252441 -1.163398027420044
-18.714174270629883 13.441041946411133 -1.1684998273849487
-19.391876220703125 13.342521667480469 -1.1937429904937744
-19.80178451538086 13.043317794799805 -1.2025130987167358
-20.217939376831055 12.73955249786377 -1.211911916732788
-20.640844345092773 12.430864334106445 -1.2219585180282593
-20.812213897705078 11.968088150024414 -1.2175449132919312
-10.954826354980469 5.723812580108643 -0.6268289089202881
-24.68702507019043 12.270617485046387 -1.398110032081604
-28.97858428955078 12.275651931762695 -1.5960502624511719
-30.607133865356445 12.242514610290527 -1.6717824935913086
9.224356651306152 31.59695053100586 -2.4134645462036133
8.036726951599121 29.749542236328125 -2.2594940662384033
7.431656360626221 29.895198822021484 -2.258695363998413
6.213781833648682 30.148622512817383 -2.2570250034332275
2.6592063903808594 18.51231575012207 -1.3713047504425049
2.661463499069214 21.622272491455078 -1.5973641872406006
2.96630597114563 28.901708602905273 -2.130268096923828
1.7948851585388184 21.818552017211914 -1.6051886081695557
0.7335583567619324 17.586769104003906 -1.2906204462051392
0.03788452222943306 29.289649963378906 -2.147580862045288
-0.412482887506485 21.81855010986328 -1.600071668624878
-0.8535229563713074 21.81855010986328 -1.6010079383850098
-1.7255675792694092 29.066696166992188 -2.1349875926971436
-1.738073706626892 21.818546295166016 -1.6048529148101807
-4.122608661651611 29.237186431884766 -2.1649389266967773
-5.906351089477539 29.036806106567383 -2.172639846801758
-7.699612140655518 28.797325134277344 -2.1856517791748047
-8.297408103942871 28.69758415222168 -2.1903562545776367
-9.443010330200195 28.31959342956543 -2.188843011856079
-11.129129409790039 27.667606353759766 -2.1866159439086914
-11.68171215057373 27.428085327148438 -2.1858859062194824
-12.229156494140625 27.177499771118164 -2.1851627826690674
-14.882762908935547 25.764842987060547 -2.181657314300537
-15.541679382324219 25.693153381347656 -2.2017180919647217
-16.091270446777344 25.42758560180664 -2.2063663005828857
-16.592920303344727 25.08446502685547 -2.205226421356201
-18.52608871459961 23.61652946472168 -2.200834274291992
-18.299381256103516 19.80218505859375 -1.9769713878631592
-18.29932403564453 19.01683235168457 -1.9350730180740356
-18.29926872253418 18.263742446899414 -1.8956655263900757
-18.29921531677246 17.540468215942383 -1.8585832118988037
-18.299041748046875 14.902253150939941 -1.7303611040115356
-18.35877227783203 13.756169319152832 -1.6820626258850098
-19.39223861694336 13.34277057647705 -1.7259364128112793
-19.802154541015625 13.043563842773438 -1.738617181777954
-20.21832275390625 12.739794731140137 -1.7522066831588745
-20.641237258911133 12.431100845336914 -1.7667325735092163
-20.812618255615234 11.968324661254883 -1.7603511810302734
-26.49741554260254 11.861312866210938 -2.1286232471466064
-27.608173370361328 11.042963981628418 -2.1802175045013428
6.589913368225098 22.57296371459961 -2.2575759887695312
6.130667686462402 22.693878173828125 -2.2568254470825195
5.668474197387695 22.802474975585938 -2.2557761669158936
2.838463068008423 13.771928787231445 -1.3499630689620972
1.9768297672271729 13.761908531188965 -1.3347631692886353
1.4117650985717773 13.75533676147461 -1.3275176286697388
1.1313012838363647 13.7520751953125 -1.3247278928756714
0.44630369544029236 20.76496124267578 -1.9939974546432495
0.01776733435690403 13.739128112792969 -1.319024920463562
-0.2596789598464966 13.73590087890625 -1.3189486265182495
-1.6470141410827637 20.675457000732422 -1.991233229637146
-1.6532812118530273 13.724393844604492 -1.327136754989624
-3.7144525051116943 22.976192474365234 -2.234468936920166
-4.17573881149292 22.88576889038086 -2.2334213256835938
-5.091775894165039 22.677345275878906 -2.2313406467437744
-8.210159301757812 21.6646671295166 -2.224257707595825
-8.642203330993652 21.484966278076172 -2.223276376724243
-9.070342063903809 21.296703338623047 -2.222303867340088
-9.494455337524414 21.10003662109375 -2.2213404178619385
-9.914389610290527 20.8950138092041 -2.220386505126953
-10.740999221801758 20.460269927978516 -2.2185089588165283
-11.147353172302246 20.230770111083984 -2.217585802078247
-11.548894882202148 19.993289947509766 -2.2166736125946045
-13.10373592376709 18.965848922729492 -2.2131412029266357
-13.478910446166992 18.690168380737305 -2.2122888565063477
-14.211942672729492 18.116968154907227 -2.210623264312744
-14.569554328918457 17.819705963134766 -2.209810733795166
-15.266329765319824 17.204471588134766 -2.2082276344299316
-15.60521411895752 16.88677215576172 -2.2074575424194336
-16.263402938842773 16.231828689575195 -2.2059619426727295
-16.894594192504883 15.551740646362305 -2.2045276165008545
-17.788888931274414 14.486804008483887 -2.2024953365325928
-18.072526931762695 14.120468139648438 -2.2018520832061768
-19.84562873840332 11.41225528717041 -2.1978394985198975
-20.067476272583008 11.006635665893555 -2.197336196899414
-20.48678207397461 10.182900428771973 -2.19638991355896
-20.683956146240234 9.765113830566406 -2.195948362350464
-12.269842147827148 5.492488384246826 -1.2906006574630737
-21.053564071655273 8.918532371520996 -2.195119857788086
-13.777365684509277 5.510803699493408 -1.4245758056640625
5.688992977142334 18.118450164794922 -2.2558159828186035
5.319953441619873 18.22286605834961 -2.2549781799316406
4.949005126953125 18.319726943969727 -2.254135847091675
4.576305866241455 18.409034729003906 -2.2532896995544434
2.838460683822632 13.771933555603027 -1.6702971458435059
2.549036741256714 13.768566131591797 -1.6633050441741943
1.9768285751342773 13.761913299560547 -1.6515254974365234
1.4117662906646729 13.755341529846191 -1.6425249576568604
1.1313012838363647 13.752079963684082 -1.6390776634216309
0.3606860339641571 16.781625747680664 -1.993880271911621
0.017768554389476776 13.739130973815918 -1.6320186853408813
-0.2596789598464966 13.735905647277832 -1.6319245100021362
-0.8150634765625 13.729445457458496 -1.6337380409240723
-1.331423282623291 16.71373748779297 -1.9916458129882812
-1.652716040611267 13.719706535339355 -1.6414906978607178
-3.377639055252075 18.511655807495117 -2.235227346420288
-3.749376058578491 18.43269157409668 -2.2343831062316895
-4.119319915771484 18.346311569213867 -2.2335426807403564
-4.487307071685791 18.252561569213867 -2.2327070236206055
-5.2168402671813965 18.04305076599121 -2.2310500144958496
-5.9368414878845215 17.80459976196289 -2.229414701461792
-6.292912483215332 17.674667358398438 -2.2286059856414795
-6.6461687088012695 17.53766632080078 -2.2278034687042236
-8.028423309326172 16.920257568359375 -2.224663734436035
-8.699180603027344 16.570890426635742 -2.223140001296997
-9.029027938842773 16.38631820678711 -2.222390651702881
-9.354985237121582 16.195219039916992 -2.2216501235961914
-9.67696475982666 15.99773120880127 -2.220918655395508
-9.994820594787598 15.793903350830078 -2.220196485519409
-10.308423042297363 15.583818435668945 -2.2194840908050537
-10.617671966552734 15.367607116699219 -2.2187814712524414
-11.518097877502441 14.682931900024414 -2.21673583984375
-12.375171661376953 13.946267127990723 -2.2147884368896484
-12.65071964263916 13.689647674560547 -2.214163064956665
-12.921073913574219 13.42766284942627 -2.213549852371216
-13.186001777648926 13.160383224487305 -2.212948799133301
-13.445517539978027 12.887985229492188 -2.212360382080078
-13.69948673248291 12.610563278198242 -2.2117857933044434
-13.947773933410645 12.328198432922363 -2.2112245559692383
-14.882918357849121 11.151728630065918 -2.209105968475342
-15.101685523986816 10.846457481384277 -2.2086095809936523
-15.314301490783691 10.53696060180664 -2.208127021789551
-15.520671844482422 10.223395347595215 -2.2076611518859863
-15.720797538757324 9.905850410461426 -2.207211494445801
-15.91450309753418 9.58444595336914 -2.2067761421203613
-9.433082580566406 5.424510955810547 -1.2925773859024048
-16.282445907592773 8.930617332458496 -2.2059481143951416
-10.950757026672363 5.721688747406006 -1.467652678489685
4.764949798583984 15.175532341003418 -2.253713369369507
4.456118106842041 15.263917922973633 -2.25301194190979
3.833699941635132 15.421737670898438 -2.251598834991455
3.5203638076782227 15.491129875183105 -2.250887393951416
2.838460683822632 13.77193832397461 -1.9923495054244995
2.549036741256714 13.768571853637695 -1.984005331993103
1.4117662906646729 13.755346298217773 -1.9592223167419434
0.5733410716056824 13.74559497833252 -1.9493021965026855
-0.2596789598464966 13.735910415649414 -1.9465798139572144
-0.5497399568557739 14.052956581115723 -1.9926751852035522
-0.8150597810745239 13.729450225830078 -1.9487419128417969
-1.652712345123291 13.719711303710938 -1.9579836130142212
-2.8332202434539795 15.5278902053833 -2.236459255218506
-3.145237922668457 15.462616920471191 -2.235750675201416
-3.455777406692505 15.391085624694824 -2.2350451946258545
-4.071929454803467 15.229433059692383 -2.2336459159851074
-4.377293109893799 15.139384269714355 -2.232952356338501
-4.680705547332764 15.0432710647583 -2.2322630882263184
-4.982017517089844 14.941083908081055 -2.231578826904297
-5.872262954711914 14.598750114440918 -2.2295567989349365
-6.453174114227295 14.341215133666992 -2.2282371520996094
-6.739503860473633 14.203824996948242 -2.227586507797241
-7.022963523864746 14.06075668334961 -2.226942777633667
-7.303396224975586 13.912079811096191 -2.2263057231903076
-7.8548126220703125 13.59814167022705 -2.225053071975708
-8.125616073608398 13.43303394317627 -2.224437952041626
-8.392910957336426 13.262578010559082 -2.2238314151763916
-9.425874710083008 12.528818130493164 -2.2214887142181396
-9.674506187438965 12.33278751373291 -2.220925807952881
-10.15961742401123 11.92614459991455 -2.21982741355896
-10.395893096923828 11.715704917907715 -2.219291925430298
-10.627866744995117 11.500646591186523 -2.2187654972076416
-11.29702377319336 10.828588485717773 -2.2172467708587646
-11.719988822937012 10.359084129333496 -2.216287136077881
-12.123788833618164 9.873285293579102 -2.215376138687134
-12.31824779510498 9.624518394470215 -2.2149384021759033
-12.507685661315918 9.371973037719727 -2.2145118713378906
-13.045080184936523 8.592718124389648 -2.213297128677368
-13.213689804077148 8.326080322265625 -2.2129156589508057
-13.376896858215332 8.05618667602539 -2.2125465869903564
-13.692383766174316 7.510008811950684 -2.2127175331115723
-12.270840644836426 5.4929304122924805 -1.9048943519592285
-13.778443336486816 5.511234760284424 -2.1026418209075928
3.830207347869873 13.119926452636719 -2.2515876293182373
1.9396288394927979 13.502931594848633 -2.2472949028015137
0.8427026271820068 13.600326538085938 -2.2448041439056396
0.5677172541618347 13.610783576965332 -2.2441797256469727
0.017606200650334358 13.615029335021973 -2.2429304122924805
-0.25727537274360657 13.608818054199219 -2.2423062324523926
-0.8061742782592773 13.579784393310547 -2.2410597801208496
-1.6256237030029297 13.494826316833496 -2.239198684692383
-2.1680541038513184 13.41079330444336 -2.237966775894165
-2.437779426574707 13.360614776611328 -2.237354278564453
-3.7671611309051514 13.029184341430664 -2.234334707260132
-4.028468608856201 12.94701099395752 -2.233741521835327
-4.545625686645508 12.76706314086914 -2.23256778717041
-4.801273822784424 12.669364929199219 -2.231987476348877
-5.306242942810059 12.458752632141113 -2.230841636657715
-5.555355072021484 12.345922470092773 -2.2302768230438232
-6.28803825378418 11.977951049804688 -2.22861647605896
-6.527050018310547 11.845651626586914 -2.228074789047241
-6.763316631317139 11.70858383178711 -2.227538585662842
-6.996723651885986 11.56686019897461 -2.227008819580078
-7.2272257804870605 11.420524597167969 -2.22648549079895
-7.90008544921875 10.954423904418945 -2.2249584197998047
-8.543280601501465 10.449103355407715 -2.223498582839966
-8.750711441040039 10.272260665893555 -2.2230279445648193
-8.954529762268066 10.09134292602539 -2.2225663661956787
-9.154647827148438 9.906436920166016 -2.2221148014068604
-9.350969314575195 9.717602729797363 -2.2216718196868896
-10.096986770629883 8.92452335357666 -2.2199862003326416
-10.445439338684082 8.50648021697998 -2.2191975116729736
-10.77677059173584 8.07500171661377 -2.21844744682312
-7.614480495452881 5.468939781188965 -1.5444196462631226
-7.815788269042969 5.3776350021362305 -1.5629007816314697
-8.304631233215332 5.470216751098633 -1.6382229328155518
-8.66165828704834 5.4578166007995605 -1.686564326286316
-9.340144157409668 5.371066093444824 -1.7749569416046143
-11.891980171203613 6.522531986236572 -2.2344038486480713
-10.84937858581543 5.6687211990356445 -2.0165812969207764
-10.824777603149414 5.380432605743408 -1.9914098978042603
-12.387765884399414 5.545269012451172 -2.235886335372925
-12.595807075500488 5.038182735443115 -2.234858274459839
3.587669610977173 11.426091194152832 -2.251037359237671
2.414670467376709 11.715682983398438 -2.2483742237091064
1.9386498928070068 11.79797077178955 -2.247293472290039
1.6996045112609863 11.831850051879883 -2.246750831604004
1.4599376916885376 11.860893249511719 -2.246206760406494
0.7385265827178955 11.91882038116455 -2.2445688247680664
0.4975537061691284 11.92839527130127 -2.2440216541290283
0.2564685046672821 11.933117866516113 -2.2434744834899902
0.015418700873851776 11.932939529418945 -2.242927074432373
-0.22553710639476776 11.9279146194458 -2.242380142211914
-1.1861584186553955 11.859259605407715 -2.2401998043060303
-1.6632970571517944 11.79598331451416 -2.2391164302825928
-1.9007152318954468 11.75716781616211 -2.2385776042938232
-3.072648763656616 11.49196720123291 -2.235917091369629
-3.3032989501953125 11.424911499023438 -2.235393524169922
-3.532538414001465 11.353224754333496 -2.2348732948303223
-3.760256290435791 11.276960372924805 -2.23435640335083
-4.433147430419922 11.021039962768555 -2.2328288555145264
-4.872399806976318 10.82818603515625 -2.2318320274353027
-5.088956832885742 10.7252197265625 -2.2313404083251953
-5.515524387359619 10.506410598754883 -2.230372190475464
-5.725358963012695 10.39065933227539 -2.229895830154419
-6.137709140777588 10.14671516418457 -2.228959798812866
-6.539764404296875 9.886552810668945 -2.2280502319335938
-6.736748695373535 9.750516891479492 -2.227605104446411
-6.930937767028809 9.610589981079102 -2.227166175842285
-7.310536861419678 9.319280624389648 -2.2263083457946777
-7.4958343505859375 9.168009757995605 -2.22588849067688
-4.788504600524902 5.396437168121338 -1.3560765981674194
-8.032848358154297 8.692541122436523 -2.2246720790863037
-8.205327987670898 8.527046203613281 -2.2242813110351562
-8.374403953552246 8.358152389526367 -2.223898410797119
-8.54004955291748 8.185949325561523 -2.2235233783721924
-7.297965049743652 5.468353748321533 -1.714086890220642
-9.939379692077637 6.547018051147461 -2.237086534500122
-10.198123931884766 6.141780376434326 -2.237626791000366
-9.340279579162598 5.3711442947387695 -2.025186061859131
-10.663461685180664 5.3002448081970215 -2.238248348236084
-10.76499080657959 5.082246780395508 -2.2375564575195312
-10.862081527709961 4.86230993270874 -2.2368664741516113
2.9825279712677 10.216297149658203 -2.249664545059204
2.146559953689575 10.414870262145996 -2.2477667331695557
1.7234911918640137 10.488566398620605 -2.2468061447143555
1.5109984874725342 10.518983840942383 -2.246323585510254
1.0845214128494263 10.566864967346191 -2.2453553676605225
0.8707091808319092 10.58431625366211 -2.244870185852051
0.6566430330276489 10.597453117370605 -2.2443840503692627
0.2280566394329071 10.61071491241455 -2.243411064147949
-0.20052123069763184 10.606672286987305 -2.2424380779266357
-0.628405749797821 10.585339546203613 -2.241466760635376
-0.8418676853179932 10.56820297241211 -2.2409820556640625
-1.9009276628494263 10.41830062866211 -2.2385780811309814
-2.319110155105591 10.328657150268555 -2.237628698348999
-2.526690721511841 10.277548789978027 -2.2371575832366943
-2.7331578731536865 10.222288131713867 -2.2366888523101807
-2.938425302505493 10.162891387939453 -2.236222982406616
-3.142422914505005 10.099390029907227 -2.235759735107422
-3.345045804977417 10.031792640686035 -2.235299825668335
-3.5462310314178467 9.960160255432129 -2.2348437309265137
-3.7458996772766113 9.884521484375 -2.234391689300537
-4.527751922607422 9.542435646057129 -2.232621669769287
-4.907515048980713 9.348211288452148 -2.231761932373047
-5.094351768493652 9.245444297790527 -2.2313382625579834
-3.2773094177246094 5.4179816246032715 -1.3384743928909302
-6.338213920593262 8.424725532531738 -2.2285192012786865
-6.670986175537109 8.159144401550293 -2.2277653217315674
-4.788654804229736 5.396608352661133 -1.5250800848007202
-5.4755964279174805 5.464977264404297 -1.6352672576904297
-5.7018046379089355 5.465397357940674 -1.6695141792297363
-7.935957908630371 7.0144572257995605 -2.2388534545898438
-6.328186511993408 5.3696746826171875 -1.754317283630371
-8.348088264465332 6.522542953491211 -2.2393717765808105
-8.478857040405273 6.353175640106201 -2.239565849304199
-8.850526809692383 5.829789161682129 -2.240211009979248
-9.080679893493652 5.468805313110352 -2.240692615509033
-9.187627792358398 5.283360004425049 -2.2402915954589844
-9.38831615447998 4.9053239822387695 -2.2390573024749756
-9.482850074768066 4.71342658996582 -2.238441228866577
-9.742829322814941 4.127175331115723 -2.2365996837615967
-9.82154655456543 3.9285149574279785 -2.2359964847564697
2.8671765327453613 9.131458282470703 -2.249408006668091
2.681678295135498 9.185782432556152 -2.2489867210388184
2.3076794147491455 9.283069610595703 -2.2481372356414795
1.234230875968933 5.4311394691467285 -1.3089860677719116
1.011877417564392 5.465605735778809 -1.3063697814941406
1.3587793111801147 9.459344863891602 -2.2459828853607178
0.9753198027610779 9.502816200256348 -2.245112419128418
0.012360839173197746 9.543426513671875 -2.242926597595215
-0.3289514183998108 5.541192054748535 -1.3045992851257324
-1.7100268602371216 9.372078895568848 -2.239018440246582
-1.898586392402649 9.333846092224121 -2.238590717315674
-2.086306095123291 9.291829109191895 -2.2381649017333984
-2.2730932235717773 9.246052742004395 -2.237741231918335
-2.458880662918091 9.196532249450684 -2.2373199462890625
-2.8272032737731934 9.086334228515625 -2.2364845275878906
-1.904274821281433 5.348480701446533 -1.3343114852905273
-3.3703794479370117 8.893569946289062 -2.235252618789673
-3.7254087924957275 8.747065544128418 -2.234447479248047
-4.245980739593506 8.500937461853027 -2.233267307281494
-4.584230899810791 8.319685935974121 -2.2325005531311035
-4.75051212310791 8.224020004272461 -2.232123613357544
-5.395106315612793 7.80872106552124 -2.230661392211914
-5.706277370452881 7.5847625732421875 -2.230741500854492
-5.867753028869629 7.4795451164245605 -2.2342007160186768
-6.183028221130371 7.257686138153076 -2.24074125289917
-4.7888078689575195 5.396775245666504 -1.6957149505615234
-6.611658573150635 6.870889186859131 -2.241029739379883
-7.016666889190674 6.45894193649292 -2.241379737854004
-7.396343231201172 6.023390293121338 -2.2418179512023926
-7.517037391662598 5.873225688934326 -2.241983413696289
-7.63470983505249 5.720666885375977 -2.2421584129333496
-7.860620498657227 5.408478260040283 -2.2424817085266113
-7.966268062591553 5.24733829498291 -2.241927146911621
-8.263248443603516 4.751791477203369 -2.2402615547180176
-8.355453491210938 4.5828094482421875 -2.23970627784729
-8.529473304748535 4.239554405212402 -2.2385971546173096
-8.68942928314209 3.8897435665130615 -2.2374913692474365
-8.765624046325684 3.7132256031036377 -2.2373499870300293
-8.838324546813965 3.535240411758423 -2.2372195720672607
2.0942625999450684 8.424566268920898 -2.247657060623169
1.0060741901397705 5.4342522621154785 -1.4309329986572266
1.4066088199615479 8.560138702392578 -2.246095895767212
1.2332360744476318 8.585291862487793 -2.2457022666931152
1.059417724609375 8.606939315795898 -2.245307683944702
0.7107336521148682 8.639650344848633 -2.244516134262085
0.18617796897888184 8.66224193572998 -2.2433254718780518
0.011206054128706455 8.662700653076172 -2.2429285049438477
-0.16371215879917145 8.659626007080078 -2.2425312995910645
-1.0349475145339966 8.591423988342285 -2.2405545711517334
-1.5524646043777466 8.508525848388672 -2.239380359649658
-1.7236828804016113 8.473970413208008 -2.2389919757843018
-1.6982421875 5.457982540130615 -1.4799951314926147
-1.7929785251617432 5.377162456512451 -1.4675979614257812
-1.904241919517517 5.34839391708374 -1.4699478149414062
-3.382781982421875 7.94259786605835 -2.235229015350342
-3.008735179901123 5.4604082107543945 -1.6142147779464722
-4.323943614959717 7.485670566558838 -2.238288640975952
-3.277543306350708 5.418363571166992 -1.6396021842956543
-4.923954486846924 7.12673282623291 -2.242825508117676
-5.066928386688232 7.025909900665283 -2.242849588394165
-5.207844257354736 6.9222564697265625 -2.2428832054138184
-5.34669828414917 6.815803527832031 -2.2429256439208984
-5.483372688293457 6.706594467163086 -2.2429773807525635
-4.7889604568481445 5.396951198577881 -1.8681780099868774
-5.879972457885742 6.362847328186035 -2.243187427520752
-6.3283538818359375 5.36981725692749 -2.1489109992980957
-6.720269203186035 5.472813129425049 -2.243992328643799
-6.828695297241211 5.335419178009033 -2.2437562942504883
-6.9335150718688965 5.1952619552612305 -2.243255853652954
-7.134459018707275 4.90883731842041 -2.2422516345977783
-7.323568344116211 4.6146650314331055 -2.2412447929382324
-7.500574588775635 4.31321382522583 -2.240236520767212
-7.584438323974609 4.1599249839782715 -2.239732503890991
-7.665182113647461 4.004998207092285 -2.2392289638519287
-7.8184428215026855 3.6911609172821045 -2.2385969161987305
-7.890948295593262 3.5323143005371094 -2.2384705543518066
-7.9602861404418945 3.372065305709839 -2.2383575439453125
-8.128345489501953 3.251243829727173 -2.266684055328369
2.3831028938293457 7.5897746086120605 -2.2520368099212646
2.227978467941284 7.631564140319824 -2.250624418258667
1.4728710651397705 5.452108860015869 -1.5987805128097534
1.3553979396820068 5.452325820922852 -1.5904911756515503
1.2346349954605103 5.4329118728637695 -1.577233910560608
1.1008837223052979 5.341341972351074 -1.5438766479492188
1.006020426750183 5.433961868286133 -1.5644558668136597
0.7833569049835205 5.453385353088379 -1.559659719467163
0.9688610434532166 7.8712286949157715 -2.245105504989624
0.6500024199485779 7.9013848304748535 -2.244381904602051
-0.3182629346847534 5.361178398132324 -1.5203821659088135
-0.4265710413455963 5.354952812194824 -1.5207504034042358
-0.7878857254981995 7.877243995666504 -2.2411186695098877
-0.657244861125946 5.456053733825684 -1.55573570728302
-1.262783169746399 7.811319828033447 -2.2400407791137695
-1.420111060142517 7.7829813957214355 -2.239683151245117
-2.042612314224243 7.6397857666015625 -2.238741636276245
-1.904211401939392 5.348308563232422 -1.607169508934021
-2.810696840286255 7.416029453277588 -2.2451272010803223
-2.959536075592041 7.3575639724731445 -2.2450649738311768
-2.325063467025757 5.459142208099365 -1.6797722578048706
-2.4393467903137207 5.421095371246338 -1.682883620262146
-2.5905139446258545 5.459634304046631 -1.710741639137268
-3.685760498046875 7.0208868980407715 -2.2447969913482666
-3.9661736488342285 6.866180896759033 -2.244748592376709
-4.374642848968506 6.6133856773376465 -2.244739294052124
-4.507331371307373 6.5237345695495605 -2.244753122329712
-4.767209529876709 6.336550712585449 -2.2448058128356934
-4.894283771514893 6.2390947341918945 -2.244844675064087
-5.01939058303833 6.139109134674072 -2.244892120361328
-5.142480373382568 6.036637306213379 -2.244947910308838
-4.789115905761719 5.397125720977783 -2.0426759719848633
-5.499109268188477 5.714723587036133 -2.2451651096343994
-5.613618850708008 5.602724075317383 -2.2452542781829834
-5.725865840911865 5.4884514808654785 -2.245351552963257
-6.044981956481934 5.129369258880615 -2.2443459033966064
-6.146101951599121 5.005227565765381 -2.2438910007476807
-6.244663715362549 4.879093647003174 -2.243434429168701
-6.340614318847656 4.751012325286865 -2.2429769039154053
-6.433967113494873 4.621057033538818 -2.242518186569214
-6.524638652801514 4.4892578125 -2.242058515548706
-6.7803192138671875 4.08342170715332 -2.2406766414642334
-6.936905384063721 3.8047704696655273 -2.23978328704834
-7.011946201324463 3.663691997528076 -2.239656925201416
-7.636994361877441 3.235117197036743 -2.3479607105255127
2.1944384574890137 6.988905429840088 -2.2531111240386963
2.052584171295166 7.030882835388184 -2.2528188228607178
1.2348376512527466 5.433806419372559 -1.713928461074829
1.0059655904769897 5.433670997619629 -1.6996779441833496
1.04052734375 7.2438578605651855 -2.250925302505493
0.3379601836204529 5.4542107582092285 -1.6808135509490967
0.11724121123552322 5.454618453979492 -1.6781084537506104
0.0070605468936264515 5.4548234939575195 -1.6777856349945068
-0.28581541776657104 7.306133270263672 -2.248927354812622
-0.318267822265625 5.361245632171631 -1.6519051790237427
-0.8741845488548279 7.256932735443115 -2.2482123374938965
-1.0204992294311523 7.237278461456299 -2.2480509281158447
-0.8821130394935608 5.456470012664795 -1.7000808715820312
-0.9956225156784058 5.4566802978515625 -1.7060644626617432
-1.2252856492996216 5.457106113433838 -1.7202764749526978
-2.0292394161224365 7.0183844566345215 -2.247124671936035
-2.1704797744750977 6.975651264190674 -2.2470219135284424
-1.7931383848190308 5.3776397705078125 -1.7435706853866577
-1.9041820764541626 5.348221778869629 -1.7461504936218262
-2.588569164276123 6.830624103546143 -2.2467589378356934
-2.725900888442993 6.776741027832031 -2.2466864585876465
-2.997174024581909 6.660774230957031 -2.2465646266937256
-3.131006956100464 6.5987420082092285 -2.2465150356292725
-3.5246777534484863 6.396753311157227 -2.246413469314575
-3.653109073638916 6.324216842651367 -2.2463948726654053
-3.2777819633483887 5.418757915496826 -1.9478968381881714
-4.029340744018555 6.091377258300781 -2.2463862895965576
-4.151556491851807 6.008802890777588 -2.24639892578125
-4.507952690124512 5.746608257293701 -2.246483564376831
-4.847987174987793 5.4634623527526855 -2.2466378211975098
-4.956972599029541 5.364053249359131 -2.246473789215088
-5.0633649826049805 5.261903762817383 -2.2460665702819824
-5.467462062835693 4.832588195800781 -2.2444159984588623
-5.746835231781006 4.490132808685303 -2.2431600093841553
-5.835248947143555 4.372334957122803 -2.242738962173462
-5.921239376068115 4.252803325653076 -2.242316722869873
-6.00478458404541 4.1315741539001465 -2.241893768310547
-6.240593910217285 3.758378267288208 -2.240694046020508
-6.314890384674072 3.6313817501068115 -2.2405714988708496
-6.38659143447876 3.5029284954071045 -2.2404520511627197
-7.097863674163818 3.177286386489868 -2.3918962478637695
-7.16032075881958 3.033193349838257 -2.3918135166168213
1.235048770904541 5.434730529785156 -1.8525886535644531
1.0059118270874023 5.4333696365356445 -1.8367713689804077
1.0986437797546387 6.685947895050049 -2.2522499561309814
0.9632946848869324 6.7060699462890625 -2.2520153522491455
0.6915649175643921 6.7381486892700195 -2.25156307220459
0.5552929639816284 6.750088214874268 -2.25134539604187
-0.1279614269733429 6.768671035766602 -2.2503461837768555
-0.3182714879512787 5.3613152503967285 -1.7852669954299927
-0.42656004428863525 5.354806423187256 -1.7856048345565796
-0.6735595464706421 6.7342119216918945 -2.2496581077575684
-0.9448217749595642 6.7006096839904785 -2.2493529319763184
-1.214486002922058 6.65616512298584 -2.2490737438201904
-1.3485815525054932 6.6298956871032715 -2.2489442825317383
-1.4821202754974365 6.600948810577393 -2.24882173538208
-1.6150403022766113 6.569334983825684 -2.2487058639526367
-1.747292399406433 6.535061359405518 -2.248596668243408
-1.8788256645202637 6.498146057128906 -2.2484946250915527
-2.009589910507202 6.458601474761963 -2.248399496078491
-1.793218970298767 5.3778862953186035 -1.884398341178894
-2.5238842964172363 6.274503707885742 -2.2480885982513428
-2.650010824203491 6.222087860107422 -2.2480287551879883
-3.1432433128356934 5.987497806549072 -2.2478599548339844
-3.382404088973999 5.8555755615234375 -2.2478184700012207
-3.277902841567993 5.4189605712890625 -2.105196475982666
-3.7307586669921875 5.639993190765381 -2.2478106021881104
-4.065469741821289 5.403796672821045 -2.247833728790283
-4.173079013824463 5.319730758666992 -2.2474701404571533
-4.278985023498535 5.233519554138184 -2.2471039295196533
-4.38307523727417 5.145190715789795 -2.246734619140625
-4.684243202209473 4.867913246154785 -2.2456116676330566
-4.780795097351074 4.771510601043701 -2.2452328205108643
-4.875346660614014 4.6731977462768555 -2.24485182762146
-4.967875957489014 4.5730085372924805 -2.244469165802002
-5.058351993560791 4.470983028411865 -2.2440848350524902
-5.146731853485107 4.367164134979248 -2.243699073791504
-5.232973098754883 4.261597156524658 -2.243311643600464
-5.31704568862915 4.154329299926758 -2.2429230213165283
-5.478561878204346 3.9348602294921875 -2.242142915725708
-5.555939197540283 3.8227484226226807 -2.2417516708374023
-5.6313300132751465 3.7093381881713867 -2.2414894104003906
-5.704790115356445 3.5946617126464844 -2.241370439529419
-5.8447160720825195 3.3610289096832275 -2.2411510944366455
-5.934263706207275 3.2548351287841797 -2.249809741973877
-6.509084224700928 3.073012590408325 -2.3926734924316406
-6.5696306228637695 2.940836191177368 -2.3925933837890625
1.8889013528823853 6.015808582305908 -2.2548508644104004
1.6440625190734863 6.0858283042907715 -2.2543516159057617
1.2352588176727295 5.4356536865234375 -1.9933834075927734
0.5163854956626892 6.277170658111572 -2.2523443698883057
0.38947996497154236 6.285769462585449 -2.2521474361419678
-0.24607788026332855 6.290493488311768 -2.2512459754943848
-0.3182763457298279 5.361384868621826 -1.9206435680389404
-0.6264001131057739 6.2627387046813965 -2.25077486038208
-0.8786828517913818 6.231546878814697 -2.250490665435791
-1.1294775009155273 6.190268039703369 -2.2502310276031494
-1.3783910274505615 6.138965129852295 -2.2499964237213135
-1.50201416015625 6.109584331512451 -2.2498886585235596
-1.6250158548355103 6.077730178833008 -2.2497870922088623
-1.7473498582839966 6.043420791625977 -2.249691963195801
-1.793300747871399 5.3781352043151855 -2.0273611545562744
-2.4646031856536865 5.7867655754089355 -2.249258518218994
-2.6961607933044434 5.682286739349365 -2.24916672706604
-2.923342227935791 5.568613529205322 -2.249101400375366
-3.035174608230591 5.50838565826416 -2.2490789890289307
-3.1457762718200684 5.445924758911133 -2.249063014984131
-3.2549192905426025 5.380946636199951 -2.2489218711853027
-3.4685466289520264 5.2436113357543945 -2.248274564743042
-3.5732269287109375 5.171733856201172 -2.247945785522461
-3.6763916015625 5.097772598266602 -2.2476141452789307
-4.443139553070068 4.434517860412598 -2.2448625564575195
-4.701272964477539 4.155364990234375 -2.2437961101531982
-4.7834649085998535 4.05892276763916 -2.2434372901916504
-4.863680839538574 3.960855722427368 -2.243077278137207
-5.018045425415039 3.76000714302063 -2.242354154586792
-5.397722244262695 3.250758647918701 -2.2532899379730225
-5.868423938751221 3.218712091445923 -2.393519639968872
-5.9320220947265625 3.099428653717041 -2.3934357166290283
-6.051961421966553 2.857165575027466 -2.3932769298553467
1.763222575187683 5.615547180175781 -2.2555665969848633
1.6492822170257568 5.649420738220215 -2.25533127784729
1.2354736328125 5.436598300933838 -2.136523962020874
1.00579833984375 5.4327616691589355 -2.1173088550567627
0.9537133574485779 5.803964138031006 -2.254011869430542
0.8362316489219666 5.821512699127197 -2.25380802154541
0.6003612875938416 5.849515914916992 -2.253415107727051
0.363593727350235 5.868013381958008 -2.253041982650757
0.0076013184152543545 5.877903461456299 -2.252520799636841
-0.11109496653079987 5.876434803009033 -2.2523577213287354
-0.31828123331069946 5.36145544052124 -2.058222532272339
-0.4265466332435608 5.354653835296631 -2.0584988594055176
-0.7027075290679932 5.8333940505981445 -2.251624345779419
-0.9375951886177063 5.799607276916504 -2.251370429992676
-1.402281403541565 5.703918933868408 -2.250932216644287
-1.7933862209320068 5.378383159637451 -2.1726574897766113
-1.9040844440460205 5.3479509353637695 -2.17545485496521
-2.0810546875 5.4914140701293945 -2.2504541873931885
-2.1914758682250977 5.44812536239624 -2.2503960132598877
-2.516644239425659 5.303959369659424 -2.2497715950012207
-2.934957265853882 5.080968379974365 -2.248619556427002
-3.036576986312866 5.019994258880615 -2.2483227252960205
-3.429913282394409 4.7559967041015625 -2.247102975845337
-3.6181578636169434 4.6123247146606445 -2.2464756965637207
-3.800387382507324 4.461184978485107 -2.245838165283203
-4.145596027374268 4.137549877166748 -2.2445366382598877
-4.227685451507568 4.052392959594727 -2.244206428527832
-4.683402061462402 3.5092668533325195 -2.2427029609680176
-4.926873207092285 3.245316743850708 -2.260869264602661
-5.477391242980957 3.00424861907959 -2.394035816192627
-5.593905448913574 2.7804276943206787 -2.3938817977905273
-5.701274394989014 2.552119016647339 -2.393739700317383
-5.799358367919922 2.3196818828582764 -2.3936100006103516
1.5443835258483887 5.2900848388671875 -2.255476236343384
1.4371899366378784 5.320014953613281 -2.2553999423980713
1.3293932676315308 5.347759246826172 -2.255317449569702
0.8932836651802063 5.436218738555908 -2.254746437072754
0.783251941204071 5.452688694000244 -2.2545557022094727
0.6729211211204529 5.466945171356201 -2.2543692588806152
0.562329113483429 5.478975296020508 -2.2541873455047607
0.34056761860847473 5.496364116668701 -2.253837823867798
0.1183154284954071 5.504823684692383 -2.253507375717163
0.007122802548110485 5.505708694458008 -2.253349542617798
-0.10406005382537842 5.504354953765869 -2.2531967163085938
-0.2151843160390854 5.50076961517334 -2.253048896789551
-0.43708738684654236 5.486908435821533 -2.2527687549591064
-0.5477758646011353 5.47664213180542 -2.252636432647705
-0.6582250595092773 5.4641547203063965 -2.252509355545044
-0.878253161907196 5.432541847229004 -2.2522714138031006
-0.9877355694770813 5.4134321212768555 -2.2521605491638184
-1.0967859029769897 5.391994953155518 -2.251999855041504
-1.2053418159484863 5.368236541748047 -2.251786708831787
-1.3133776187896729 5.342280864715576 -2.251568555831909
-1.4208569526672363 5.314146041870117 -2.2513458728790283
-1.5277307033538818 5.283834934234619 -2.2511186599731445
-1.6339635848999023 5.251364231109619 -2.250886917114258
-1.7394957542419434 5.2167463302612305 -2.250650644302368
-1.8442968130111694 5.180000305175781 -2.2504100799560547
-2.2552855014801025 5.0120391845703125 -2.2494070529937744
-2.3557727336883545 4.964899063110352 -2.2491464614868164
-2.4552721977233887 4.915731906890869 -2.248882293701172
-2.5537376403808594 4.864564895629883 -2.248614549636841
-2.651141405105591 4.811417579650879 -2.2483432292938232
-2.9365320205688477 4.6403350830078125 -2.247509479522705
-3.0292625427246094 4.579507350921631 -2.247225522994995
-3.3871800899505615 4.3178815841674805 -2.2460618019104004
-3.4732279777526855 4.2480340003967285 -2.2457644939422607
-3.7225871086120605 4.028298854827881 -2.244859457015991
-3.802664041519165 3.9517626762390137 -2.244554042816162
-3.9580540657043457 3.793937921524048 -2.2439374923706055
-4.033303737640381 3.7127184867858887 -2.2436270713806152
-4.250026226043701 3.4611198902130127 -2.2432663440704346
-4.38596773147583 3.2863945960998535 -2.243077278137207
-4.696505546569824 3.231417655944824 -2.3331985473632812
-4.886563777923584 3.218731641769409 -2.3948161602020264
-4.950369834899902 3.119281053543091 -2.3947317600250244
-5.012178897857666 3.018566846847534 -2.3946502208709717
-5.129664897918701 2.813518524169922 -2.3944947719573975
-5.1852850914001465 2.70926570892334 -2.394421100616455
-5.2387495040893555 2.603919506072998 -2.394350528717041
