ply
format ascii 1.0
element vertex 840
property float x
property float y
property float z
end_header
10.847002029418945 -30.943639755249023 -2.4042139053344727
12.077714920043945 -30.486467361450195 -2.4043612480163574
12.686005592346191 -30.239437103271484 -2.4044337272644043
13.6594820022583 -27.759525299072266 -2.268453359603882
14.654062271118164 -26.995750427246094 -2.252210855484009
15.191991806030273 -26.69771385192871 -2.2522730827331543
16.768476486206055 -25.739721298217773 -2.252453088760376
17.581483840942383 -24.760644912719727 -2.226625680923462
17.608924865722656 -23.776254653930664 -2.16937518119812
17.557353973388672 -21.82278823852539 -2.05366849899292
17.626699447631836 -19.3990478515625 -1.9218566417694092
17.52372932434082 -17.798900604248047 -1.8314119577407837
17.4271183013916 -17.005929946899414 -1.7853692770004272
17.682519912719727 -16.577219009399414 -1.777177095413208
17.573301315307617 -15.825886726379395 -1.7340054512023926
18.893720626831055 -15.691947937011719 -1.800819993019104
19.498212814331055 -15.545052528381348 -1.8284029960632324
21.27042007446289 -15.607319831848145 -1.9344028234481812
22.100780487060547 -15.545637130737305 -1.9812041521072388
26.27421760559082 -15.497764587402344 -2.236643075942993
26.579511642456055 -14.968836784362793 -2.2366700172424316
26.87415885925293 -14.433900833129883 -2.2366955280303955
27.430946350097656 -13.346797943115234 -2.236741542816162
28.396209716796875 -11.764662742614746 -2.2536916732788086
31.00909996032715 -10.0252685546875 -2.389523983001709
31.203670501708984 -9.40251350402832 -2.3895344734191895
31.71211814880371 -7.512617111206055 -2.3895556926727295
31.856191635131836 -6.876267433166504 -2.389559507369995
31.987470626831055 -6.237153053283691 -2.389561414718628
32.105926513671875 -5.595545291900635 -2.389561653137207
32.38379669189453 -3.6582586765289307 -2.389552354812622
32.50407028198242 -2.358971118927002 -2.3895375728607178
32.54468536376953 -1.707784652709961 -2.3895275592803955
32.586639404296875 -0.40363311767578125 -2.389502763748169
-0.07993163913488388 -25.026424407958984 -2.4026734828948975
0.92201167345047 -25.010921478271484 -2.402801752090454
1.422548770904541 -24.98810577392578 -2.402865409851074
1.9225585460662842 -24.95526885986328 -2.4029288291931152
2.9201366901397705 -24.859630584716797 -2.403054714202881
3.91314435005188 -24.724071502685547 -2.403179168701172
6.848788738250732 -24.080595016479492 -2.403541088104248
8.282489776611328 -23.62777328491211 -2.403714656829834
8.754033088684082 -23.457788467407227 -2.403771162033081
9.222119331359863 -23.278432846069336 -2.403826951980591
11.055731773376465 -22.468088150024414 -2.404043674468994
11.503583908081055 -22.242748260498047 -2.4040958881378174
11.946796417236328 -22.008432388305664 -2.4041473865509033
13.615644454956055 -20.90009307861328 -2.3947412967681885
14.335136413574219 -18.566837310791016 -2.251973867416382
15.067431449890137 -17.9787654876709 -2.252054452896118
16.120264053344727 -17.04277801513672 -2.2521677017211914
16.790117263793945 -16.384319305419922 -2.2522385120391846
17.4244327545166 -15.691821098327637 -2.2511961460113525
17.671552658081055 -15.284890174865723 -2.2431282997131348
18.207782745361328 -14.516213417053223 -2.2355847358703613
18.4949893951416 -14.148996353149414 -2.2356131076812744
19.3116397857666 -13.013787269592285 -2.235691547393799
19.568485260009766 -12.624701499938965 -2.235715389251709
20.058584213256836 -11.83149528503418 -2.235759735107422
22.37074089050293 -10.884697914123535 -2.388434648513794
22.584354400634766 -10.434758186340332 -2.38845157623291
22.788856506347656 -9.980608940124512 -2.388467311859131
22.984228134155273 -9.522462844848633 -2.388481855392456
23.34723663330078 -8.594852447509766 -2.3885068893432617
23.5147647857666 -8.125772476196289 -2.3885176181793213
23.67276382446289 -7.6534318923950195 -2.3885269165039062
24.089677810668945 -6.218710422515869 -2.388546943664551
24.20940399169922 -5.735218524932861 -2.3885512351989746
24.51007843017578 -4.271708965301514 -2.3885557651519775
24.59064483642578 -3.7801733016967773 -2.388554573059082
24.722196578979492 -2.792759418487549 -2.3885486125946045
24.814071655273438 -1.8008724451065063 -2.3885371685028076
24.845067977905273 -1.3037471771240234 -2.3885295391082764
24.877119064331055 -0.30814024806022644 -2.3885107040405273
23.28873062133789 0.1778070032596588 -2.2358953952789307
0.7451464533805847 -20.213132858276367 -2.40266752243042
1.55374014377594 -20.16797637939453 -2.4027702808380127
3.16241192817688 -19.98072624206543 -2.402972459793091
4.356328010559082 -19.756103515625 -2.403120517730713
5.53466796875 -19.460140228271484 -2.4032647609710693
5.923261642456055 -19.3458309173584 -2.4033122062683105
6.309482097625732 -19.22374153137207 -2.4033589363098145
6.693193435668945 -19.09393882751465 -2.40340518951416
7.074228286743164 -18.95646858215332 -2.4034509658813477
7.452441215515137 -18.81142807006836 -2.403496026992798
7.827685356140137 -18.65882110595703 -2.40354061126709
8.19979476928711 -18.498693466186523 -2.4035847187042236
8.568642616271973 -18.33118438720703 -2.40362811088562
8.934062004089355 -18.156278610229492 -2.4036710262298584
9.295907974243164 -17.974088668823242 -2.4037132263183594
10.358593940734863 -17.38457679748535 -2.4038360118865967
10.704696655273438 -17.173995971679688 -2.4038755893707275
11.046562194824219 -16.956541061401367 -2.403914213180542
11.383984565734863 -16.73227310180664 -2.4039523601531982
12.686767578125 -15.768912315368652 -2.404097318649292
13.611015319824219 -14.979568481445312 -2.4041976928710938
14.320497512817383 -13.974393844604492 -2.376786708831787
15.102988243103027 -13.063238143920898 -2.371999740600586
16.24165916442871 -11.917404174804688 -2.3929288387298584
16.68787956237793 -11.245697975158691 -2.3903794288635254
16.904287338256836 -10.905888557434082 -2.389616012573242
17.11474609375 -10.562528610229492 -2.3889899253845215
17.319169998168945 -10.215664863586426 -2.388495922088623
17.517578125 -9.865405082702637 -2.3881325721740723
17.709989547729492 -9.511892318725586 -2.387923002243042
17.896465301513672 -9.155240058898926 -2.387869119644165
18.07597541809082 -8.795040130615234 -2.387845039367676
18.413671493530273 -8.064453125 -2.3878610134124756
18.571514129638672 -7.69425630569458 -2.3878729343414307
18.721923828125 -7.32096004486084 -2.387883424758911
18.864824295043945 -6.944730758666992 -2.387892961502075
19.0001163482666 -6.565700054168701 -2.387901544570923
19.1278018951416 -6.184036731719971 -2.387908935546875
19.46464729309082 -5.0247673988342285 -2.387925386428833
19.561386108398438 -4.634101867675781 -2.3879287242889404
19.6502628326416 -4.241573333740234 -2.3879311084747314
19.731229782104492 -3.8473386764526367 -2.387932300567627
19.80428695678711 -3.4515676498413086 -2.387932300567627
19.869422912597656 -3.054408550262451 -2.3879315853118896
20.016836166381836 -1.8562142848968506 -2.387922525405884
20.049951553344727 -1.455116868019104 -2.3879175186157227
20.075029373168945 -1.0534390211105347 -2.387911558151245
20.092021942138672 -0.6513381600379944 -2.387904405593872
-0.05415038764476776 -16.955963134765625 -2.402489185333252
0.2853027284145355 -16.953937530517578 -2.4025325775146484
0.6246679425239563 -16.945140838623047 -2.402575969696045
1.6407713890075684 -16.87798500061035 -2.402704954147339
2.985908031463623 -16.693819046020508 -2.4028732776641846
3.3195605278015137 -16.63098907470703 -2.4029147624969482
3.982792854309082 -16.485349655151367 -2.40299654006958
4.312089920043945 -16.402570724487305 -2.4030368328094482
4.639667987823486 -16.313232421875 -2.403076648712158
4.965400218963623 -16.21735382080078 -2.403116464614868
5.289150238037109 -16.11497688293457 -2.403155565261841
5.930185317993164 -15.890827178955078 -2.4032325744628906
6.561738014221191 -15.641188621520996 -2.4033079147338867
6.87365198135376 -15.506927490234375 -2.4033448696136475
7.489120960235596 -15.219804763793945 -2.4034171104431152
7.792450904846191 -15.06706714630127 -2.4034526348114014
8.09261703491211 -14.908251762390137 -2.40348744392395
9.54262638092041 -14.025827407836914 -2.403653144836426
9.821630477905273 -13.832157135009766 -2.403684377670288
10.09658145904541 -13.632787704467773 -2.4036865234375
10.633779525756836 -13.217159271240234 -2.403588056564331
10.896220207214355 -13.001615524291992 -2.403587818145752
11.656991958618164 -12.324085235595703 -2.403578519821167
11.901337623596191 -12.088218688964844 -2.4035730361938477
12.375605583190918 -11.602033615112305 -2.403557538986206
12.605351448059082 -11.351926803588867 -2.403548002243042
12.830018997192383 -11.097241401672363 -2.403536796569824
13.049540519714355 -10.838109970092773 -2.40352463722229
13.472792625427246 -10.306923866271973 -2.4034957885742188
13.6763277053833 -10.035070419311523 -2.403479814529419
13.874364852905273 -9.75920581817627 -2.4034621715545654
14.430546760559082 -8.905943870544434 -2.4026944637298584
14.601386070251465 -8.612584114074707 -2.4019463062286377
14.764970779418945 -8.31521987915039 -2.4009838104248047
15.07176685333252 -7.710221767425537 -2.3987176418304443
15.352822303771973 -7.093543529510498 -2.396299123764038
15.735380172729492 -6.153117656707764 -2.3939321041107178
16.167226791381836 -4.8716230392456055 -2.3924596309661865
16.25918960571289 -4.546343803405762 -2.3921165466308594
16.792362213134766 -1.5571997165679932 -2.3895039558410645
16.833202362060547 -0.883298933506012 -2.3883678913116455
16.848817825317383 -0.2086969017982483 -2.387477397918701
16.849550247192383 0.12864501774311066 -2.38746976852417
0.5371972322463989 -14.573810577392578 -2.4025096893310547
0.8288671970367432 -14.5603666305542 -2.4025468826293945
1.4111523628234863 -14.51595401763916 -2.402620553970337
1.7014843225479126 -14.485027313232422 -2.4026570320129395
2.280039072036743 -14.405733108520508 -2.4027295112609863
2.568007707595825 -14.35741901397705 -2.4027652740478516
2.854970693588257 -14.303349494934082 -2.402801036834717
3.140702962875366 -14.243523597717285 -2.402836322784424
4.270458698272705 -13.947427749633789 -2.4029743671417236
4.549091815948486 -13.8592529296875 -2.4029948711395264
4.825400352478027 -13.765238761901855 -2.4029650688171387
5.372480392456055 -13.561193466186523 -2.4029881954193115
5.642929553985596 -13.451024055480957 -2.4030051231384277
5.911113262176514 -13.335441589355469 -2.4030206203460693
6.176933288574219 -13.214523315429688 -2.4030351638793945
6.440263748168945 -13.088274002075195 -2.403048515319824
6.959120750427246 -12.820099830627441 -2.403071880340576
7.214404106140137 -12.67827320098877 -2.4030818939208984
7.466786861419678 -12.531347274780273 -2.403090715408325
7.962499618530273 -12.222479820251465 -2.4031050205230713
8.445419311523438 -11.893988609313965 -2.4031147956848145
9.369843482971191 -11.1802978515625 -2.403120517730713
9.591776847839355 -10.99046516418457 -2.4031190872192383
9.8098726272583 -10.79623031616211 -2.403116464614868
10.02401351928711 -10.59766674041748 -2.4031126499176025
11.930878639221191 -8.392147064208984 -2.403012752532959
12.096405982971191 -8.151571273803711 -2.40299654006958
12.257089614868164 -7.90771484375 -2.4029791355133057
12.41283130645752 -7.660701751708984 -2.402961015701294
12.563612937927246 -7.410604000091553 -2.4029414653778076
13.115673065185547 -6.381561279296875 -2.402852773666382
13.240683555603027 -6.117656230926514 -2.4028282165527344
13.3603515625 -5.851299285888672 -2.4028024673461914
13.877391815185547 -4.486570835113525 -2.402658224105835
14.045488357543945 -3.9273557662963867 -2.4025938510894775
14.12108325958252 -3.6453330516815186 -2.402560234069824
14.191044807434082 -3.3618650436401367 -2.4025256633758545
14.254179000854492 -3.0768115520477295 -2.4023022651672363
14.36068344116211 -2.5028395652770996 -2.40142822265625
14.405888557434082 -2.2145307064056396 -2.4010891914367676
14.446367263793945 -1.9255635738372803 -2.400930166244507
14.507919311523438 -1.345357894897461 -2.4002766609191895
14.558603286743164 -0.47195738554000854 -2.3996307849884033
14.5645112991333 0.1111907958984375 -2.399414300918579
-0.04082031175494194 -12.78024673461914 -2.402198076248169
0.21504881978034973 -12.778664588928223 -2.4022295475006104
0.7264355421066284 -12.760144233703613 -2.402290105819702
0.981738269329071 -12.743196487426758 -2.4023191928863525
1.236669898033142 -12.721139907836914 -2.4023475646972656
1.491113305091858 -12.693976402282715 -2.402374744415283
1.9981054067611694 -12.62437915802002 -2.4024271965026855
2.5019140243530273 -12.534538269042969 -2.4024758338928223
2.7523632049560547 -12.482047080993652 -2.402498960494995
4.228525161743164 -12.062883377075195 -2.402617931365967
4.945077896118164 -11.787538528442383 -2.4026646614074707
5.180087566375732 -11.686254501342773 -2.4026782512664795
6.543359279632568 -10.981562614440918 -2.4027397632598877
6.761904239654541 -10.84839916229248 -2.4027466773986816
6.977744102478027 -10.710881233215332 -2.40275239944458
7.19079065322876 -10.569071769714355 -2.402757167816162
7.608115196228027 -10.272769927978516 -2.402763843536377
8.405527114868164 -9.631227493286133 -2.4027647972106934
8.784306526184082 -9.287006378173828 -2.402759075164795
9.149003982543945 -8.927891731262207 -2.402749538421631
9.325907707214355 -8.742911338806152 -2.402743339538574
9.498993873596191 -8.554450035095215 -2.402735948562622
10.306122779846191 -7.562169075012207 -2.4026846885681152
10.741278648376465 -6.929790019989014 -2.402642250061035
10.87777328491211 -6.713321208953857 -2.4026260375976562
11.00991153717041 -6.4941582679748535 -2.40260910987854
11.137626647949219 -6.272398948669434 -2.4025909900665283
11.493769645690918 -5.592408180236816 -2.402531623840332
11.808398246765137 -4.892268657684326 -2.402463674545288
12.080370903015137 -4.174510478973389 -2.402387857437134
12.436347007751465 -2.946176052093506 -2.4022445678710938
12.49266529083252 -2.696582794189453 -2.4022135734558105
12.543973922729492 -2.4459168910980225 -2.402181625366211
12.590263366699219 -2.194279432296753 -2.402148962020874
12.631474494934082 -1.9417736530303955 -2.4021155834198
12.724726676940918 -1.1799969673156738 -2.402010917663574
12.76137638092041 -0.6696542501449585 -2.40193772315979
12.777548789978027 -0.15826964378356934 -2.4018616676330566
0.19120116531848907 -11.361865043640137 -2.402010440826416
1.099550724029541 -11.310648918151855 -2.4021153450012207
1.325771450996399 -11.286483764648438 -2.402139663696289
1.5514745712280273 -11.257800102233887 -2.40216326713562
1.7765429019927979 -11.224592208862305 -2.402186155319214
2.4471776485443115 -11.098004341125488 -2.402249813079834
3.1089940071105957 -10.931352615356445 -2.40230655670166
3.5441503524780273 -10.798288345336914 -2.4023401737213135
3.759638547897339 -10.725248336791992 -2.402355670928955
3.9736132621765137 -10.647894859313965 -2.4023704528808594
4.186044692993164 -10.566255569458008 -2.4023842811584473
5.221093654632568 -10.095307350158691 -2.4024407863616943
5.621220588684082 -9.878195762634277 -2.4024572372436523
5.817685604095459 -9.763799667358398 -2.4024641513824463
6.012089729309082 -9.64535903930664 -2.402470111846924
6.20388650894165 -9.523140907287598 -2.402475357055664
8.291708946228027 -7.773383617401123 -2.4024672508239746
8.743261337280273 -7.261587142944336 -2.402445077896118
8.886836051940918 -7.085085391998291 -2.4024360179901123
9.026865005493164 -6.905716896057129 -2.40242600440979
9.163251876831055 -6.723589897155762 -2.4024150371551514
9.29598617553711 -6.5387749671936035 -2.4024033546447754
9.550175666809082 -6.161345481872559 -2.4023773670196533
9.789052963256836 -5.774036884307861 -2.4023478031158447
10.409960746765137 -4.559145927429199 -2.4022395610809326
10.499052047729492 -4.3498029708862305 -2.4022185802459717
10.583925247192383 -4.138712406158447 -2.4021968841552734
10.664579391479492 -3.9259581565856934 -2.402174472808838
10.740927696228027 -3.7116448879241943 -2.402151346206665
10.94400405883789 -3.0601282119750977 -2.4020769596099854
11.15323257446289 -2.1747384071350098 -2.401967763900757
11.231074333190918 -1.7264858484268188 -2.401909112930298
11.290907859802246 -1.275471806526184 -2.4018478393554688
11.314013481140137 -1.0491836071014404 -2.4018161296844482
11.361103057861328 -0.36830076575279236 -2.4027693271636963
11.366630554199219 0.08677306771278381 -2.402754068374634
-0.03263671696186066 -10.220799446105957 -2.4021360874176025
0.17197264730930328 -10.219480514526367 -2.402153491973877
0.376533180475235 -10.214068412780762 -2.4021708965301514
0.5809375047683716 -10.204545974731445 -2.4021859169006348
0.7850195169448853 -10.189730644226074 -2.4019176959991455
1.3952832221984863 -10.124455451965332 -2.401970863342285
1.7994921207427979 -10.060659408569336 -2.4020113945007324
2.000546932220459 -10.022692680358887 -2.4020304679870605
2.200810432434082 -9.98071575164795 -2.4020488262176514
2.7959861755371094 -9.83082389831543 -2.402099847793579
3.187324047088623 -9.711141586303711 -2.402130126953125
3.3811230659484863 -9.645442962646484 -2.402144193649292
3.573554515838623 -9.575878143310547 -2.4021573066711426
3.7645604610443115 -9.50246524810791 -2.402169704437256
4.328183650970459 -9.259513854980469 -2.402202606201172
5.055087566375732 -8.883727073669434 -2.402235269546509
5.231943130493164 -8.780760765075684 -2.4022417068481445
5.40673828125 -8.6742525100708 -2.402247190475464
5.749658107757568 -8.450891494750977 -2.4022555351257324
5.917695045471191 -8.334108352661133 -2.4022586345672607
6.873749732971191 -7.564920425415039 -2.402259588241577
7.023828029632568 -7.425777912139893 -2.402256965637207
7.171054363250732 -7.283672332763672 -2.4022536277770996
7.862978458404541 -6.53048038482666 -2.402224540710449
8.118037223815918 -6.210442543029785 -2.402207374572754
8.240693092346191 -6.046656131744385 -2.4021975994110107
8.360058784484863 -5.880446434020996 -2.402186870574951
8.476064682006836 -5.711883544921875 -2.4021754264831543
8.588671684265137 -5.541025161743164 -2.402163505554199
8.69784164428711 -5.36794376373291 -2.4021506309509277
8.803496360778809 -5.192717552185059 -2.402137041091919
9.004199028015137 -4.836091041564941 -2.4021074771881104
9.361933708190918 -4.100176811218262 -2.4020395278930664
9.442079544067383 -3.9118919372558594 -2.4020209312438965
9.659628868103027 -3.3379907608032227 -2.4019601345062256
9.78531265258789 -2.948596239089966 -2.401916265487671
9.8953218460083 -2.5544536113739014 -2.401870012283325
9.989462852478027 -2.1562585830688477 -2.401824712753296
10.032177925109863 -1.9561468362808228 -2.4021944999694824
10.071112632751465 -1.7552218437194824 -2.4026169776916504
10.104570388793945 -1.553316354751587 -2.402702808380127
10.13363265991211 -1.3507156372070312 -2.402698278427124
10.158613204956055 -1.1475738286972046 -2.402693510055542
10.1963472366333 -0.7400094270706177 -2.4026825428009033
10.209120750427246 -0.5357180833816528 -2.402676582336426
10.22231388092041 -0.1266223043203354 -2.402663469314575
0.1560937464237213 -9.276220321655273 -2.4021193981170654
0.712646484375 -9.250304222106934 -2.4021661281585693
1.63357412815094 -9.133058547973633 -2.4022409915924072
1.9976269006729126 -9.05927562713623 -2.401956796646118
2.358632802963257 -8.97189712524414 -2.4019155502319336
2.892958879470825 -8.814291954040527 -2.401956796646118
3.588876962661743 -8.55478286743164 -2.402003526687622
3.7594335079193115 -8.481258392333984 -2.4020133018493652
3.9284863471984863 -8.404328346252441 -2.40202260017395
4.095947265625 -8.3240385055542 -2.4020309448242188
4.261777400970459 -8.240401268005371 -2.402039051055908
5.064013481140137 -7.773324012756348 -2.402066946029663
5.521552562713623 -7.455333709716797 -2.4020752906799316
5.815527439117432 -7.228361129760742 -2.4020771980285645
5.959072113037109 -7.110487937927246 -2.4020769596099854
6.10021448135376 -6.989768981933594 -2.402076005935669
6.37511682510376 -6.73997163772583 -2.402071952819824
6.768173694610596 -6.345102310180664 -2.4020605087280273
7.016708850860596 -6.0690531730651855 -2.4020493030548096
7.253993988037109 -5.783270835876465 -2.4020349979400635
7.479628562927246 -5.488213539123535 -2.402017831802368
7.587978363037109 -5.3373565673828125 -2.402008533477783
7.693261623382568 -5.184363842010498 -2.4019980430603027
7.894550800323486 -4.8722052574157715 -2.401975393295288
7.990468502044678 -4.7131547927856445 -2.401962995529175
8.258837699890137 -4.224950790405273 -2.4019217491149902
8.34169864654541 -4.058741569519043 -2.401906728744507
8.42123031616211 -3.890896797180176 -2.401890993118286
8.570107460021973 -3.5506417751312256 -2.401857614517212
8.769296646118164 -3.0303006172180176 -2.40226411819458
8.936738014221191 -2.4988627433776855 -2.4026358127593994
8.984970092773438 -2.3194546699523926 -2.4026336669921875
9.17171859741211 -1.409916639328003 -2.402617931365967
9.198076248168945 -1.2260345220565796 -2.402613878250122
9.220809936523438 -1.0416204929351807 -2.402609348297119
9.23983383178711 -0.8567879796028137 -2.402604579925537
9.266611099243164 -0.48626798391342163 -2.4025938510894775
9.278603553771973 -0.11492919921875 -2.4025819301605225
0.3125878870487213 -8.47945499420166 -2.4021050930023193
0.48228514194488525 -8.471549034118652 -2.4021191596984863
0.6517871022224426 -8.460246086120605 -2.4021334648132324
1.1584668159484863 -8.406015396118164 -2.402174949645996
1.326513648033142 -8.381184577941895 -2.402188539505005
1.4940332174301147 -8.352996826171875 -2.4022018909454346
1.660976529121399 -8.32145881652832 -2.402215003967285
1.992773413658142 -8.248384475708008 -2.4022409915924072
2.157519578933716 -8.20688533782959 -2.4022536277770996
2.3213768005371094 -8.162102699279785 -2.402266263961792
2.4843456745147705 -8.114001274108887 -2.402278423309326
2.646289110183716 -8.062702178955078 -2.4022903442382812
2.9669530391693115 -7.950387001037598 -2.4023141860961914
3.125537157058716 -7.889437198638916 -2.4023256301879883
3.282724618911743 -7.825017929077148 -2.40224289894104
3.7458884716033936 -7.612794399261475 -2.401888370513916
3.8976171016693115 -7.536227226257324 -2.4018917083740234
4.047724723815918 -7.45669412612915 -2.4018948078155518
4.488017559051514 -7.200325965881348 -2.4019083976745605
4.631278991699219 -7.109046459197998 -2.401912212371826
4.912148475646973 -6.91797399520874 -2.4019179344177246
5.049677848815918 -6.818253040313721 -2.4019196033477783
5.705790996551514 -6.27947473526001 -2.401918649673462
5.830331802368164 -6.1639885902404785 -2.40191650390625
6.072402000427246 -5.925638198852539 -2.4019103050231934
6.189785003662109 -5.802877902984619 -2.4019060134887695
6.304697036743164 -5.677791118621826 -2.4019012451171875
6.417089462280273 -5.550422191619873 -2.401895761489868
6.634120941162109 -5.2890543937683105 -2.4018826484680176
6.840468406677246 -5.019227981567383 -2.401867151260376
7.035878658294678 -4.74135684967041 -2.401854991912842
7.129540920257568 -4.599665641784668 -2.4019126892089844
7.773974418640137 -3.404691457748413 -2.4025676250457764
7.840585708618164 -3.2483837604522705 -2.4025681018829346
7.904033184051514 -3.0907704830169678 -2.4025678634643555
7.964325904846191 -2.9319188594818115 -2.4025676250457764
8.021425247192383 -2.7718899250030518 -2.402566909790039
8.125898361206055 -2.4485955238342285 -2.402564525604248
8.17333984375 -2.2853872776031494 -2.4025628566741943
8.217451095581055 -2.1213104724884033 -2.4025609493255615
8.329912185668945 -1.62423574924469 -2.4025533199310303
8.38827133178711 -1.2894588708877563 -2.4025466442108154
8.433124542236328 -0.952643096446991 -2.402538776397705
8.450458526611328 -0.783640444278717 -2.4025344848632812
8.464452743530273 -0.6143029928207397 -2.402529716491699
8.475028991699219 -0.4447280764579773 -2.402524709701538
-0.024941405281424522 -7.80951452255249 -2.402052640914917
0.13139648735523224 -7.808496952056885 -2.402066230773926
0.2876953184604645 -7.804345607757568 -2.4020793437957764
0.7556542754173279 -7.773131370544434 -2.40211820602417
0.9111230373382568 -7.756489276885986 -2.4021310806274414
1.375087857246399 -7.687928676605225 -2.4021685123443604
1.5287303924560547 -7.658898830413818 -2.4021806716918945
1.6817480325698853 -7.626797199249268 -2.4021925926208496
2.583671808242798 -7.37052059173584 -2.4022610187530518
3.307382822036743 -7.075573444366455 -2.402312755584717
3.448369026184082 -7.007970333099365 -2.40232253074646
3.726191282272339 -6.864348411560059 -2.402341365814209
3.997997999191284 -6.709754943847656 -2.4023592472076416
4.131533145904541 -6.6284003257751465 -2.4023678302764893
4.263427734375 -6.544378280639648 -2.402376174926758
4.393593788146973 -6.457741737365723 -2.4023842811584473
4.52200174331665 -6.368515491485596 -2.4023921489715576
4.648603439331055 -6.276729583740234 -2.402399778366089
4.773349285125732 -6.182427883148193 -2.40240740776062
5.017031192779541 -5.986425876617432 -2.402421474456787
5.135888576507568 -5.884807586669922 -2.402427911758423
5.252685546875 -5.780826091766357 -2.4024343490600586
5.479911804199219 -5.565957069396973 -2.4024462699890137
5.698349475860596 -5.342154502868652 -2.4024574756622314
5.907646179199219 -5.109785556793213 -2.4024672508239746
6.008779048919678 -4.990505218505859 -2.4024717807769775
6.563573837280273 -4.234519958496094 -2.4024930000305176
6.80593729019165 -3.832911491394043 -2.4024996757507324
6.953916072845459 -3.55739688873291 -2.4025027751922607
7.023749828338623 -3.4174718856811523 -2.4025039672851562
7.0908203125 -3.2761447429656982 -2.4025046825408936
7.154863357543945 -3.1336090564727783 -2.4025051593780518
7.432255744934082 -2.402860641479492 -2.402503490447998
7.47887659072876 -2.253577470779419 -2.4025022983551025
7.522480487823486 -2.1034157276153564 -2.402500867843628
7.563115119934082 -1.9523718357086182 -2.402498960494995
7.600644588470459 -1.800586462020874 -2.402496814727783
7.635156154632568 -1.6480681896209717 -2.4024946689605713
7.694990158081055 -1.3411117792129517 -2.402489185333252
7.720283031463623 -1.1867938041687012 -2.4024858474731445
7.761581897735596 -0.8767922520637512 -2.4024786949157715
7.800175666809082 -0.40931427478790283 -2.402465581893921
7.806787014007568 -0.25307920575141907 -2.402460813522339
7.810624599456787 0.059633176773786545 -2.4024500846862793
0.12157226353883743 -7.225233554840088 -2.4020450115203857
0.41072264313697815 -7.214639186859131 -2.402069330215454
0.5550683736801147 -7.205009460449219 -2.4020814895629883
0.6991991996765137 -7.192490100860596 -2.4020934104919434
0.986572265625 -7.15880012512207 -2.4021167755126953
1.2723827362060547 -7.113630771636963 -2.402139663696289
1.4145312309265137 -7.086772918701172 -2.402150869369507
1.5561425685882568 -7.057065486907959 -2.4021620750427246
1.6970995664596558 -7.024537086486816 -2.4021730422973633
2.390576124191284 -6.819974899291992 -2.4022252559661865
2.6617674827575684 -6.71881103515625 -2.402245044708252
2.7957518100738525 -6.664198875427246 -2.402254581451416
2.928603410720825 -6.606925010681152 -2.40226411819458
3.060302734375 -6.5469970703125 -2.402273178100586
3.319951057434082 -6.419290065765381 -2.4022910594940186
3.6993651390075684 -6.208462238311768 -2.4023163318634033
3.9449217319488525 -6.055472373962402 -2.402331829071045
4.065371036529541 -5.9753031730651855 -2.402339458465576
4.301328182220459 -5.8078155517578125 -2.4023537635803223
4.642226696014404 -5.5391998291015625 -2.4023735523223877
4.752197265625 -5.44516658782959 -2.4023797512054443
4.860263347625732 -5.348951816558838 -2.402385711669922
4.966396331787109 -5.250596046447754 -2.402391195297241
5.070507526397705 -5.15013313293457 -2.4023966789245605
5.370546817779541 -4.836516857147217 -2.402411699295044
5.466298580169678 -4.728038311004639 -2.4024159908294678
5.559863090515137 -4.6176676750183105 -2.4024200439453125
5.651201248168945 -4.505443096160889 -2.4024240970611572
5.827167987823486 -4.27553653717041 -2.402431011199951
5.911513328552246 -4.158096790313721 -2.4024343490600586
6.297451019287109 -3.546563148498535 -2.4024460315704346
6.367197036743164 -3.4197826385498047 -2.4024477005004883
6.434384822845459 -3.291628837585449 -2.402448892593384
6.499003887176514 -3.1621556282043457 -2.4024500846862793
6.677109241485596 -2.766348123550415 -2.402451515197754
6.731191158294678 -2.6321041584014893 -2.402451515197754
6.998027324676514 -1.8065389394760132 -2.4024455547332764
7.064745903015137 -1.5249371528625488 -2.4024415016174316
7.120107173919678 -1.2409173250198364 -2.4024362564086914
7.164042949676514 -0.9548999071121216 -2.4024300575256348
7.208427429199219 -0.5231472849845886 -2.402418851852417
7.223554611206055 -0.23417174816131592 -2.4024100303649902
7.226787090301514 -0.08951415866613388 -2.402405261993408
7.227109432220459 0.055177610367536545 -2.402400255203247
-0.021455077454447746 -6.7168755531311035 -2.402014970779419
0.11299804598093033 -6.71599817276001 -2.402026414871216
0.24743163585662842 -6.712424278259277 -2.4020378589630127
0.38175779581069946 -6.706159591674805 -2.4020493030548096
0.5159472823143005 -6.69719123840332 -2.4020602703094482
0.7836620807647705 -6.67121696472168 -2.4020824432373047
0.917041003704071 -6.654233455657959 -2.4020934104919434
1.0500781536102295 -6.634571552276611 -2.402103900909424
1.1826854944229126 -6.612250804901123 -2.4021143913269043
1.4464550018310547 -6.559654235839844 -2.4021353721618652
1.577480435371399 -6.529416561126709 -2.4021453857421875
1.8375780582427979 -6.461112976074219 -2.402165412902832
1.9666112661361694 -6.423024654388428 -2.402175188064575
2.348623037338257 -6.293482303619385 -2.402203321456909
2.72216796875 -6.141238212585449 -2.4022300243377686
2.9658496379852295 -6.027379512786865 -2.4022469520568848
3.2047557830810547 -5.9038825035095215 -2.4022631645202637
3.322343587875366 -5.838541030883789 -2.402270793914795
3.7787694931030273 -5.554145812988281 -2.4023001194000244
3.8892478942871094 -5.47736930847168 -2.4023070335388184
3.9980955123901367 -5.39845609664917 -2.402313470840454
4.210976600646973 -5.234134197235107 -2.4023261070251465
4.314960956573486 -5.148768901824951 -2.402331829071045
4.99197244644165 -4.49558687210083 -2.402367353439331
5.167919635772705 -4.2921905517578125 -2.4023752212524414
5.252861022949219 -4.187847137451172 -2.402379035949707
5.416249752044678 -3.9742648601531982 -2.4023854732513428
5.494765281677246 -3.865021228790283 -2.402388334274292
5.571044921875 -3.754249095916748 -2.402391195297241
5.645087718963623 -3.6419689655303955 -2.402393341064453
5.98082971572876 -3.0595898628234863 -2.402401924133301
6.040927410125732 -2.939223051071167 -2.402402877807617
6.098554611206055 -2.817704916000366 -2.4024035930633545
6.153700828552246 -2.695077657699585 -2.4024040699005127
6.206445217132568 -2.5713326930999756 -2.402404308319092
6.256650447845459 -2.4465854167938232 -2.402404308319092
6.304365158081055 -2.3208425045013428 -2.4024040699005127
6.469804763793945 -1.809078335762024 -2.402400255203247
6.504745960235596 -1.679185390472412 -2.4023988246917725
6.537040710449219 -1.5486294031143188 -2.4023971557617188
6.639951229095459 -1.0207210779190063 -2.4023873805999756
6.675468444824219 -0.7540997266769409 -2.402381181716919
6.689228534698486 -0.6203094124794006 -2.4023776054382324
6.700292587280273 -0.48627135157585144 -2.402374029159546
6.714365005493164 -0.21766357123851776 -2.4023659229278564
6.717656135559082 0.0512860082089901 -2.4023568630218506
-0.02001953125 -6.267938613891602 -2.4019994735717773
0.10546875 -6.26711368560791 -2.402010202407837
0.35624998807907104 -6.257922649383545 -2.402031421661377
0.48146483302116394 -6.249564170837402 -2.4020419120788574
1.103613257408142 -6.17030143737793 -2.402092456817627
1.349755883216858 -6.12122106552124 -2.402111768722534
1.4720410108566284 -6.092988014221191 -2.4021213054656982
1.5937206745147705 -6.062331199645996 -2.402130603790283
1.7147655487060547 -6.029237747192383 -2.402139902114868
1.9547460079193115 -5.955811023712158 -2.402157783508301
2.4249706268310547 -5.780427932739258 -2.4021921157836914
2.654433488845825 -5.678755283355713 -2.402208089828491
2.7676172256469727 -5.624480247497559 -2.4022159576416016
3.3158984184265137 -5.319825172424316 -2.402252197265625
3.421747922897339 -5.25239372253418 -2.402259111404419
3.629267454147339 -5.111237525939941 -2.4022719860076904
3.830986261367798 -4.961884498596191 -2.4022841453552246
3.929560422897339 -4.884206771850586 -2.402289867401123
4.121992111206055 -4.722984313964844 -2.4023005962371826
4.215634822845459 -4.639588356018066 -2.4023056030273438
4.307763576507568 -4.554216384887695 -2.402310848236084
4.741328239440918 -4.100986957550049 -2.402332067489624
4.822490215301514 -4.005247592926025 -2.4023356437683105
5.054257869720459 -3.7085540294647217 -2.4023451805114746
5.127460956573486 -3.6066534519195557 -2.402348041534424
5.198622703552246 -3.503300905227661 -2.402350425720215
5.334716796875 -3.292381525039673 -2.4023547172546387
5.399589538574219 -3.184915065765381 -2.4023566246032715
5.462294578552246 -3.076167583465576 -2.402358293533325
5.581025123596191 -2.8550713062286377 -2.402360677719116
5.637070178985596 -2.7427635192871094 -2.4023616313934326
5.690849304199219 -2.6293716430664062 -2.402362108230591
5.742314338684082 -2.5149331092834473 -2.402362585067749
5.791552543640137 -2.3994500637054443 -2.402362823486328
5.838427543640137 -2.283029317855835 -2.402362823486328
5.925136566162109 -2.0474841594696045 -2.402362108230591
6.037343502044678 -1.688138723373413 -2.4023590087890625
6.100058555603027 -1.4451086521148682 -2.402355909347534
6.127763748168945 -1.322698950767517 -2.4023540019989014
6.153017520904541 -1.1997588872909546 -2.4023518562316895
6.175790786743164 -1.0763403177261353 -2.4023497104644775
6.229238033294678 -0.7036904692649841 -2.402341365814209
6.242070198059082 -0.578843355178833 -2.4023377895355225
6.252392292022705 -0.453764945268631 -2.402334451675415
-0.018740233033895493 -5.868846893310547 -2.4019856452941895
0.3335937559604645 -5.859460353851318 -2.402015447616577
0.45082029700279236 -5.851633071899414 -2.4020252227783203
0.80126953125 -5.814091205596924 -2.4020540714263916
0.9174901843070984 -5.796911716461182 -2.4020633697509766
1.1488085985183716 -5.7555832862854 -2.4020819664001465
1.263818383216858 -5.73145055770874 -2.4020907878875732
1.378320336341858 -5.705015182495117 -2.402099609375
1.4922460317611694 -5.67630672454834 -2.4021084308624268
1.6055859327316284 -5.645318031311035 -2.4021170139312744
1.7182714939117432 -5.61207389831543 -2.402125597000122
2.052079916000366 -5.498857498168945 -2.4021501541137695
2.378466844558716 -5.365820407867432 -2.4021735191345215
2.485429525375366 -5.317143440246582 -2.4021811485290527
2.6962890625 -5.213420867919922 -2.402195453643799
2.8001365661621094 -5.15841007232666 -2.402202606201172
2.9028515815734863 -5.101337909698486 -2.4022092819213867
3.203847646713257 -4.917932510375977 -2.402228832244873
3.3016698360443115 -4.852819919586182 -2.4022347927093506
3.3981738090515137 -4.785760879516602 -2.402240753173828
3.4933104515075684 -4.7167792320251465 -2.4022464752197266
3.679326057434082 -4.573185443878174 -2.4022574424743652
3.9472362995147705 -4.344111919403076 -2.4022724628448486
4.200898170471191 -4.099361419677734 -2.4022858142852783
4.282157897949219 -4.014438629150391 -2.402289628982544
4.361679553985596 -3.927910089492798 -2.4022934436798096
4.515419960021973 -3.7501842975616455 -2.4023005962371826
4.589599609375 -3.659039258956909 -2.402303695678711
4.732402324676514 -3.472393035888672 -2.4023094177246094
4.867626667022705 -3.2801830768585205 -2.4023141860961914
4.995019435882568 -3.082712411880493 -2.4023184776306152
5.055703163146973 -2.9821128845214844 -2.402320146560669
5.114413738250732 -2.880302906036377 -2.4023215770721436
5.171044826507568 -2.7773399353027344 -2.402322769165039
5.22561502456665 -2.6732630729675293 -2.4023239612579346
5.278076171875 -2.56811785697937 -2.402324676513672
5.376650333404541 -2.35477876663208 -2.4023256301879883
5.466650485992432 -2.1376428604125977 -2.4023258686065674
5.508320331573486 -2.027785301208496 -2.4023256301879883
5.652871131896973 -1.5806390047073364 -2.402322292327881
5.683388710021973 -1.4671556949615479 -2.4023208618164062
5.737548828125 -1.2384700775146484 -2.402317762374878
5.761191368103027 -1.123358130455017 -2.402315855026245
5.782509803771973 -1.0077987909317017 -2.402313470840454
5.801523208618164 -0.891833484172821 -2.402311086654663
5.818212985992432 -0.7755126953125 -2.402308464050293
5.844589710235596 -0.5419827103614807 -2.4023027420043945
5.854248046875 -0.4248706102371216 -2.402299404144287
5.861572265625 -0.30758604407310486 -2.4022958278656006
5.86916971206665 -0.07269836217164993 -2.4022881984710693
0.0927441418170929 -5.5106682777404785 -2.4019827842712402
0.42335936427116394 -5.495231628417969 -2.402010679244995
0.5332812666893005 -5.4856743812561035 -2.402019500732422
0.6429980397224426 -5.47391939163208 -2.4020285606384277
0.9704198837280273 -5.425511837005615 -2.402055025100708
1.1868456602096558 -5.382355213165283 -2.4020721912384033
1.4013671875 -5.330568313598633 -2.4020886421203613
1.6136425733566284 -5.270233154296875 -2.4021048545837402
1.7188183069229126 -5.23689079284668 -2.4021124839782715
1.9270800352096558 -5.1639227867126465 -2.402127981185913
2.030078172683716 -5.124323844909668 -2.4021353721618652
2.233593702316284 -5.0389814376831055 -2.4021496772766113
2.3340234756469727 -4.993271827697754 -2.4021568298339844
2.433525323867798 -4.945559978485107 -2.4021637439727783
2.532060384750366 -4.895865440368652 -2.402170419692993
2.7260351181030273 -4.79060697555542 -2.4021832942962646
3.0087010860443115 -4.618368625640869 -2.4022016525268555
3.1005566120147705 -4.557225227355957 -2.402207374572754
3.368544816970825 -4.362923622131348 -2.4022233486175537
3.706787109375 -4.079501152038574 -2.402242660522461
3.787724494934082 -4.004487037658691 -2.4022469520568848
3.867138624191284 -3.927866220474243 -2.4022510051727295
3.945009708404541 -3.8496615886688232 -2.402255058288574
4.021308422088623 -3.7699172496795654 -2.40225887298584
4.240351676940918 -3.5217528343200684 -2.402268886566162
4.310048580169678 -3.436147451400757 -2.4022719860076904
4.37795877456665 -3.3491899967193604 -2.4022746086120605
4.571044921875 -3.0804049968719482 -2.4022819995880127
4.631816387176514 -2.9882731437683105 -2.4022839069366455
4.690761566162109 -2.894928455352783 -2.4022858142852783
4.747753620147705 -2.8004579544067383 -2.402287244796753
4.856054782867432 -2.608156442642212 -2.402289867401123
4.907333850860596 -2.5104074478149414 -2.4022908210754395
5.003876686096191 -2.311962604522705 -2.402292251586914
5.049160003662109 -2.211327075958252 -2.402292490005493
5.133623123168945 -2.0074379444122314 -2.4022927284240723
5.172782897949219 -1.904264211654663 -2.402292490005493
5.244873046875 -1.695669174194336 -2.4022912979125977
5.277763366699219 -1.5903326272964478 -2.4022905826568604
5.337177753448486 -1.377785325050354 -2.4022881984710693
5.363700866699219 -1.2706621885299683 -2.4022867679595947
5.388056755065918 -1.1630288362503052 -2.402285099029541
5.430273532867432 -0.9464104771614075 -2.4022810459136963
5.497646331787109 -0.39898955821990967 -2.4022679328918457
5.509208679199219 -0.17859312891960144 -2.402261257171631
5.511660099029541 -0.0682702586054802 -2.4022576808929443
-0.016572264954447746 -5.189085960388184 -2.4019622802734375
0.2949316203594208 -5.180784225463867 -2.4019885063171387
0.5020898580551147 -5.164859294891357 -2.402005910873413
0.708447277545929 -5.140657424926758 -2.40202260017395
1.117431640625 -5.067576885223389 -2.402055263519287
1.3193944692611694 -5.0188188552856445 -2.4020707607269287
1.7166796922683716 -4.89724588394165 -2.4021005630493164
1.8143846988677979 -4.861909866333008 -2.4021077156066895
2.007558584213257 -4.785412788391113 -2.4021215438842773
2.197519540786743 -4.701239109039307 -2.402134895324707
2.383964776992798 -4.609527111053467 -2.4021477699279785
2.566591739654541 -4.51042366027832 -2.4021599292755127
3.088632822036743 -4.170412540435791 -2.4021928310394287
3.171513557434082 -4.10775089263916 -2.4021975994110107
3.333427667617798 -3.9775164127349854 -2.402207136154175
3.7142577171325684 -3.6245107650756836 -2.4022274017333984
3.786083936691284 -3.549429178237915 -2.402230978012085
3.9251463413238525 -3.395035982131958 -2.4022374153137207
3.9923338890075684 -3.315782308578491 -2.402240514755249
4.416406154632568 -2.725616455078125 -2.4022562503814697
4.521962642669678 -2.546647548675537 -2.402259111404419
4.57205057144165 -2.455606698989868 -2.4022603034973145
4.666679382324219 -2.2706189155578613 -2.402261972427368
4.794560432434082 -1.9864062070846558 -2.4022629261016846
4.905156135559082 -1.6950292587280273 -2.4022622108459473
5.025009632110596 -1.297200322151184 -2.4022586345672607
5.072919845581055 -1.095005750656128 -2.4022557735443115
5.093808650970459 -0.9932281374931335 -2.4022538661956787
5.129482269287109 -0.7885244488716125 -2.402249813079834
5.167548656463623 -0.4791998267173767 -2.402242422103882
5.176093578338623 -0.3756536841392517 -2.4022395610809326
5.182568073272705 -0.2719573974609375 -2.4022364616394043
5.186972618103027 -0.16815124452114105 -2.402233123779297
-0.015625 -4.896685600280762 -2.401952028274536
0.1803906261920929 -4.893423557281494 -2.4019687175750732
0.2783203125 -4.88884973526001 -2.401977062225342
0.3761328160762787 -4.882312297821045 -2.4019851684570312
0.4738085865974426 -4.873821258544922 -2.4019932746887207
0.76551753282547 -4.836640357971191 -2.402017116546631
1.527099609375 -4.652765274047852 -2.40207576751709
1.6199315786361694 -4.621276378631592 -2.402082681655884
1.7121288776397705 -4.587933540344238 -2.4020893573760986
1.8944334983825684 -4.515742301940918 -2.402102470397949
1.9844530820846558 -4.476922512054443 -2.402108907699585
2.1620898246765137 -4.3939208984375 -2.4021213054656982
2.249628782272339 -4.349767208099365 -2.402127265930176
2.5066893100738525 -4.206916332244873 -2.402144193649292
2.590400218963623 -4.155900001525879 -2.4021496772766113
2.673085927963257 -4.103217124938965 -2.4021549224853516
2.754706859588623 -4.048892498016357 -2.4021599292755127
2.835214853286743 -3.9929418563842773 -2.402164936065674
2.9145898818969727 -3.935391426086426 -2.402169704437256
2.992802619934082 -3.8762621879577637 -2.402174234390259
3.145576000213623 -3.7533669471740723 -2.4021830558776855
3.220097541809082 -3.689647674560547 -2.4021873474121094
3.2933006286621094 -3.6244494915008545 -2.402191400527954
3.3652148246765137 -3.5578012466430664 -2.4021952152252197
3.4357714653015137 -3.489724636077881 -2.4021987915039062
3.504951000213623 -3.420247793197632 -2.4022023677825928
3.5727245807647705 -3.349396228790283 -2.4022057056427
3.6390721797943115 -3.277209758758545 -2.4022088050842285
3.767333984375 -3.1289172172546387 -2.402214765548706
4.005605220794678 -2.817521333694458 -2.40222430229187
4.061220645904541 -2.736767530441284 -2.402226209640503
4.167500019073486 -2.5720133781433105 -2.4022295475006104
4.218154430389404 -2.4880690574645996 -2.402230978012085
4.560986042022705 -1.7835122346878052 -2.402235746383667
4.595771312713623 -1.6918483972549438 -2.402235746383667
4.628730297088623 -1.5995043516159058 -2.402235269546509
4.689033031463623 -1.4129329919815063 -2.4022340774536133
4.741835594177246 -1.224096655845642 -2.4022319316864014
4.765390396118164 -1.1289232969284058 -2.402230739593506
4.787021160125732 -1.0332962274551392 -2.402229070663452
4.806757926940918 -0.9372546076774597 -2.4022274017333984
4.840410232543945 -0.7440869212150574 -2.402223587036133
4.884404182434082 -0.35448241233825684 -2.4022138118743896
4.890517234802246 -0.25662901997566223 -2.4022109508514404
4.896864891052246 -0.0606549046933651 -2.402204751968384
4.897079944610596 0.037388306111097336 -2.4022011756896973
-0.014785155653953552 -4.629965305328369 -2.401942729949951
0.07790038734674454 -4.629349708557129 -2.4019508361816406
0.35563474893569946 -4.616370677947998 -2.4019742012023926
0.447998046875 -4.608340263366699 -2.401981830596924
0.5401562452316284 -4.598464012145996 -2.401989459991455
0.6321093440055847 -4.586739540100098 -2.4019968509674072
0.8152245879173279 -4.557788372039795 -2.4020113945007324
0.906298816204071 -4.540568828582764 -2.4020187854766846
1.266640543937683 -4.4535675048828125 -2.4020466804504395
1.3555468320846558 -4.427330493927002 -2.402053117752075
1.4439159631729126 -4.39931583404541 -2.40205979347229
1.6188671588897705 -4.338016033172607 -2.4020726680755615
1.8763670921325684 -4.233048439025879 -2.4020912647247314
1.960732340812683 -4.19464635848999 -2.40209698677063
2.044316291809082 -4.154564380645752 -2.4021027088165283
2.2090039253234863 -4.069418430328369 -2.402113914489746
2.3701367378234863 -3.9777486324310303 -2.4021246433258057
2.4493064880371094 -3.9295079708099365 -2.402129650115967
2.5274901390075684 -3.879694700241089 -2.402134656906128
2.680781126022339 -3.775426149368286 -2.402144193649292
2.902578115463257 -3.607727527618408 -2.4021573066711426
3.1139159202575684 -3.4270083904266357 -2.4021692276000977
3.181894540786743 -3.363992214202881 -2.402172803878784
3.5021679401397705 -3.0291850566864014 -2.402188539505005
3.5621190071105957 -2.958470344543457 -2.402191162109375
3.733290910720825 -2.7393243312835693 -2.402198314666748
3.7873923778533936 -2.664038896560669 -2.402200222015381
3.890995979309082 -2.510298013687134 -2.4022037982940674
3.9404685497283936 -2.431901454925537 -2.402205228805542
3.9883689880371094 -2.352529287338257 -2.4022066593170166
4.03466796875 -2.272214412689209 -2.402207851409912
4.122412204742432 -2.1088836193084717 -2.402209520339966
4.241562366485596 -1.8576314449310303 -2.4022111892700195
4.312519550323486 -1.686354637145996 -2.4022111892700195
4.345419883728027 -1.5996829271316528 -2.4022109508514404
4.405966758728027 -1.4244524240493774 -2.402209997177124
4.459453105926514 -1.2469372749328613 -2.4022085666656494
4.483525276184082 -1.157411813735962 -2.402207374572754
4.526249885559082 -0.9770058989524841 -2.402204751968384
4.561728477478027 -0.7950341701507568 -2.4022014141082764
4.601220607757568 -0.5197781324386597 -2.4021952152252197
4.610693454742432 -0.427560418844223 -2.4021928310394287
4.624101638793945 -0.24265074729919434 -2.4021875858306885
4.630097389221191 -0.05735107138752937 -2.402181625366211
4.630302429199219 0.03535156324505806 -2.4021785259246826
-0.013994140550494194 -4.38544225692749 -2.4019343852996826
0.07379882782697678 -4.384859085083008 -2.401942014694214
0.16155272722244263 -4.382514953613281 -2.401949405670166
0.24925780296325684 -4.378414630889893 -2.401956796646118
0.42433592677116394 -4.364955425262451 -2.4019713401794434
0.5116308331489563 -4.355598449707031 -2.4019784927368164
0.5987304449081421 -4.3444952964782715 -2.4019854068756104
0.772167980670929 -4.3170695304870605 -2.4019994735717773
0.8584374785423279 -4.300757884979248 -2.402006149291992
1.0299121141433716 -4.262974262237549 -2.402019500732422
1.4507910013198853 -4.138767719268799 -2.4020514488220215
1.615322232246399 -4.077385902404785 -2.4020631313323975
1.696621060371399 -4.044248580932617 -2.402069091796875
1.7772557735443115 -4.0094757080078125 -2.4020748138427734
1.8571581840515137 -3.973109245300293 -2.402080535888672
1.936318278312683 -3.9351460933685303 -2.402085781097412
2.244951009750366 -3.7676587104797363 -2.402106523513794
2.3199315071105957 -3.721970319747925 -2.402111291885376
2.393984317779541 -3.674783945083618 -2.402116060256958
2.5391697883605957 -3.576023578643799 -2.402125120162964
2.6102635860443115 -3.5244765281677246 -2.4021294116973877
2.680292844772339 -3.471527099609375 -2.4021334648132324
2.749267578125 -3.4171745777130127 -2.402137517929077
2.8171191215515137 -3.3614633083343506 -2.4021413326263428
2.883857250213623 -3.3043909072875977 -2.4021451473236084
2.9494433403015137 -3.2460010051727295 -2.402148723602295
3.13897442817688 -3.0631167888641357 -2.402158498764038
3.1996777057647705 -2.9996678829193115 -2.4021615982055664
