ply
format ascii 1.0
element vertex 210
property float x
property float y
property float z
end_header
0.16221679747104645 12.126957893371582 2.138500690460205
0.16222655773162842 12.126957893371582 1.5793235301971436
-0.07829101383686066 12.126953125 1.579215168952942
5.595947265625 36.48255920410156 3.1244683265686035
0.16221679747104645 12.126955032348633 1.0266722440719604
5.595614910125732 36.48036193847656 2.288614273071289
-0.07829101383686066 12.126953125 0.7520121335983276
0.16222655773162842 12.126955032348633 0.20486587285995483
-0.07828124612569809 12.12695026397705 0.20485030114650726
0.16221679747104645 12.126955032348633 -0.0682818591594696
-0.07829101383686066 12.12695026397705 -0.06827941536903381
5.509814262390137 35.92095947265625 -1.0232837200164795
5.014492034912109 37.66127014160156 -1.0698237419128418
4.968642234802246 43.964881896972656 -1.2458348274230957
0.16221679747104645 12.126955032348633 -0.341499924659729
-0.07829101383686066 12.12695026397705 -0.34147581458091736
13.597412109375 45.39455032348633 -2.4031999111175537
5.173408031463623 21.943876266479492 -1.1433758735656738
3.2323241233825684 44.277435302734375 -2.251473903656006
0.16221679747104645 12.126953125 -0.6150633096694946
5.141406059265137 18.491413116455078 -1.4072625637054443
4.815634727478027 20.426298141479492 -1.5387569665908813
4.80496072769165 24.735328674316406 -1.847570776939392
4.797304630279541 27.61022186279297 -2.054772138595581
3.447255849838257 30.50285530090332 -2.25077486038208
2.8415918350219727 30.564411163330078 -2.25071382522583
1.627285122871399 30.65134048461914 -2.250589609146118
4.797987937927246 16.018383026123047 -1.605347990989685
4.851689338684082 20.5792236328125 -2.0298655033111572
4.47024393081665 23.012287139892578 -2.25059175491333
4.012939453125 23.09595489501953 -2.250546932220459
3.5540623664855957 23.17052459716797 -2.2505016326904297
3.09380841255188 23.23598861694336 -2.250455856323242
2.6323535442352295 23.292266845703125 -2.2504096031188965
2.1698827743530273 23.33941650390625 -2.2503628730773926
-0.07053710520267487 10.926315307617188 -1.0490014553070068
4.347236156463623 18.439496994018555 -2.250401496887207
3.6125097274780273 18.59678840637207 -2.2503302097320557
3.2429590225219727 18.664474487304688 -2.2502942085266113
2.872138500213623 18.724794387817383 -2.2502574920654297
2.1273045539855957 18.823341369628906 -2.25018310546875
1.3791601657867432 18.892248153686523 -2.2501072883605957
0.62890625 18.931447982788086 -2.2500298023223877
4.557060241699219 15.214098930358887 -2.250298500061035
4.254414081573486 15.301280975341797 -2.250269889831543
3.950087785720825 15.38244342803955 -2.2502410411834717
3.0283203125 15.589488983154297 -2.250152349472046
2.4076952934265137 15.696887016296387 -2.250091314315796
2.0959081649780273 15.741325378417969 -2.2500603199005127
0.841845691204071 15.857008934020996 -2.2499330043792725
-0.07053710520267487 10.926315307617188 -1.5481743812561035
3.6589159965515137 13.159513473510742 -2.250124216079712
3.3971972465515137 13.229337692260742 -2.2500994205474854
3.134150266647339 13.293951988220215 -2.2500743865966797
2.869873046875 13.353339195251465 -2.250048875808716
2.3380467891693115 13.456335067749023 -2.249997138977051
2.0707128047943115 13.499897003173828 -2.2499706745147705
1.533730387687683 13.571056365966797 -2.2499170303344727
0.7240331768989563 13.63774585723877 -2.2498345375061035
0.453437477350235 13.649248123168945 -2.2498064041137695
0.16221679747104645 12.126953125 -1.997963786125183
3.434824228286743 11.46739673614502 -2.250035047531128
3.206718683242798 11.533154487609863 -2.250013589859009
2.515204906463623 11.703070640563965 -2.2499475479125977
2.282607316970825 11.750532150268555 -2.249925136566162
1.3441894054412842 11.893977165222168 -2.2498319149017334
1.1080468893051147 11.918166160583496 -2.2498080730438232
0.6345605254173279 11.952475547790527 -2.2497596740722656
0.3974023461341858 11.962573051452637 -2.249735116958618
2.851318359375 10.254975318908691 -2.249926805496216
2.6473827362060547 10.30942153930664 -2.2499074935913086
2.442392587661743 10.35980224609375 -2.249887704849243
1.822021484375 10.48641300201416 -2.2498276233673096
1.6137011051177979 10.520390510559082 -2.2498068809509277
1.4047460556030273 10.550219535827637 -2.249786138534546
0.9852538704872131 10.597424507141113 -2.249743938446045
0.77490234375 10.614782333374023 -2.249722480773926
0.1423632800579071 10.641769409179688 -2.249657154083252
-0.06870117038488388 10.642390251159668 -2.2496349811553955
2.564404249191284 9.22304630279541 -2.249856472015381
2.1966307163238525 9.317336082458496 -2.249821662902832
1.8254101276397705 9.396963119506836 -2.2497856616973877
1.6386816501617432 9.43123722076416 -2.249767303466797
1.451318383216858 9.461803436279297 -2.249748706817627
1.2633984088897705 9.488638877868652 -2.249730110168457
0.88612300157547 9.531123161315918 -2.24969220161438
0.6969335675239563 9.546734809875488 -2.2496728897094727
0.5074706673622131 9.558600425720215 -2.2496533393859863
2.161201238632202 8.416121482849121 -2.2497828006744385
1.6569139957427979 8.529549598693848 -2.249734401702881
1.3173534870147705 8.588411331176758 -2.2497007846832275
1.146767497062683 8.612786293029785 -2.2496838569641113
0.6325976252555847 8.665534973144531 -2.249631881713867
0.2884765565395355 8.683663368225098 -2.24959659576416
2.2802929878234863 7.612915515899658 -2.2497642040252686
2.1288671493530273 7.656590938568115 -2.2497498989105225
1.8235546350479126 7.73488187789917 -2.249721050262451
1.6698046922683716 7.769476890563965 -2.249706268310547
1.515380859375 7.801008701324463 -2.2496910095214844
1.2048437595367432 7.854858875274658 -2.2496604919433594
0.8924023509025574 7.896345615386963 -2.249629497528076
0.578564465045929 7.925403118133545 -2.2495975494384766
0.26383787393569946 7.942007064819336 -2.2495651245117188
0.10629882663488388 7.945618152618408 -2.2495486736297607
-0.051289062947034836 7.946107387542725 -2.2495322227478027
1.959716796875 7.048222064971924 -2.2501182556152344
1.8195116519927979 7.085726737976074 -2.2501285076141357
1.5368554592132568 7.15089750289917 -2.249685287475586
0.8213769197463989 7.267683506011963 -2.249612808227539
0.6770605444908142 7.282495498657227 -2.249598264694214
0.38774412870407104 7.303518295288086 -2.2495689392089844
0.0978417918086052 7.313056945800781 -2.249539375305176
-0.047197263687849045 7.3135085105896 -2.2495248317718506
1.9422167539596558 6.484219074249268 -2.25000262260437
1.8132519721984863 6.521487236022949 -2.2500123977661133
1.4222850799560547 6.6178460121154785 -2.2500386238098145
1.1587597131729126 6.6690850257873535 -2.250053644180298
0.8933984041213989 6.709824562072754 -2.2500665187835693
0.7601659893989563 6.726243019104004 -2.2500722408294678
0.49284178018569946 6.7511210441589355 -2.250081777572632
0.35886716842651367 6.759582996368408 -2.2500855922698975
0.0905468761920929 6.7685112953186035 -2.250092029571533
1.685400366783142 6.06165075302124 -2.249919891357422
1.4437206983566284 6.123762607574463 -2.249936580657959
1.3220019340515137 6.151208877563477 -2.2499442100524902
0.9539160132408142 6.218987464904785 -2.249964475631714
0.7065624594688416 6.251955032348633 -2.2499752044677734
0.5824413895606995 6.264747619628906 -2.2499799728393555
0.3335644602775574 6.282939910888672 -2.249987840652466
0.20890624821186066 6.288326740264893 -2.2499911785125732
1.6881444454193115 5.63588809967041 -2.254577398300171
1.3501172065734863 5.726621627807617 -2.2547082901000977
1.0072557926177979 5.7970099449157715 -2.2548022270202637
0.8920996189117432 5.8159027099609375 -2.2548253536224365
0.9305663704872131 6.988964080810547 -2.701890707015991
0.6593164205551147 5.8339056968688965 -2.249889850616455
0.4274609386920929 5.8554840087890625 -2.2498984336853027
0.19493164122104645 5.867844581604004 -2.2499046325683594
0.07852538675069809 5.8705644607543945 -2.2499072551727295
-0.037910155951976776 5.870972156524658 -2.2499091625213623
1.475283145904541 5.3059492111206055 -2.2539710998535156
1.3697948455810547 5.334259510040283 -2.254011869430542
1.263769507408142 5.360461711883545 -2.2540488243103027
1.1572363376617432 5.384548664093018 -2.254082202911377
0.9428319931030273 5.426333427429199 -2.254136800765991
0.8350390195846558 5.4440178871154785 -2.2541584968566895
0.7269238233566284 5.4595489501953125 -2.254176378250122
0.6185253858566284 5.472927570343018 -2.254190444946289
0.5098632574081421 5.484142303466797 -2.2542004585266113
0.4010058641433716 5.493188858032227 -2.254206657409668
0.2920019328594208 5.500065326690674 -2.254209041595459
0.18287108838558197 5.5047712326049805 -2.2542076110839844
0.0736718699336052 5.507301330566406 -2.254202127456665
1.4835643768310547 4.95297908782959 -2.2533438205718994
1.3850878477096558 4.981517791748047 -2.2533857822418213
1.286035180091858 5.008091449737549 -2.2534239292144775
0.9860156178474426 5.0759077072143555 -2.2535173892974854
0.5807031393051147 5.138253688812256 -2.253591537475586
0.3764941394329071 5.1572723388671875 -2.2536067962646484
0.27415037155151367 5.163729667663574 -2.2536091804504395
0.06916992366313934 5.170526504516602 -2.2536025047302246
-0.033378906548023224 5.17085599899292 -2.253593921661377
1.0226953029632568 4.75855016708374 -2.2529561519622803
0.9281445145606995 4.777952194213867 -2.2529821395874023
0.8332128524780273 4.795464515686035 -2.253004789352417
0.7379491925239563 4.8110833168029785 -2.253023862838745
0.5466015338897705 4.8366241455078125 -2.2530517578125
0.4505859315395355 4.846532344818115 -2.253060817718506
0.3543945252895355 4.854527950286865 -2.253066301345825
0.258056640625 4.860604763031006 -2.253068447113037
-0.031425781548023224 4.867317199707031 -2.253053903579712
1.3175195455551147 4.398634433746338 -2.252342700958252
1.2300487756729126 4.423968315124512 -2.2523796558380127
1.1420996189117432 4.447559833526611 -2.252413749694824
0.9648632407188416 4.489467144012451 -2.252472162246704
0.8756542801856995 4.507765293121338 -2.2524967193603516
0.7861034870147705 4.524287223815918 -2.2525179386138916
0.6962206959724426 4.539021015167236 -2.2525360584259033
0.6060937643051147 4.551965713500977 -2.2525508403778076
0.3343554735183716 4.580000400543213 -2.2525761127471924
0.15248046815395355 4.589658737182617 -2.2525765895843506
-0.02963867038488388 4.592071533203125 -2.2525644302368164
1.162841796875 4.182201862335205 -2.251943588256836
1.079687476158142 4.204498291015625 -2.2519757747650146
0.9121288657188416 4.244107723236084 -2.252030849456787
0.6581737995147705 4.290949821472168 -2.2520911693573
0.572949230670929 4.303185939788818 -2.252105236053467
0.48750975728034973 4.313723564147949 -2.2521162033081055
0.3160644471645355 4.329686164855957 -2.252129077911377
0.23014648258686066 4.335107326507568 -2.2521309852600098
0.05806640535593033 4.340813636779785 -2.2521255016326904
-0.02803710848093033 4.341097354888916 -2.2521181106567383
1.179531216621399 3.937960624694824 -2.2515106201171875
1.101230502128601 3.960636615753174 -2.2515437602996826
0.9433300495147705 4.001293659210205 -2.2516019344329834
0.7839453220367432 4.0356340408325195 -2.251648426055908
0.7037695050239563 4.050421237945557 -2.2516674995422363
0.6233007907867432 4.063610076904297 -2.2516837120056152
0.3805859386920929 4.093539237976074 -2.2517149448394775
0.29933592677116394 4.100289821624756 -2.2517194747924805
0.2179589867591858 4.1054229736328125 -2.251721143722534
0.054999999701976776 4.1108293533325195 -2.251715898513794
-0.026533203199505806 4.111098766326904 -2.251708984375
1.1187890768051147 3.7351396083831787 -2.2511441707611084
1.0445116758346558 3.756645917892456 -2.251175880432129
0.8947460651397705 3.795201301574707 -2.2512307167053223
0.36097654700279236 3.882688522338867 -2.251337766647339
0.2839062511920929 3.8890905380249023 -2.251342296600342
0.05215820297598839 3.89908504486084 -2.2513389587402344
-0.025175780057907104 3.899339437484741 -2.2513325214385986
