ply
format ascii 1.0
element vertex 373
property float x
property float y
property float z
end_header
-1.0715234279632568 12.39772891998291 2.1942033767700195
-1.2926366329193115 12.126955032348633 2.1504220962524414
-2.7889060974121094 12.126935958862305 2.1941237449645996
-3.045175790786743 12.126933097839355 2.204690456390381
-3.304033041000366 12.126928329467773 2.216247320175171
-3.5657224655151367 12.12692642211914 2.22882342338562
-3.830497980117798 12.126920700073242 2.242439031600952
-4.098642349243164 12.12691879272461 2.257128953933716
-4.64614725112915 12.126911163330078 2.289865255355835
-4.926123142242432 12.126906394958496 2.307988166809082
-5.163974285125732 12.018195152282715 2.3064723014831543
-5.16396951675415 11.385629653930664 2.204432725906372
-1.071533203125 23.145172119140625 3.549506664276123
-1.292626976966858 12.126955032348633 1.8683054447174072
-1.7849804162979126 12.126948356628418 1.8777976036071777
-2.534990072250366 12.126937866210938 1.8979346752166748
-2.7889060974121094 12.126935958862305 1.9062741994857788
-3.304033041000366 12.126928329467773 1.9254969358444214
-3.5657224655151367 12.12692642211914 1.9364200830459595
-3.830497980117798 12.126923561096191 1.9482499361038208
-4.370414733886719 12.126914024353027 1.9747374057769775
-4.646142482757568 12.126911163330078 1.9894556999206543
-5.164003849029541 12.018261909484863 2.003894567489624
-5.163999080657959 11.385683059692383 1.915242075920105
-1.0715819597244263 23.146154403686523 3.017338752746582
-1.0866308212280273 16.380739212036133 2.1378016471862793
-2.033252000808716 12.126945495605469 1.6012238264083862
-2.2831737995147705 12.126940727233887 1.6069257259368896
-2.7889060974121094 12.126935958862305 1.6204038858413696
-3.5657129287719727 12.126923561096191 1.6460291147232056
-3.830497980117798 12.126920700073242 1.656084656715393
-4.646142482757568 12.126911163330078 1.6911109685897827
-4.926123142242432 12.126909255981445 1.7044929265975952
-5.164032936096191 12.018329620361328 1.703394889831543
-2.033252000808716 12.126945495605469 1.3203883171081543
-2.534990072250366 12.126937866210938 1.3303574323654175
-2.7889060974121094 12.126935958862305 1.3362046480178833
-3.045175790786743 12.126931190490723 1.3426389694213867
-3.304033041000366 12.126928329467773 1.3496793508529663
-3.8304882049560547 12.126920700073242 1.3656275272369385
-4.370409965515137 12.126914024353027 1.3841947317123413
-4.646142482757568 12.126911163330078 1.394510269165039
-5.1640625 12.01840591430664 1.404647946357727
-5.164052486419678 11.385820388793945 1.3425047397613525
-1.1042382717132568 41.99706268310547 3.556394577026367
-1.071630835533142 12.39901351928711 1.0535236597061157
-1.2926366329193115 12.126955032348633 1.0323939323425293
-1.5381933450698853 12.126953125 1.034803867340088
-1.7849901914596558 12.126948356628418 1.037639856338501
-2.033252000808716 12.12694263458252 1.0409077405929565
-2.534990072250366 12.126937866210938 1.0487669706344604
-3.045175790786743 12.126931190490723 1.0584492683410645
-3.304023265838623 12.126928329467773 1.0639972686767578
-3.5657129287719727 12.126923561096191 1.0700342655181885
-3.8304882049560547 12.126920700073242 1.0765708684921265
-4.0986328125 12.12691593170166 1.0836247205734253
-4.370414733886719 12.126914024353027 1.0912092924118042
-4.646142482757568 12.126909255981445 1.099341869354248
-4.926123142242432 12.126906394958496 1.1080411672592163
-1.1042382717132568 41.9970588684082 2.6051580905914307
-1.0717382431030273 23.14961814880371 1.4370511770248413
-1.0716601610183716 12.399323463439941 0.7717524766921997
-1.292626976966858 12.126953125 0.7562562227249146
-1.538183569908142 12.12695026397705 0.7580210566520691
-2.0332422256469727 12.12694263458252 0.7624921798706055
-2.2831640243530273 12.126940727233887 0.7652076482772827
-2.534980297088623 12.126935958862305 0.7682493329048157
-2.7889060974121094 12.126935958862305 0.7716245651245117
-3.5657129287719727 12.126923561096191 0.7838255167007446
-4.370419979095459 12.126914024353027 0.7993388175964355
-4.646142482757568 12.126909255981445 0.8052961826324463
-1.0719921588897705 40.77067184448242 1.608188271522522
-1.0717871189117432 23.15069580078125 0.9138343334197998
-1.071718692779541 16.156034469604492 0.6384482979774475
-1.071689486503601 12.399641036987305 0.4907539188861847
-1.292626976966858 12.126953125 0.4808882176876068
-1.7849804162979126 12.126948356628418 0.4833299219608307
-2.0332422256469727 12.12694263458252 0.48485395312309265
-2.2831640243530273 12.126940727233887 0.4865788221359253
-2.534980297088623 12.126935958862305 0.4885130226612091
-3.5657129287719727 12.126920700073242 0.4984187185764313
-3.830497980117798 12.12691879272461 0.5014662146568298
-4.646142482757568 12.126909255981445 0.5120704770088196
-1.0717577934265137 16.156641006469727 0.2735154628753662
-1.292626976966858 12.126953125 0.20600754022598267
-3.304033041000366 12.12692642211914 0.21231429278850555
-3.830497980117798 12.12691879272461 0.214821919798851
-4.0986328125 12.12691593170166 0.21623000502586365
-4.646137714385986 12.126909255981445 0.2193669080734253
-5.164174556732178 12.018656730651855 0.22096358239650726
-5.164165019989014 11.386061668395996 0.21119064092636108
-1.0717382431030273 12.4002685546875 -0.07007644325494766
-1.2926366329193115 12.126953125 -0.06866256892681122
-2.033252000808716 12.126940727233887 -0.06922988593578339
-3.5657129287719727 12.126920700073242 -0.07116729766130447
-3.830497980117798 12.12691879272461 -0.07160140573978424
-4.370414733886719 12.126911163330078 -0.0725736990571022
-4.926117897033691 12.126904487609863 -0.07369567453861237
-1.1168944835662842 24.12477684020996 -0.6800286769866943
-1.3544042110443115 20.417375564575195 -0.5761716961860657
-1.0717675685882568 12.40057373046875 -0.35047590732574463
-1.7849804162979126 12.126945495605469 -0.3451479971408844
-2.2831640243530273 12.126937866210938 -0.3474682569503784
-2.7889060974121094 12.126933097839355 -0.3503826856613159
-3.304023265838623 12.12692642211914 -0.3539147973060608
-3.5657031536102295 12.126920700073242 -0.3559219241142273
-3.8304882049560547 12.12691879272461 -0.35809874534606934
-4.0986328125 12.12691593170166 -0.3604438602924347
-4.544198989868164 11.86083984375 -0.3576478362083435
-5.164233207702637 12.018800735473633 -0.3683425784111023
-1.3544530868530273 20.417999267578125 -1.0377579927444458
-1.0717968940734863 12.40091323852539 -0.6312479972839355
-1.2481542825698853 11.709784507751465 -0.5972173810005188
-1.4151660203933716 11.157055854797363 -0.5703539848327637
-1.6415526866912842 11.152519226074219 -0.5716859102249146
-1.868994116783142 11.14731216430664 -0.5732185244560242
-2.0976171493530273 11.141425132751465 -0.5749546885490417
-2.559072256088257 11.127546310424805 -0.5790566802024841
-2.7922167778015137 11.119543075561523 -0.5814260840415955
-3.1561522483825684 11.584179878234863 -0.6088972091674805
-3.264169931411743 11.101388931274414 -0.5868304371833801
-3.988896369934082 11.068278312683105 -0.5966593623161316
-4.235702991485596 11.05562686920166 -0.6004188656806946
-4.485468864440918 11.042126655578613 -0.6044317483901978
-0.8067089915275574 30.680572509765625 -2.250345230102539
-1.116884708404541 24.12477684020996 -1.7707759141921997
-1.3858983516693115 10.926318168640137 -0.8075597882270813
-1.6082617044448853 10.926313400268555 -0.8097726106643677
-1.8319432735443115 10.926308631896973 -0.812324047088623
-2.284003973007202 10.926301002502441 -0.8184561133384705
-2.7436816692352295 10.926291465759277 -0.8260117769241333
-3.156181573867798 11.5842866897583 -0.8803454637527466
-3.6928417682647705 10.926274299621582 -0.8456576466560364
-3.9377148151397705 10.92626953125 -0.8515756130218506
-4.186142444610596 10.926264762878418 -0.8579232692718506
-4.438398361206055 10.926259994506836 -0.8647128343582153
-1.0838671922683716 23.411603927612305 -2.2500345706939697
-1.3545409440994263 20.419408798217773 -1.9646729230880737
-1.8319334983825684 10.926308631896973 -1.0636199712753296
-2.057119131088257 10.92630386352539 -1.0674083232879639
-2.5127830505371094 10.92629337310791 -1.076361060142517
-3.451240062713623 10.926279067993164 -1.100061297416687
-3.6928417682647705 10.926271438598633 -1.1072684526443481
-4.186137676239014 10.926264762878418 -1.1233272552490234
-4.438403129577637 10.926259994506836 -1.1322168111801147
-5.164301872253418 11.386364936828613 -1.2003272771835327
-1.2536718845367432 18.898754119873047 -2.2498419284820557
-1.248232364654541 11.710505485534668 -1.3989248275756836
-1.6082617044448853 10.926313400268555 -1.3118773698806763
-1.8319432735443115 10.926308631896973 -1.3160101175308228
-2.284003973007202 10.926298141479492 -1.3259453773498535
-2.7436816692352295 10.926288604736328 -1.338185429573059
-3.2126855850219727 10.926281929016113 -1.3528317213058472
-3.451240062713623 10.926279067993164 -1.361095905303955
-3.6928319931030273 10.926274299621582 -1.3700119256973267
-3.9377148151397705 10.92626953125 -1.3796011209487915
-4.438398361206055 10.926257133483887 -1.4008816480636597
-4.694785118103027 10.926254272460938 -1.412626028060913
-5.164326190948486 11.386420249938965 -1.4851620197296143
-0.4173535108566284 15.872995376586914 -2.2498106956481934
-0.7343164086341858 15.861262321472168 -2.2497775554656982
-1.0509765148162842 15.8431978225708 -2.249744415283203
-1.2482616901397705 11.710710525512695 -1.668681025505066
-1.385888695716858 10.926315307617188 -1.560546875
-1.608251929283142 10.926313400268555 -1.564821481704712
-1.8319334983825684 10.926308631896973 -1.5697503089904785
-2.057119131088257 10.92630386352539 -1.5753387212753296
-2.284003973007202 10.926298141479492 -1.581602931022644
-2.5127830505371094 10.92629337310791 -1.5885522365570068
-2.7436816692352295 10.926288604736328 -1.5962014198303223
-3.451249837875366 10.926276206970215 -1.6235324144363403
-3.6928417682647705 10.926274299621582 -1.6341662406921387
-3.9377148151397705 10.92626953125 -1.6456023454666138
-4.438398361206055 10.926257133483887 -1.6709866523742676
-5.164355278015137 11.386484146118164 -1.7715281248092651
-0.6315526962280273 13.641523361206055 -2.249702215194702
-0.9038866758346558 13.626022338867188 -2.249673366546631
-1.071933627128601 12.40248966217041 -2.0507941246032715
-1.3924022912979126 10.977612495422363 -1.8229323625564575
-2.0332422256469727 12.126940727233887 -2.025667667388916
-2.2831737995147705 12.126937866210938 -2.032881021499634
-2.7088866233825684 11.778984069824219 -1.9911141395568848
-3.2500975131988525 11.05352783203125 -1.8980320692062378
-3.453193187713623 10.932453155517578 -1.8887121677398682
-4.370409965515137 12.126911163330078 -2.123553991317749
-4.646137714385986 12.126906394958496 -2.139380693435669
-5.164404392242432 12.019208908081055 -2.1550796031951904
-5.164384841918945 11.386548042297363 -2.0597293376922607
-0.553515613079071 11.955888748168945 -2.2496447563171387
-0.7922070026397705 11.942309379577637 -2.249619722366333
-1.2685351371765137 11.900883674621582 -2.2495689392089844
-1.5059765577316284 11.873017311096191 -2.2495434284210205
-2.6822166442871094 11.66301441192627 -2.2494139671325684
-2.91460919380188 11.606974601745605 -2.2493879795074463
-3.6044139862060547 11.411178588867188 -2.2493093013763428
-3.8315722942352295 11.336774826049805 -2.2492830753326416
-4.057207107543945 11.25784683227539 -2.2492566108703613
-4.281225681304932 11.174430847167969 -2.24923038482666
-4.942626953125 10.89758014678955 -2.2491514682769775
-0.9163769483566284 10.602705001831055 -2.2495548725128174
-1.339111328125 10.55743408203125 -2.249509572982788
-1.9689452648162842 10.457956314086914 -2.249440908432007
-2.177431583404541 10.41644287109375 -2.249417781829834
-2.591679573059082 10.320951461791992 -2.249371290206909
-2.797294855117798 10.267011642456055 -2.2493481636047363
-3.00176739692688 10.208977699279785 -2.2493247985839844
-3.2050585746765137 10.14688491821289 -2.2493014335632324
-3.4070701599121094 10.080731391906738 -2.2492780685424805
-3.6077051162719727 10.0105619430542 -2.2492544651031494
-3.806894540786743 9.936396598815918 -2.2492311000823975
-4.200649261474609 9.776225090026855 -2.2491843700408936
-0.8241796493530273 9.535951614379883 -2.2495229244232178
-1.3937890529632568 9.469215393066406 -2.2494618892669678
-1.5826367139816284 9.439393997192383 -2.249441146850586
-2.145087957382202 9.327407836914062 -2.2493786811828613
-2.515878915786743 9.234116554260254 -2.2493369579315186
-2.6997947692871094 9.181936264038086 -2.2493159770965576
-3.0643064975738525 9.066614151000977 -2.2492740154266357
-3.244765520095825 9.00350284576416 -2.2492527961730957
-3.9529197216033936 8.715457916259766 -2.249168872833252
-0.22836913168430328 8.685279846191406 -2.249551296234131
-0.9208495616912842 8.639060020446777 -2.249478340148926
-1.0932128429412842 8.61887264251709 -2.249459743499756
-1.947109341621399 8.46655559539795 -2.24936580657959
-2.1158103942871094 8.425902366638184 -2.249346971511841
-2.7815136909484863 8.2298583984375 -2.2492706775665283
-3.1079394817352295 8.112058639526367 -2.249232530593872
-3.4294042587280273 7.981319904327393 -2.249194383621216
-3.5881152153015137 7.911157608032227 -2.2491753101348877
-0.20884765684604645 7.943491458892822 -2.2495245933532715
-0.5259570479393005 7.928696632385254 -2.2494914531707764
-0.6842187643051147 7.916553020477295 -2.24947452545166
-0.8422070145606995 7.90125036239624 -2.249457597732544
-1.1570996046066284 7.861185550689697 -2.2494237422943115
-1.3138866424560547 7.8364410400390625 -2.249406576156616
-2.088691473007202 7.666101455688477 -2.249326467514038
-2.2413573265075684 7.6227946281433105 -2.2493112087249756
-2.5439844131469727 7.527093887329102 -2.2492809295654297
-2.6938085556030273 7.474728107452393 -2.2492659091949463
-2.8425488471984863 7.419380187988281 -2.249251127243042
-3.136601448059082 7.299834251403809 -2.2492218017578125
-3.2817578315734863 7.2356743812561035 -2.2492072582244873
-0.19223631918430328 7.311102867126465 -2.249514579772949
-1.0649901628494263 7.235384941101074 -2.2494277954101562
-1.353124976158142 7.186986446380615 -2.249398946762085
-1.4963964223861694 7.158478260040283 -2.249384641647339
-1.63916015625 7.127110958099365 -2.249370574951172
-1.781347632408142 7.092902183532715 -2.249356269836426
-2.063173770904541 7.016018390655518 -2.2493295669555664
-2.203447103500366 6.975599765777588 -2.2500343322753906
-2.4801855087280273 6.881989002227783 -2.2500200271606445
-0.17791014909744263 6.766360282897949 -2.249953508377075
-0.3130273222923279 6.761462688446045 -2.24995493888855
-0.4480273425579071 6.7538652420043945 -2.249955892562866
-0.5828418135643005 6.74356746673584 -2.2499561309814453
-0.71742182970047 6.730581283569336 -2.249955892562866
-1.119238257408142 6.675520420074463 -2.2499520778656006
-1.2523534297943115 6.651823043823242 -2.2499496936798096
-1.3849706649780273 6.625471591949463 -2.2499468326568604
-1.6484960317611694 6.564844131469727 -2.249939441680908
-1.909365177154541 6.49373722076416 -2.249929428100586
-2.421572208404541 6.3205461502075195 -2.249903440475464
-2.5473339557647705 6.270890235900879 -2.2498955726623535
-2.672060489654541 6.218735694885254 -2.249886989593506
-2.795732259750366 6.164097309112549 -2.249878168106079
-0.16536132991313934 6.289238929748535 -2.249854803085327
-0.4164355397224426 6.277621269226074 -2.249857187271118
-0.5417382717132568 6.268052101135254 -2.2498574256896973
-0.7916601300239563 6.2414093017578125 -2.24985671043396
-0.9161718487739563 6.224350929260254 -2.2498555183410645
-1.0403125286102295 6.204803943634033 -2.2498538494110107
-1.1640429496765137 6.182781219482422 -2.2498514652252197
-1.53225576877594 6.101937770843506 -2.2498416900634766
-1.6538281440734863 6.070100784301758 -2.2498373985290527
-1.774746060371399 6.0358428955078125 -2.2498326301574707
-1.8949315547943115 5.999172687530518 -2.2498273849487305
-2.1330273151397705 5.918671131134033 -2.2498152256011963
-2.488818407058716 5.792263507843018 -2.254472255706787
-2.6039061546325684 5.741135597229004 -2.254371166229248
-0.15430663526058197 5.868696689605713 -2.249768018722534
-0.2714941203594208 5.86444616317749 -2.249769449234009
-0.5055078268051147 5.8489251136779785 -2.249770402908325
-0.6222363114356995 5.8376617431640625 -2.249770402908325
-0.738720715045929 5.824065208435059 -2.249769687652588
-0.9728515148162842 5.802407741546631 -2.254624843597412
-1.0885448455810547 5.7816972732543945 -2.254577875137329
-1.3185253143310547 5.733335494995117 -2.2544713020324707
-1.5463964939117432 5.67578649520874 -2.2543487548828125
-1.6594140529632568 5.643595218658447 -2.254281520843506
-1.994228482246399 5.53352689743042 -2.254055976867676
-2.1042871475219727 5.4923882484436035 -2.2539730072021484
-2.213505744934082 5.449051856994629 -2.2538862228393555
-2.4291601181030273 5.355856418609619 -2.2537012100219727
-0.3645605444908142 5.495547294616699 -2.2541329860687256
-0.583740234375 5.476472854614258 -2.254079580307007
-0.6929980516433716 5.46364164352417 -2.254047155380249
-0.8019824028015137 5.448617458343506 -2.2540106773376465
-0.91064453125 5.4314141273498535 -2.2539703845977783
-1.0189355611801147 5.412034034729004 -2.2539262771606445
-1.234228491783142 5.36678409576416 -2.25382661819458
-1.341152310371399 5.3409271240234375 -2.2537713050842285
-1.658486247062683 5.250574111938477 -2.25358247756958
-1.8667479753494263 5.179810047149658 -2.2534379959106445
-1.9697753190994263 5.141312599182129 -2.2533605098724365
-2.0720019340515137 5.100762367248535 -2.253278970718384
-2.173398494720459 5.058164596557617 -2.2531943321228027
-0.4452441334724426 5.151577472686768 -2.253513813018799
-0.548046886920929 5.141592502593994 -2.2534871101379395
-0.650634765625 5.129551410675049 -2.2534565925598145
-0.9566308259963989 5.081120014190674 -2.253343105316162
-1.1587694883346558 5.0386481285095215 -2.2532496452331543
-1.2591503858566284 5.014381408691406 -2.25319766998291
-1.359033226966858 4.988105773925781 -2.2531421184539795
-1.5570898056030273 4.929579257965088 -2.2530202865600586
-1.6551952362060547 4.897347927093506 -2.2529542446136475
-1.94534170627594 4.7889628410339355 -2.2527356147766113
-2.040537118911743 4.74898099899292 -2.2526559829711914
-2.134902238845825 4.707101821899414 -2.252573251724243
-0.22509765625 4.8621320724487305 -2.253018379211426
-0.32215818762779236 4.856627464294434 -2.253000020980835
-0.5158789157867432 4.839783191680908 -2.252953052520752
-0.6124414205551147 4.828451633453369 -2.2529242038726807
-0.8047753572463989 4.799992084503174 -2.252856492996216
-0.9004882574081421 4.782876491546631 -2.2528176307678223
-0.9958202838897705 4.7638468742370605 -2.252775192260742
-1.0907518863677979 4.742908000946045 -2.252729654312134
-1.185244083404541 4.720071315765381 -2.252680540084839
-1.2792675495147705 4.695345878601074 -2.2526283264160156
-1.4657129049301147 4.640268325805664 -2.2525136470794678
-2.009638547897339 4.4309000968933105 -2.2520930767059326
-0.2123730480670929 4.587183952331543 -2.252530574798584
-0.303955078125 4.581991672515869 -2.2525131702423096
-0.48670896887779236 4.566103458404541 -2.2524685859680176
-0.5778124928474426 4.555416584014893 -2.25244140625
-0.6686816215515137 4.542905807495117 -2.252411127090454
-0.8495604991912842 4.512430191040039 -2.2523410320281982
-0.9395117163658142 4.494481086730957 -2.252300977706909
-1.029091715812683 4.4747314453125 -2.252258062362671
-1.206933617591858 4.429870128631592 -2.252162456512451
-1.2951366901397705 4.4047770500183105 -2.252110004425049
-1.3828320503234863 4.377919673919678 -2.252054452896118
-1.642421841621399 4.286890029907227 -2.2518692016601562
-1.896035075187683 4.180433750152588 -2.251657247543335
-0.3737890422344208 4.324930191040039 -2.252049684524536
-0.632128894329071 4.294633865356445 -2.2519726753234863
-0.8031347393989563 4.265832901000977 -2.251906394958496
-0.9728417992591858 4.230201721191406 -2.2518279552459717
-1.2243750095367432 4.164085388183594 -2.251688003540039
-1.47146475315094 4.082979679107666 -2.2515218257904053
-1.6332812309265137 4.020725727081299 -2.251396656036377
-0.19011718034744263 4.106726169586182 -2.2516777515411377
-0.27210935950279236 4.102081775665283 -2.251662254333496
-0.5986425876617432 4.067108631134033 -2.2515709400177
-0.6797558665275574 4.054286003112793 -2.2515408992767334
-0.7605859041213989 4.039840221405029 -2.2515082359313965
-0.8411230444908142 4.023776054382324 -2.2514724731445312
-0.9213085770606995 4.006105422973633 -2.251433849334717
-1.0805468559265137 3.965956926345825 -2.2513482570648193
-1.159521460533142 3.943504571914673 -2.2513012886047363
-1.2380175590515137 3.919466972351074 -2.251251697540283
-1.3160253763198853 3.8938658237457275 -2.251199245452881
-0.3357617259025574 3.884830951690674 -2.251270055770874
-0.4132714867591858 3.877314329147339 -2.2512497901916504
-0.5678027272224426 3.857628583908081 -2.2512011528015137
-0.6447362899780273 3.8454692363739014 -2.2511725425720215
-0.7214062213897705 3.8317723274230957 -2.2511415481567383
-0.797802746295929 3.8165385723114014 -2.251107692718506
-0.8738573789596558 3.7997801303863525 -2.251070976257324
-0.9495605230331421 3.781503915786743 -2.2510316371917725
-1.0248925685882568 3.7617101669311523 -2.2509896755218506
-1.1742675304412842 3.717621326446533 -2.2508981227874756
-1.2482714653015137 3.693342924118042 -2.2508482933044434
-1.4671190977096558 3.6116905212402344 -2.2506837844848633
