ply
format ascii 1.0
element vertex 246
property float x
property float y
property float z
end_header
-18.677532196044922 -16.667234420776367 3.8349080085754395
-26.02446174621582 -16.578746795654297 4.0181732177734375
-18.678016662597656 -16.667680740356445 1.5523415803909302
-18.67825698852539 -16.667896270751953 0.42287200689315796
-18.678495407104492 -16.66811180114746 -0.7049128413200378
-41.04974365234375 -16.666433334350586 -2.2468421459198
-39.949462890625 -19.11020851135254 -2.245877981185913
-39.54928207397461 -19.9088134765625 -2.2455034255981445
-39.13357162475586 -20.699195861816406 -2.245154619216919
-37.78501510620117 -23.012706756591797 -2.2436599731445312
-37.347347259521484 -23.7918701171875 -2.245717763900757
-37.315364837646484 -24.843629837036133 -2.273468017578125
-37.289512634277344 -25.92691421508789 -2.303292989730835
-37.22901153564453 -28.17835807800293 -2.3678815364837646
-37.08407211303711 -29.263628005981445 -2.3957223892211914
-35.87661361694336 -30.737977981567383 -2.395916700363159
-30.2880802154541 -12.297123908996582 -2.396848440170288
-29.49053192138672 -14.107083320617676 -2.3969757556915283
-29.20037269592285 -14.699311256408691 -2.3970203399658203
-28.58513832092285 -15.865703582763672 -2.3971166610717773
-28.25992202758789 -16.439374923706055 -2.3971686363220215
-27.92315101623535 -17.006425857543945 -2.3972227573394775
-27.21584701538086 -18.119625091552734 -2.397336483001709
-25.669586181640625 -20.256305694580078 -2.397585153579712
-23.956249237060547 -22.26185417175293 -2.3978612422943115
-23.503097534179688 -22.74120330810547 -2.3979341983795166
-23.143278121948242 -9.396288871765137 -2.3980090618133545
-22.949308395385742 -9.861281394958496 -2.3980398178100586
-22.311885833740234 -11.231623649597168 -2.398141622543335
-21.841415405273438 -12.122719764709473 -2.398216724395752
-21.592803955078125 -12.56099796295166 -2.398256540298462
-21.069360733032227 -13.422119140625 -2.3983404636383057
-20.79476547241211 -13.844621658325195 -2.3983845710754395
-20.511674880981445 -14.26149845123291 -2.3984298706054688
-20.220224380493164 -14.672579765319824 -2.3984766006469727
-18.6566162109375 -14.121044158935547 -2.2463388442993164
-18.072710037231445 -14.862671852111816 -2.246434450149536
-17.4593448638916 -15.580183982849121 -2.2465367317199707
-17.141958236694336 -15.929549217224121 -2.246589183807373
-16.853046417236328 -16.30674934387207 -2.25138258934021
-18.71044158935547 -7.596537113189697 -2.398735761642456
-17.851591110229492 -9.442413330078125 -2.398878812789917
-17.456684112548828 -10.154915809631348 -2.3989439010620117
-17.248563766479492 -10.505127906799316 -2.398977756500244
-16.811342239379883 -11.192562103271484 -2.399048328399658
-16.582416534423828 -11.529539108276367 -2.399085283279419
-15.855570793151855 -12.51187515258789 -2.3992021083831787
-15.338583946228027 -13.141642570495605 -2.399285316467285
-15.057255744934082 -13.436624526977539 -2.397193431854248
-15.557723999023438 -6.6851325035095215 -2.399256706237793
-15.419878005981445 -6.997642517089844 -2.3992786407470703
-15.275752067565918 -7.307305812835693 -2.399301767349243
-14.968905448913574 -7.917608261108398 -2.399350881576538
-14.63771915435791 -8.515079498291016 -2.3994040489196777
-14.282724380493164 -9.098725318908691 -2.399461269378662
-14.096474647521973 -9.385076522827148 -2.39949107170105
-13.904486656188965 -9.667607307434082 -2.399521827697754
-13.706835746765137 -9.946211814880371 -2.3995537757873535
-13.50362777709961 -10.220797538757324 -2.3995864391326904
-13.29494571685791 -10.49124813079834 -2.3996200561523438
-13.080815315246582 -10.757413864135742 -2.3996543884277344
-12.861371994018555 -11.019232749938965 -2.3996899127960205
-12.171977043151855 -11.777414321899414 -2.399801015853882
-13.496073722839355 -5.47947883605957 -2.399592638015747
-13.264301300048828 -6.01942777633667 -2.399629831314087
-13.140312194824219 -6.285788536071777 -2.3996496200561523
-13.010961532592773 -6.549609184265137 -2.399670362472534
-12.7364501953125 -7.069163799285889 -2.399714231491089
-12.591401100158691 -7.32468843460083 -2.399737596511841
-12.441225051879883 -7.577249526977539 -2.39976167678833
-12.285981178283691 -7.826714515686035 -2.3997867107391357
-12.12575626373291 -8.073023796081543 -2.3998124599456787
-11.790566444396973 -8.55568790435791 -2.3998663425445557
-10.6721773147583 -9.917351722717285 -2.4000465869903564
-11.730844497680664 -5.040724754333496 -2.3998796939849854
-11.28673267364502 -5.969971656799316 -2.3999509811401367
-10.905302047729492 -6.641800403594971 -2.400012254714966
-10.7692232131958 -6.8604736328125 -2.400033950805664
-10.48397445678711 -7.289372444152832 -2.4000797271728516
-10.024262428283691 -7.910301208496094 -2.400153636932373
-9.52783203125 -8.502334594726562 -2.400233745574951
-9.35451602935791 -8.692887306213379 -2.400261878967285
-9.17739200592041 -8.879899978637695 -2.4002902507781982
-10.339604377746582 -4.692178726196289 -2.4001059532165527
-10.242924690246582 -4.899803161621094 -2.4001214504241943
-10.037201881408691 -5.308997631072998 -2.4001545906066895
-9.9278564453125 -5.510405540466309 -2.400171995162964
-9.81497573852539 -5.7095794677734375 -2.4001901149749756
-9.576860427856445 -6.100889682769775 -2.400228261947632
-9.451932907104492 -6.29286527633667 -2.4002485275268555
-9.323168754577637 -6.482276916503906 -2.400269031524658
-8.623519897460938 -7.388382911682129 -2.4003818035125732
-8.472841262817383 -7.5608954429626465 -2.4004061222076416
-8.318710327148438 -7.730336666107178 -2.400430917739868
-9.462646484375 -3.841885566711426 -2.4002492427825928
-9.383280754089355 -4.031983375549316 -2.400261878967285
-9.122426986694336 -4.592152118682861 -2.400303840637207
-9.027997970581055 -4.775243282318115 -2.4003188610076904
-8.929916381835938 -4.956401348114014 -2.400334596633911
-8.8281831741333 -5.135544300079346 -2.40035080909729
-8.613886833190918 -5.487499237060547 -2.4003853797912598
-8.50162124633789 -5.66016960144043 -2.4004034996032715
-8.266562461853027 -5.998537063598633 -2.4004411697387695
-8.14395523071289 -6.164101600646973 -2.400460958480835
-7.75646448135376 -6.645512104034424 -2.4005234241485596
-7.482265472412109 -6.953062057495117 -2.4005675315856934
-8.589873313903809 -3.4875361919403076 -2.4003913402557373
-8.517831802368164 -3.660098075866699 -2.4004030227661133
-8.195302963256836 -4.334800720214844 -2.400454521179199
-8.013891220092773 -4.661856174468994 -2.4004836082458496
-7.81945276260376 -4.981342792510986 -2.400514841079712
-7.717451095581055 -5.138085842132568 -2.40053129196167
-7.612363338470459 -5.292733192443848 -2.400548219680786
-7.504018306732178 -5.445231914520264 -2.4005656242370605
-7.392734050750732 -5.595520496368408 -2.400583505630493
-7.161176681518555 -5.889220237731934 -2.400620937347412
-7.040981292724609 -6.032510280609131 -2.4006402492523193
-6.6634521484375 -6.44744348526001 -2.4007010459899902
-7.856689453125 -3.1898741722106934 -2.400510787963867
-7.790824890136719 -3.347703218460083 -2.4005212783813477
-7.6495361328125 -3.659229040145874 -2.4005439281463623
-7.495805263519287 -3.964808940887451 -2.4005684852600098
-7.329873085021973 -4.263949871063232 -2.400595188140869
-6.962538719177246 -4.840968132019043 -2.4006543159484863
-6.863539695739746 -4.980443000793457 -2.400670051574707
-6.761723518371582 -5.11790132522583 -2.400686502456665
-6.440097332000732 -5.517582416534424 -2.40073823928833
-6.094648361206055 -5.8970866203308105 -2.40079402923584
-7.231572151184082 -2.936058521270752 -2.4006125926971436
-6.746635437011719 -3.924661874771118 -2.4006903171539307
-6.6661376953125 -4.059965133666992 -2.400702953338623
-6.582929611206055 -4.193618297576904 -2.400716543197632
-6.497040748596191 -4.325567722320557 -2.4007303714752197
-6.408515453338623 -4.455757141113281 -2.400744676589966
-6.223681449890137 -4.71065092086792 -2.4007742404937744
-5.823915958404541 -5.197079181671143 -2.400838613510132
-6.576772212982178 -2.98455548286438 -2.4007186889648438
-6.51525354385376 -3.116612672805786 -2.400728702545166
-6.451083660125732 -3.2474076747894287 -2.4007389545440674
-6.384233474731445 -3.3768889904022217 -2.400749683380127
-6.314897537231445 -3.504981279373169 -2.4007606506347656
-6.168461799621582 -3.7568600177764893 -2.4007842540740967
-5.84573221206665 -4.241886615753174 -2.400836229324341
-5.669955730438232 -4.474252223968506 -2.400864601135254
-5.484955787658691 -4.699348449707031 -2.4008941650390625
-5.389091491699219 -4.809055805206299 -2.400909662246704
-5.291035175323486 -4.916809558868408 -2.400925636291504
-5.19082498550415 -5.022561073303223 -2.4009416103363037
-6.168129920959473 -2.650437831878662 -2.400785446166992
-6.113442420959473 -2.774319648742676 -2.400794267654419
-5.733906269073486 -3.492206573486328 -2.40085506439209
-5.66234827041626 -3.6071648597717285 -2.400866746902466
-5.588461875915527 -3.7206573486328125 -2.400878429412842
-5.512304782867432 -3.832634687423706 -2.400890827178955
-5.353315353393555 -4.051877498626709 -2.400916337966919
-5.185585975646973 -4.264534950256348 -2.4009432792663574
-5.009433269500732 -4.47026252746582 -2.4009716510772705
-5.705024242401123 -2.5889809131622314 -2.4008607864379883
-5.651669979095459 -2.7035317420959473 -2.400869131088257
-5.596010684967041 -2.8169875144958496 -2.4008781909942627
-5.538075923919678 -2.9292943477630615 -2.4008874893188477
-5.477890491485596 -3.040412425994873 -2.400897264480591
-5.415463924407959 -3.150296211242676 -2.400907278060913
-5.350873947143555 -3.258899688720703 -2.4009175300598145
-5.284062385559082 -3.366177797317505 -2.400928258895874
-5.144028186798096 -3.576589822769165 -2.4009506702423096
-5.070854187011719 -3.6796343326568604 -2.4009625911712646
-4.918403148651123 -3.8811874389648438 -2.400987148284912
-4.839150428771973 -3.9796226024627686 -2.4009997844696045
-4.674750804901123 -4.171606540679932 -2.401026487350464
-4.502763748168945 -4.356797218322754 -2.4010539054870605
-5.389736175537109 -2.31596302986145 -2.400912284851074
-5.341943264007568 -2.4242100715637207 -2.4009199142456055
-5.239863395690918 -2.637704610824585 -2.4009361267089844
-5.129252910614014 -2.846911668777466 -2.400954008102417
-5.070810317993164 -2.9497997760772705 -2.400963306427002
-5.010293006896973 -3.051492929458618 -2.400973081588745
-4.883183479309082 -3.2511086463928223 -2.4009933471679688
-4.816630840301514 -3.348956823348999 -2.4010040760040283
-4.677724361419678 -3.540518045425415 -2.401026487350464
-4.377216815948486 -3.906097412109375 -2.4010748863220215
-5.016728401184082 -2.2766215801239014 -2.400972843170166
-4.920859336853027 -2.4771194458007812 -2.4009883403778076
-4.869906902313232 -2.5758755207061768 -2.400996446609497
-4.816977500915527 -2.6735870838165283 -2.4010047912597656
-4.762089729309082 -2.770209789276123 -2.4010136127471924
-4.705263614654541 -2.8657097816467285 -2.4010226726531982
-4.646523475646973 -2.96004319190979 -2.4010322093963623
-4.585893630981445 -3.0531740188598633 -2.4010419845581055
-4.523378849029541 -3.1450648307800293 -2.4010519981384277
-4.459067344665527 -3.235668182373047 -2.401062488555908
-4.392914772033691 -3.3249642848968506 -2.4010729789733887
-4.324970722198486 -3.4129083156585693 -2.4010839462280273
-4.255258560180664 -3.499467611312866 -2.401095151901245
-4.035927772521973 -3.750457763671875 -2.401130437850952
-3.959482431411743 -3.83111572265625 -2.4011428356170654
-4.765717506408691 -2.047821283340454 -2.4010138511657715
-4.633183479309082 -2.332310199737549 -2.4010350704193115
-4.535376071929932 -2.517291784286499 -2.401050567626953
-4.483695983886719 -2.608266592025757 -2.401059150695801
-4.430195331573486 -2.6981844902038574 -2.4010674953460693
-4.374897480010986 -2.787001371383667 -2.401076555252075
-4.258955001831055 -2.9612011909484863 -2.401095151901245
-3.9392333030700684 -3.375041961669922 -2.401146650314331
-3.728022336959839 -3.607137441635132 -2.4011807441711426
-4.535322189331055 -1.841366171836853 -2.4010515213012695
-4.231137752532959 -2.461345672607422 -2.4011001586914062
-4.180649280548096 -2.5461976528167725 -2.4011082649230957
-4.128457069396973 -2.6300106048583984 -2.4011168479919434
-4.0745849609375 -2.712756395339966 -2.401125192642212
-4.019057750701904 -2.794398784637451 -2.4011342525482178
-3.9618847370147705 -2.8749043941497803 -2.4011435508728027
-3.9031150341033936 -2.954240083694458 -2.4011528491973877
-3.8427488803863525 -3.0323760509490967 -2.401162624359131
-3.6523730754852295 -3.2592666149139404 -2.401193380355835
-3.5179834365844727 -3.403949499130249 -2.401215076446533
-4.288373947143555 -1.7411013841629028 -2.4010918140411377
-4.252397537231445 -1.827248454093933 -2.401097297668457
-4.214687347412109 -1.9126518964767456 -2.4011034965515137
-4.175263404846191 -1.9972769021987915 -2.4011096954345703
-4.091332912445068 -2.164058208465576 -2.401123046875
-3.746157169342041 -2.718357563018799 -2.4011785984039307
-3.633496046066284 -2.867253065109253 -2.4011969566345215
-3.574941396713257 -2.939970016479492 -2.4012062549591064
-3.5149266719818115 -3.011491298675537 -2.4012160301208496
-3.4534912109375 -3.0817883014678955 -2.4012258052825928
-3.390639543533325 -3.1508288383483887 -2.401235818862915
-3.326411008834839 -3.2185897827148438 -2.4012463092803955
-3.8753271102905273 -2.0498056411743164 -2.401158332824707
-3.7895214557647705 -2.20444917678833 -2.401172161102295
-3.6975486278533936 -2.3555068969726562 -2.401186943054199
-3.599565267562866 -2.502735137939453 -2.40120267868042
-3.4957275390625 -2.645890712738037 -2.401219367980957
-3.3861961364746094 -2.784745454788208 -2.4012370109558105
-3.329345703125 -2.852489471435547 -2.4012460708618164
-3.2711474895477295 -2.9190733432769775 -2.4012556076049805
-3.211621046066284 -2.984468936920166 -2.4012651443481445
-3.8534374237060547 -1.564518690109253 -2.401162624359131
-3.787226438522339 -1.7186684608459473 -2.4011731147766113
-3.7518017292022705 -1.7947096824645996 -2.4011785984039307
-3.6763768196105957 -1.944574236869812 -2.401190996170044
-3.594980478286743 -2.091278076171875 -2.4012038707733154
-3.4147753715515137 -2.3742501735687256 -2.401232957839966
-3.264970541000366 -2.576441526412964 -2.401257038116455
-3.212353467941284 -2.6417813301086426 -2.4012653827667236
-3.1584227085113525 -2.7060487270355225 -2.4012739658355713
