ply
format ascii 1.0
element vertex 296
property float x
property float y
property float z
end_header
29.14847183227539 -24.90771484375 1.511824607849121
32.65610885620117 -37.05131149291992 -0.27806442975997925
29.156782150268555 -24.91480255126953 -0.21592696011066437
32.295345306396484 -36.641971588134766 -1.3753063678741455
32.391136169433594 -35.28883743286133 -1.3487845659255981
32.28159713745117 -33.77537536621094 -1.315570592880249
29.15668296813965 -24.91472053527832 -1.0799020528793335
32.399925231933594 -25.4979190826416 -1.1609395742416382
32.483558654785156 -24.51864242553711 -1.1459800004959106
32.25908660888672 -21.414175033569336 -1.0902639627456665
32.39352798461914 -20.574003219604492 -1.0805555582046509
32.42395782470703 -19.686567306518555 -1.068095088005066
26.029672622680664 -39.628421783447266 -2.404503583908081
28.442113876342773 -35.023406982421875 -2.2880983352661133
30.034759521484375 -32.7216682434082 -2.2525320053100586
30.689926147460938 -32.110023498535156 -2.2526016235351562
31.332563400268555 -31.485185623168945 -2.2526698112487793
31.962425231933594 -30.847368240356445 -2.252736806869507
32.449546813964844 -30.076839447021484 -2.2438364028930664
32.35153579711914 -28.794315338134766 -2.1964168548583984
29.098529815673828 -24.865036010742188 -1.9410951137542725
32.45571517944336 -24.497623443603516 -2.0622053146362305
32.40067672729492 -23.445011138916016 -2.0282340049743652
32.39980697631836 -21.507631301879883 -1.9722063541412354
32.36463165283203 -20.555646896362305 -1.9444156885147095
17.997562408447266 -27.400150299072266 -2.403672218322754
19.08936882019043 -26.6529541015625 -2.403787612915039
19.623804092407227 -26.262977600097656 -2.4038443565368652
20.15019989013672 -25.862255096435547 -2.403900146484375
20.668432235717773 -25.450952529907227 -2.4039549827575684
21.17827606201172 -25.02927589416504 -2.4040091037750244
22.17192840576172 -24.155433654785156 -2.4041144847869873
23.594282150268555 -22.771148681640625 -2.4042654037475586
24.930219650268555 -21.30316925048828 -2.404407501220703
25.770404815673828 -20.280630111694336 -2.404496908187866
26.568666458129883 -19.225000381469727 -2.4045820236206055
13.742826461791992 -20.922592163085938 -2.403231620788574
14.1624755859375 -20.641414642333984 -2.403275966644287
14.984331130981445 -20.05388832092285 -2.403362989425659
15.7818603515625 -19.433658599853516 -2.4034476280212402
17.298608779907227 -18.09906768798828 -2.403608560562134
17.660581588745117 -17.7465877532959 -2.403646945953369
18.015365600585938 -17.38687515258789 -2.403684616088867
18.3627872467041 -17.020057678222656 -2.403721570968628
19.03516960144043 -16.265775680541992 -2.4037928581237793
19.676517486572266 -15.484896659851074 -2.4038612842559814
20.862133026123047 -13.848671913146973 -2.4039876461029053
21.402700424194336 -12.994874954223633 -2.403848171234131
10.079419136047363 -16.041656494140625 -2.2504515647888184
10.401225090026855 -15.835237503051758 -2.25048565864563
10.718832969665527 -15.622333526611328 -2.250519275665283
11.03201675415039 -15.403121948242188 -2.2505524158477783
12.433813095092773 -15.958471298217773 -2.403099298477173
13.067973136901855 -15.444218635559082 -2.4031665325164795
13.377142906188965 -15.177584648132324 -2.4031991958618164
13.680892944335938 -14.904755592346191 -2.403231382369995
13.979008674621582 -14.6258544921875 -2.4032630920410156
14.271469116210938 -14.340995788574219 -2.403294086456299
14.558149337768555 -14.05025577545166 -2.403322458267212
14.838441848754883 -13.75341796875 -2.4032840728759766
15.898754119873047 -12.511903762817383 -2.4032318592071533
16.147855758666992 -12.18844223022461 -2.4032154083251953
16.39041519165039 -11.860041618347168 -2.4031975269317627
16.626264572143555 -11.526806831359863 -2.4031786918640137
17.0775146484375 -10.846384048461914 -2.403136730194092
8.449506759643555 -13.44759464263916 -2.2502830028533936
8.7706298828125 -13.35274600982666 -2.2635722160339355
9.238637924194336 -13.465055465698242 -2.313748359680176
10.150874137878418 -13.585149765014648 -2.4028618335723877
10.423051834106445 -13.377708435058594 -2.402890682220459
10.691010475158691 -13.164826393127441 -2.402919054031372
10.954574584960938 -12.946520805358887 -2.402940511703491
12.203295707702637 -11.777555465698242 -2.4030063152313232
12.893695831298828 -11.017820358276367 -2.403041362762451
13.327865600585938 -10.488678932189941 -2.4030630588531494
13.536870002746582 -10.217652320861816 -2.4030730724334717
14.130414962768555 -9.380029678344727 -2.4031014442443848
14.316869735717773 -9.093021392822266 -2.4031100273132324
8.2513427734375 -12.026101112365723 -2.4026637077331543
9.421225547790527 -11.13437271118164 -2.402787685394287
9.644105911254883 -10.942108154296875 -2.402811288833618
10.288705825805664 -10.338825225830078 -2.402871608734131
10.4952974319458 -10.129150390625 -2.4028820991516113
10.89553165435791 -9.697513580322266 -2.402902603149414
11.278032302856445 -9.250056266784668 -2.4029219150543213
11.462446212768555 -9.020636558532715 -2.402930974960327
11.642172813415527 -8.78753662109375 -2.402939796447754
11.81717300415039 -8.550861358642578 -2.4029481410980225
11.98733901977539 -8.310689926147461 -2.402956247329712
12.152641296386719 -8.067133903503418 -2.4029641151428223
12.468305587768555 -7.570267677307129 -2.4029786586761475
6.800336837768555 -10.822885513305664 -2.402512550354004
7.231616020202637 -10.53988265991211 -2.4025580883026123
7.442885398864746 -10.391907691955566 -2.4025802612304688
7.856274127960205 -10.08331298828125 -2.4026241302490234
8.058207511901855 -9.922829627990723 -2.4026455879211426
8.644038200378418 -9.417314529418945 -2.402707815170288
8.832377433776855 -9.241079330444336 -2.4027278423309326
9.37552261352539 -8.689966201782227 -2.402785539627075
9.549057006835938 -8.499088287353516 -2.402803897857666
9.884291648864746 -8.106926918029785 -2.402822732925415
10.650775909423828 -7.070181846618652 -2.402859687805176
10.79129409790039 -6.853831768035889 -2.4028663635253906
6.046713829040527 -9.62348461151123 -2.4024345874786377
6.239711761474609 -9.499590873718262 -2.4024548530578613
6.985610008239746 -8.965836524963379 -2.402533769607544
7.165151119232178 -8.823119163513184 -2.402552843093872
7.34179162979126 -8.676807403564453 -2.402571678161621
7.515453815460205 -8.526957511901855 -2.402590036392212
7.68602991104126 -8.373631477355957 -2.4026081562042236
8.178764343261719 -7.893431663513184 -2.402660369873047
8.788823127746582 -7.208439826965332 -2.4027252197265625
8.9325532913208 -7.029683589935303 -2.402740478515625
9.072641372680664 -6.848048686981201 -2.4027554988861084
9.20901870727539 -6.663614273071289 -2.4027655124664307
9.341635704040527 -6.476450443267822 -2.4027717113494873
5.611860275268555 -8.543706893920898 -2.4023900032043457
5.783159255981445 -8.428791046142578 -2.4024078845977783
6.118628025054932 -8.188711166381836 -2.4024434089660645
6.444145202636719 -7.935269832611084 -2.402477979660034
7.636274337768555 -6.796621322631836 -2.402604579925537
7.771909236907959 -6.641184329986572 -2.402618885040283
8.159624099731445 -6.158896446228027 -2.402660369873047
8.40157699584961 -5.824679851531982 -2.40268611907959
8.517426490783691 -5.654007434844971 -2.402698516845703
8.629828453063965 -5.481035232543945 -2.402710437774658
4.936284065246582 -7.856208801269531 -2.4023196697235107
5.249330997467041 -7.650744438171387 -2.402352809906006
5.402680397033691 -7.543317794799805 -2.4023687839508057
5.5538330078125 -7.432814598083496 -2.4023849964141846
5.702709674835205 -7.319279193878174 -2.4024007320404053
5.849282264709473 -7.202763557434082 -2.402416229248047
5.993471622467041 -7.083313941955566 -2.4024314880371094
6.135229587554932 -6.960972309112549 -2.4024465084075928
6.274477481842041 -6.835794448852539 -2.402461290359497
6.676684379577637 -6.443760395050049 -2.4025039672851562
6.805385589599609 -6.307765483856201 -2.402517795562744
6.931323051452637 -6.169188499450684 -2.402531147003174
7.05443811416626 -6.028100967407227 -2.4025442600250244
7.291996955871582 -5.738609313964844 -2.402569532394409
7.406352519989014 -5.590329647064209 -2.4025816917419434
7.625942230224609 -5.286991596221924 -2.4026050567626953
7.731186389923096 -5.132060527801514 -2.402616262435913
7.931967735290527 -4.81597900390625 -2.4026377201080322
4.514663219451904 -7.185192584991455 -2.402276039123535
4.658754825592041 -7.092671871185303 -2.4022912979125977
4.800961971282959 -6.997264385223389 -2.402306318283081
4.941215515136719 -6.899011135101318 -2.4023211002349854
5.079438209533691 -6.797937870025635 -2.4023356437683105
5.215610027313232 -6.694100379943848 -2.4023501873016357
5.349662780761719 -6.587531089782715 -2.402364492416382
5.481537818908691 -6.478278636932373 -2.4023783206939697
5.986166954040527 -6.015328407287598 -2.4024319648742676
6.106371879577637 -5.893342971801758 -2.40244460105896
6.224086761474609 -5.768960952758789 -2.4024572372436523
6.339252948760986 -5.642220497131348 -2.4024693965911865
6.451840877532959 -5.513181209564209 -2.4024815559387207
6.66909646987915 -5.248412132263184 -2.4025044441223145
6.875512599945068 -4.975093364715576 -2.402526378631592
6.974526405334473 -4.835362911224365 -2.4025371074676514
7.070717811584473 -4.693667411804199 -2.4025473594665527
7.254399299621582 -4.40458345413208 -2.402566909790039
4.155200004577637 -6.613095760345459 -2.402238607406616
4.547778129577637 -6.3496880531311035 -2.402280330657959
4.674985408782959 -6.256662368774414 -2.4022936820983887
4.800326824188232 -6.161091327667236 -2.4023070335388184
4.9237060546875 -6.063007831573486 -2.402320146560669
5.164389610290527 -5.859462261199951 -2.402345657348633
5.281586647033691 -5.754087924957275 -2.402358293533325
5.509516716003418 -5.53635311126709 -2.4023823738098145
5.620161056518555 -5.424074172973633 -2.4023940563201904
5.728461742401123 -5.309591770172119 -2.4024057388305664
5.938100337982178 -5.074179172515869 -2.402427911758423
6.328012466430664 -4.578929901123047 -2.4024693965911865
6.593539714813232 -4.1877336502075195 -2.4024977684020996
6.676723480224609 -4.053843975067139 -2.4025065898895264
4.088618278503418 -5.9590325355529785 -2.4022324085235596
4.208041667938232 -5.875351428985596 -2.402245044708252
4.555873870849609 -5.610075950622559 -2.4022819995880127
4.668178558349609 -5.517029285430908 -2.4022939205169678
5.398608207702637 -4.804997444152832 -2.402371406555176
5.679496765136719 -4.469613075256348 -2.4024014472961426
5.768559455871582 -4.3541178703308105 -2.4024107456207275
5.855268478393555 -4.236847400665283 -2.4024200439453125
6.021489143371582 -3.9971752166748047 -2.402437925338745
6.1009521484375 -3.874871015548706 -2.4024462699890137
3.573803663253784 -5.687786102294922 -2.4021785259246826
3.6878662109375 -5.614545822143555 -2.402190685272217
3.800424814224243 -5.539015293121338 -2.402202606201172
3.911440372467041 -5.461226463317871 -2.402214288711548
4.1285400390625 -5.29901123046875 -2.4022374153137207
4.234848499298096 -5.214643478393555 -2.4022486209869385
4.339135646820068 -5.128154754638672 -2.4022598266601562
4.641518592834473 -4.856293678283691 -2.402291774749756
4.738588809967041 -4.761667251586914 -2.4023020267486572
5.107182502746582 -4.364150047302246 -2.402341365814209
5.279164791107178 -4.154554843902588 -2.4023594856262207
5.597035884857178 -3.7154147624969482 -2.402393341064453
3.9516942501068115 -4.866083145141602 -2.402219295501709
4.049106121063232 -4.785372734069824 -2.4022295475006104
4.331254959106445 -4.531680583953857 -2.402259349822998
4.421840667724609 -4.44337797164917 -2.402269124984741
4.682631969451904 -4.167750358581543 -2.402296781539917
4.765795707702637 -4.072427272796631 -2.4023056030273438
4.847016334533691 -3.9754436016082764 -2.4023144245147705
4.926264762878418 -3.876843214035034 -2.402322769165039
5.078725337982178 -3.674940824508667 -2.402338981628418
5.291801452636719 -3.3609635829925537 -2.4023616313934326
5.358569145202637 -3.253509521484375 -2.4023687839508057
3.122573137283325 -4.969654560089111 -2.4021317958831787
3.222241163253784 -4.9056525230407715 -2.4021425247192383
3.513188362121582 -4.701774597167969 -2.4021732807159424
3.6073484420776367 -4.629947662353516 -2.4021832942962646
3.700063467025757 -4.556230545043945 -2.402193069458008
3.791264533996582 -4.48065710067749 -2.402202844619751
3.880932569503784 -4.403258800506592 -2.402212381362915
4.055473327636719 -4.24311637878418 -2.402230739593506
4.223403453826904 -4.076056480407715 -2.4022486209869385
4.462319374084473 -3.8131017684936523 -2.4022741317749023
4.612582683563232 -3.629971504211426 -2.402289867401123
4.823793888092041 -3.344280242919922 -2.4023125171661377
4.954829216003418 -3.146939516067505 -2.4023265838623047
3.1183154582977295 -4.544875621795654 -2.4021317958831787
3.209418773651123 -4.481044292449951 -2.402141571044922
3.4747021198272705 -4.278707981109619 -2.402169704437256
3.644526243209839 -4.135051727294922 -2.4021878242492676
3.8880810737609863 -3.9070167541503906 -2.4022135734558105
3.966137647628784 -3.827775716781616 -2.402221918106079
4.042582988739014 -3.7469801902770996 -2.4022300243377686
4.331606388092041 -3.408860445022583 -2.4022607803344727
4.399526119232178 -3.320768356323242 -2.4022679328918457
4.529955863952637 -3.1405675411224365 -2.4022819995880127
4.592416763305664 -3.0485305786132812 -2.4022886753082275
4.653002738952637 -2.955249071121216 -2.4022951126098633
4.711703777313232 -2.860762596130371 -2.40230131149292
2.8489990234375 -4.337425231933594 -2.402103900909424
3.1062450408935547 -4.157155513763428 -2.4021310806274414
3.1894969940185547 -4.093646049499512 -2.402139902114868
3.2714695930480957 -4.028467655181885 -2.402148485183716
3.4313719272613525 -3.8932125568389893 -2.402165651321411
3.5092527866363525 -3.8231921195983887 -2.4021737575531006
3.9454150199890137 -3.371405601501465 -2.4022200107574463
4.204457759857178 -3.042334794998169 -2.402247667312622
4.265004634857178 -2.9568817615509033 -2.402254343032837
4.323813438415527 -2.870227813720703 -2.4022605419158936
4.436127662658691 -2.6934421062469482 -2.4022724628448486
2.605297803878784 -4.146407127380371 -2.40207839012146
2.6884520053863525 -4.093006610870361 -2.4020872116088867
2.851430654525757 -3.981227397918701 -2.402104377746582
3.009770393371582 -3.8629610538482666 -2.4021213054656982
3.0871238708496094 -3.801453113555908 -2.4021294116973877
3.3114891052246094 -3.607743263244629 -2.402153253555298
3.523735284805298 -3.4008092880249023 -2.4021759033203125
3.72308087348938 -3.181412935256958 -2.4021971225738525
3.7865283489227295 -3.1056456565856934 -2.4022037982940674
3.9087743759155273 -2.9503512382507324 -2.402216672897339
4.133979320526123 -2.6255996227264404 -2.402240753173828
4.186127662658691 -2.541652202606201 -2.4022462368011475
2.463383674621582 -3.920544147491455 -2.4020636081695557
2.542006731033325 -3.870051860809326 -2.4020721912384033
2.619584798812866 -3.817981481552124 -2.4020802974700928
2.696108341217041 -3.7643587589263916 -2.4020884037017822
2.7715282440185547 -3.709200382232666 -2.4020962715148926
2.990893602371216 -3.534754514694214 -2.4021196365356445
3.1993114948272705 -3.3473522663116455 -2.402141809463501
3.2662158012390137 -3.2821226119995117 -2.402148723602295
3.331791877746582 -3.2155537605285645 -2.402155876159668
3.396010637283325 -3.1476809978485107 -2.402162551879883
3.6958446502685547 -2.789630889892578 -2.4021944999694824
3.7513914108276367 -2.714492082595825 -2.40220046043396
3.805414915084839 -2.6382501125335693 -2.4022061824798584
3.9087743759155273 -2.48256778717041 -2.402217149734497
2.4812450408935547 -3.616333484649658 -2.4020659923553467
2.7647900581359863 -3.4045348167419434 -2.4020960330963135
2.8999266624450684 -3.290224552154541 -2.4021103382110596
2.9657373428344727 -3.231046676635742 -2.4021172523498535
3.030336856842041 -3.170555353164673 -2.4021241664886475
3.155815362930298 -3.0457184314727783 -2.402137517929077
3.2166357040405273 -2.9814281463623047 -2.402143955230713
3.3911571502685547 -2.7813708782196045 -2.402162551879883
3.446596622467041 -2.7123825550079346 -2.4021682739257812
3.6044187545776367 -2.4989025592803955 -2.4021852016448975
3.654106378555298 -2.425668239593506 -2.4021904468536377
3.70232892036438 -2.3514437675476074 -2.402195692062378
3.749028205871582 -2.276261568069458 -2.402200698852539
2.353813409805298 -3.430617094039917 -2.402052640914917
2.422563314437866 -3.382432222366333 -2.402060031890869
2.4903368949890137 -3.3328704833984375 -2.402067184448242
2.557084798812866 -3.281951904296875 -2.4020743370056152
2.687446117401123 -3.1761205196380615 -2.402088165283203
2.9937353134155273 -2.8893017768859863 -2.402120590209961
3.051440477371216 -2.828312873840332 -2.4021267890930176
3.216996908187866 -2.6385273933410645 -2.402144432067871
3.3707666397094727 -2.439073085784912 -2.40216064453125
3.5121922492980957 -2.230679988861084 -2.4021759033203125
3.5564892292022705 -2.159358263015747 -2.4021806716918945
