ply
format ascii 1.0
element vertex 408
property float x
property float y
property float z
end_header
12.569594383239746 6.336647987365723 2.482064723968506
11.42825698852539 6.354039192199707 2.3056323528289795
10.322284698486328 6.299201488494873 2.132237195968628
9.522514343261719 6.354014873504639 2.018552541732788
8.734760284423828 6.354004859924316 1.9045723676681519
8.373042106628418 6.354000091552734 1.8533728122711182
8.03011703491211 6.353996276855469 1.8055760860443115
7.704306602478027 6.353991508483887 1.7608838081359863
7.368666648864746 6.332129001617432 1.713123083114624
7.008471488952637 6.273671627044678 1.6585756540298462
6.729228496551514 6.273666858673096 1.62222158908844
6.461860179901123 6.273664474487305 1.5880635976791382
6.205400466918945 6.273659706115723 1.55593740940094
5.721948146820068 6.273654460906982 1.4972174167633057
5.493456840515137 6.273653507232666 1.4703692197799683
40.29098129272461 19.29883575439453 6.843879222869873
12.569550514221191 6.336626052856445 2.156433582305908
11.42825698852539 6.354039192199707 2.003150224685669
10.322245597839355 6.299178123474121 1.8525011539459229
9.001953125 6.273695945739746 1.6809154748916626
8.267207145690918 6.273687839508057 1.5898739099502563
7.300649166107178 6.273674011230469 1.474637746810913
7.008471488952637 6.273670673370361 1.4409853219985962
6.205395221710205 6.273659706115723 1.3518102169036865
5.959023475646973 6.273658275604248 1.325539231300354
5.493461608886719 6.273652076721191 1.2774688005447388
41.71770095825195 19.982210159301758 6.023551940917969
12.569506645202637 6.33660364151001 1.8330389261245728
11.842119216918945 6.273731708526611 1.7451223134994507
10.764731407165527 6.273716926574707 1.6224868297576904
9.827402114868164 6.273706912994385 1.5182723999023438
8.62435531616211 6.273690223693848 1.3887832164764404
7.92861795425415 6.273682594299316 1.3165972232818604
7.300644397735596 6.273674011230469 1.2534958124160767
6.729223251342773 6.273666858673096 1.1980407238006592
5.493461608886719 6.273652076721191 1.0858954191207886
12.444808959960938 6.27373743057251 1.496551513671875
11.283808708190918 6.27372407913208 1.38636314868927
10.764731407165527 6.273716926574707 1.3379217386245728
10.280517578125 6.273712158203125 1.2932637929916382
9.001953125 6.27369499206543 1.1782402992248535
8.624350547790527 6.273690223693848 1.1452083587646484
7.928622722625732 6.273682594299316 1.085681438446045
7.300644397735596 6.273673057556152 1.03364896774292
6.729223251342773 6.273666858673096 0.9879199266433716
5.493461608886719 6.273651123046875 0.8954430818557739
12.444804191589355 6.273738861083984 1.1797833442687988
11.842114448547363 6.273731708526611 1.134458303451538
9.827402114868164 6.273704528808594 0.9869824051856995
9.402153015136719 6.273699760437012 0.9568371176719666
9.001953125 6.27369499206543 0.9288473129272461
8.62435531616211 6.273690223693848 0.9028060436248779
7.92861795425415 6.273681640625 0.8558816313743591
6.461860179901123 6.27366304397583 0.7624130249023438
5.721948146820068 6.273653507232666 0.7187982201576233
41.89006423950195 18.018049240112305 2.827716827392578
12.444808959960938 6.27373743057251 0.8642230033874512
11.283808708190918 6.27372407913208 0.800592303276062
10.764726638793945 6.273716926574707 0.7726168632507324
10.280517578125 6.27371072769165 0.7468270659446716
9.001953125 6.27369499206543 0.6804049611091614
8.624350547790527 6.273690223693848 0.6613290309906006
7.92861795425415 6.273680210113525 0.6269540190696716
7.008471488952637 6.273670673370361 0.5832833647727966
6.729228496551514 6.273666858673096 0.5704986453056335
6.461860179901123 6.27366304397583 0.5584872364997864
5.493461608886719 6.273651123046875 0.5170965194702148
12.444808959960938 6.273736476898193 0.5495406985282898
11.28380298614502 6.273723125457764 0.5090777277946472
10.764726638793945 6.273715496063232 0.49129149317741394
10.280512809753418 6.27371072769165 0.47489044070243835
8.624350547790527 6.273688793182373 0.42052581906318665
8.267207145690918 6.273686408996582 0.4092208743095398
7.008471488952637 6.27366828918457 0.37089812755584717
6.729223251342773 6.273666858673096 0.3627685606479645
6.461855411529541 6.27366304397583 0.3551296889781952
5.959023475646973 6.273654460906982 0.3411840796470642
5.721948146820068 6.273653507232666 0.3348144590854645
39.61316680908203 17.038692474365234 0.7284142971038818
39.87128448486328 18.114803314208984 0.7397546172142029
40.008792877197266 19.163673400878906 0.7493542432785034
11.842119216918945 6.273731708526611 0.22637145221233368
11.283798217773438 6.273723125457764 0.21808379888534546
10.76473617553711 6.273715496063232 0.21046416461467743
9.827397346496582 6.273703575134277 0.19694671034812927
8.267202377319336 6.273684978485107 0.17530669271945953
7.618642330169678 6.283343315124512 0.1668139547109604
6.885224342346191 6.419103622436523 0.15900863707065582
6.653852462768555 6.460068225860596 0.1566549688577652
6.428398132324219 6.499108791351318 0.15441222488880157
5.565864086151123 6.356334209442139 0.1427159160375595
45.49119567871094 19.567049026489258 -0.27880796790122986
45.49117660522461 20.668153762817383 -0.28131455183029175
12.07552719116211 6.71391487121582 -0.07778792828321457
10.874252319335938 6.942008018493652 -0.0726342722773552
9.543061256408691 6.941990852355957 -0.06644180417060852
7.150205135345459 6.941961288452148 -0.0561077855527401
6.866425514221191 6.941957950592041 -0.05497390776872635
5.959023475646973 6.273655891418457 -0.048712920397520065
5.565839767456055 6.35630464553833 -0.04756713658571243
45.49104690551758 19.56697654724121 -1.3943939208984375
45.49102783203125 20.668075561523438 -1.4069377183914185
12.075488090515137 6.397365570068359 -0.3847862184047699
11.9114351272583 6.942019939422607 -0.388203889131546
11.375638961791992 6.942014217376709 -0.37524673342704773
9.54305648803711 6.941990852355957 -0.3322886526584625
8.417255401611328 6.941977500915527 -0.3072199821472168
8.078344345092773 6.941971302032471 -0.2999185025691986
7.755043983459473 6.941969871520996 -0.2930740416049957
6.866425514221191 6.941957950592041 -0.2749377489089966
5.959023475646973 6.273654460906982 -0.24363677203655243
5.721943378448486 6.273653507232666 -0.23909255862236023
21.845727920532227 9.92526626586914 -1.216869592666626
21.823589324951172 10.453251838684082 -1.2271757125854492
12.444799423217773 6.273736476898193 -0.7067895531654358
12.075448989868164 6.397345066070557 -0.6930253505706787
12.075444221496582 6.713868141174316 -0.7006883025169373
11.37564468383789 6.942014217376709 -0.6758455038070679
10.874258041381836 6.942008018493652 -0.6542729139328003
10.403715133666992 6.942001819610596 -0.6342896819114685
9.960878372192383 6.941997051239014 -0.6157363653182983
8.417250633239746 6.941977500915527 -0.553322434425354
8.078339576721191 6.941972732543945 -0.5401737689971924
7.755043983459473 6.94196891784668 -0.5278453230857849
7.150199890136719 6.941961288452148 -0.5054044723510742
6.866425514221191 6.941958904266357 -0.4951806664466858
5.959023475646973 6.273655891418457 -0.43881332874298096
21.56892967224121 10.331273078918457 -1.7535353899002075
12.444799423217773 6.273736476898193 -1.0218713283538818
12.075400352478027 6.713846206665039 -1.0130418539047241
10.874258041381836 6.942008018493652 -0.9459446668624878
10.40371036529541 6.942001819610596 -0.9170525670051575
9.960883140563965 6.941995620727539 -0.8902247548103333
9.147866249084473 6.941986083984375 -0.842006504535675
8.773212432861328 6.941982269287109 -0.8202932476997375
8.417245864868164 6.941977500915527 -0.7999889850616455
6.866425514221191 6.941957950592041 -0.7159281969070435
5.959018230438232 6.273654460906982 -0.6344273090362549
5.721943378448486 6.273653507232666 -0.6225877404212952
5.565761566162109 6.356216907501221 -0.6194719076156616
21.5533447265625 9.27069091796875 -2.2525222301483154
21.361146926879883 9.705078125 -2.252511739730835
12.075366020202637 6.397298336029053 -1.311933159828186
10.874252319335938 6.942006587982178 -1.2385797500610352
10.40371036529541 6.942000389099121 -1.2007476091384888
9.960883140563965 6.941995620727539 -1.165622353553772
9.147866249084473 6.941986083984375 -1.1024885177612305
7.446049690246582 6.941964149475098 -0.9773399233818054
6.866420745849609 6.941956520080566 -0.9374057054519653
5.959018230438232 6.273654460906982 -0.8306997418403625
5.565737247467041 6.356186389923096 -0.8111027479171753
17.4147891998291 7.490585803985596 -2.2518739700317383
17.25944709777832 7.841535568237305 -2.251858711242676
17.097105026245117 8.189299583435059 -2.2518489360809326
12.444799423217773 6.273735046386719 -1.65548574924469
12.075322151184082 6.397276401519775 -1.6232346296310425
11.9114351272583 6.942018985748291 -1.6376696825027466
10.874252319335938 6.942008018493652 -1.53248131275177
10.403715133666992 6.942000389099121 -1.4856728315353394
9.14786148071289 6.941986083984375 -1.3640989065170288
8.773212432861328 6.941980838775635 -1.3289191722869873
8.417245864868164 6.941976070404053 -1.2960256338119507
7.446044921875 6.941964149475098 -1.2092536687850952
7.150199890136719 6.941958904266357 -1.1837904453277588
6.866420745849609 6.941957950592041 -1.1598432064056396
5.959018230438232 6.273654460906982 -1.0278136730194092
5.565712928771973 6.356157302856445 -1.0035675764083862
14.336342811584473 6.866926193237305 -2.252304792404175
11.375638961791992 6.942012786865234 -1.8882266283035278
9.960878372192383 6.941995620727539 -1.720287799835205
9.14786148071289 6.941986083984375 -1.627112865447998
8.773212432861328 6.941980838775635 -1.5851503610610962
8.078344345092773 6.941971302032471 -1.509178638458252
5.721943378448486 6.273651123046875 -1.2031022310256958
12.46889591217041 5.665030479431152 -2.2561819553375244
12.20730972290039 6.154012203216553 -2.252115488052368
12.075239181518555 6.397231101989746 -2.251183271408081
11.948700904846191 6.6434006690979 -2.252211093902588
11.37564468383789 6.94201135635376 -2.195403575897217
10.874252319335938 6.942006587982178 -2.1253323554992676
9.960878372192383 6.941994667053223 -2.0001444816589355
9.14786148071289 6.9419846534729 -1.8918097019195557
8.773202896118164 6.941979885101318 -1.8430207967758179
8.417250633239746 6.941976070404053 -1.797404170036316
7.446049690246582 6.941964149475098 -1.6770620346069336
7.150199890136719 6.941960334777832 -1.6417498588562012
6.866425514221191 6.941956520080566 -1.6085368394851685
5.959023475646973 6.273654460906982 -1.4254302978515625
5.721943378448486 6.273651123046875 -1.398821234703064
5.565659046173096 6.356098651885986 -1.3917920589447021
10.92142105102539 4.961958885192871 -2.2547340393066406
10.820536613464355 5.182906150817871 -2.2551143169403076
10.715185165405273 5.401796817779541 -2.255490303039551
10.605395317077637 5.618537425994873 -2.25586199760437
10.351758003234863 6.033035755157471 -2.2520534992218018
10.227675437927246 6.241470813751221 -2.252094030380249
9.967001914978027 6.6506028175354 -2.2521731853485107
9.54305648803711 6.941989421844482 -2.218106746673584
9.14786148071289 6.9419846534729 -2.1584792137145996
8.773207664489746 6.941979885101318 -2.102813720703125
8.417250633239746 6.941975116729736 -2.050764799118042
8.078339576721191 6.941971302032471 -2.00203013420105
7.446044921875 6.941962718963623 -1.9134610891342163
7.150199890136719 6.941958904266357 -1.8731701374053955
5.959018230438232 6.273654460906982 -1.626363754272461
5.721948146820068 6.273652076721191 -1.595996618270874
5.565629959106445 6.356066703796387 -1.5879719257354736
9.79232406616211 4.21195125579834 -2.253255844116211
9.706522941589355 4.409991264343262 -2.2535972595214844
9.61669921875 4.606277942657471 -2.2539350986480713
9.522890090942383 4.800726413726807 -2.2542691230773926
9.425141334533691 4.993255615234375 -2.254599094390869
9.323447227478027 5.183785438537598 -2.25492525100708
9.217914581298828 5.37223482131958 -2.255246877670288
8.995400428771973 5.742571830749512 -2.2558774948120117
8.740674018859863 6.09160041809082 -2.2520334720611572
8.615683555603027 6.267387390136719 -2.2520673274993896
8.355175971984863 6.611203670501709 -2.2521328926086426
8.07498550415039 6.939220905303955 -2.2505836486816406
7.755043983459473 6.941966533660889 -2.2000949382781982
7.446044921875 6.941962718963623 -2.1518683433532715
6.866420745849609 6.94195556640625 -2.0639445781707764
5.721943378448486 6.2736496925354 -1.7948534488677979
5.565605163574219 6.356033802032471 -1.7858169078826904
8.803778648376465 3.786749839782715 -2.252373695373535
8.7264986038208 3.9647369384765625 -2.2526803016662598
8.645620346069336 4.141139507293701 -2.252983808517456
8.561141967773438 4.315887451171875 -2.253283977508545
8.188183784484863 4.996866226196289 -2.2544479370117188
8.086357116699219 5.162248611450195 -2.2547292709350586
7.981171607971191 5.325539588928223 -2.2550063133239746
7.87267541885376 5.486688137054443 -2.255279302597046
7.632861137390137 5.792304515838623 -2.2519497871398926
7.514130592346191 5.945712566375732 -2.251978874206543
7.267475605010986 6.24517297744751 -2.252035617828369
7.008876800537109 6.534393310546875 -2.2520902156829834
6.875253677368164 6.675020694732666 -2.2521164417266846
5.721943378448486 6.273651123046875 -1.9956121444702148
5.565576076507568 6.35600471496582 -1.9855540990829468
7.84499979019165 3.757655620574951 -2.252199649810791
7.605175495147705 4.228428363800049 -2.2530064582824707
7.518891334533691 4.382030963897705 -2.2532689571380615
7.429491996765137 4.533865451812744 -2.2535276412963867
7.142978191375732 4.97813081741333 -2.254281520843506
7.041493892669678 5.122262954711914 -2.2545249462127686
6.937099456787109 5.264319896697998 -2.2547643184661865
6.829814434051514 5.404239177703857 -2.2549996376037598
6.719701766967773 5.541959285736084 -2.255230665206909
6.480356216430664 5.800928592681885 -2.2519285678863525
6.361670017242432 5.930994510650635 -2.251952886581421
6.116498947143555 6.183779239654541 -2.252000093460083
5.959023475646973 6.273653507232666 -2.240328311920166
5.721943378448486 6.273651123046875 -2.198502779006958
7.304531097412109 3.1418817043304443 -2.251035213470459
7.240248680114746 3.2894816398620605 -2.2512896060943604
7.029550552368164 3.7241246700286865 -2.2520360946655273
6.792709827423096 4.145268440246582 -2.2527551651000977
6.708095550537109 4.282374382019043 -2.252988338470459
6.530576229095459 4.551322937011719 -2.253444194793701
6.437792778015137 4.683060169219971 -2.253666877746582
6.342221736907959 4.812890529632568 -2.253885507583618
6.143359184265137 5.066634178161621 -2.2543115615844727
5.826074123382568 5.431652545928955 -2.254920721054077
5.715415000915527 5.548962116241455 -2.255115270614624
6.574985027313232 6.922160625457764 -2.702685594558716
5.240419864654541 5.98468017578125 -2.251941442489624
6.662270545959473 3.026888370513916 -2.250748872756958
6.535610198974609 3.294767379760742 -2.251209259033203
6.468227386474609 3.4267449378967285 -2.2514355182647705
6.398169040679932 3.5573387145996094 -2.2516589164733887
6.250141620635986 3.814162492752075 -2.2520968914031982
6.0087890625 4.187679767608643 -2.2527308464050293
5.835405349731445 4.428276062011719 -2.25313663482666
5.745063304901123 4.5458984375 -2.2533345222473145
5.652309417724609 4.661670207977295 -2.253528594970703
5.557299613952637 4.775547981262207 -2.2537190914154053
5.459917068481445 4.887479305267334 -2.253906011581421
5.154408931732178 5.211116790771484 -2.2544426918029785
6.218715667724609 2.674839496612549 -2.2502424716949463
6.163393497467041 2.8002312183380127 -2.250282049179077
6.106025218963623 2.9247076511383057 -2.2504963874816895
6.046127796173096 3.0480034351348877 -2.2507078647613525
5.918886661529541 3.290863037109375 -2.2511239051818848
5.70974588394165 3.645042657852173 -2.251727342605591
5.63528299331665 3.7602062225341797 -2.251922607421875
5.479379653930664 3.985913038253784 -2.2523043155670166
5.398012638092041 4.096357345581055 -2.252490520477295
5.314414024353027 4.205136775970459 -2.252673387527466
5.228613376617432 4.312201499938965 -2.2528529167175293
5.050546646118164 4.521024703979492 -2.253201723098755
4.8641357421875 4.722461223602295 -2.2535362243652344
4.767870903015137 4.8203125 -2.2536981105804443
4.5694580078125 5.010051250457764 -2.2540104389190674
6.023525238037109 2.5908868312835693 -2.344865560531616
5.674887657165527 2.718198776245117 -2.250169038772583
5.618949890136719 2.8326525688171387 -2.2502706050872803
5.500624656677246 3.05830979347229 -2.250656843185425
5.306161880493164 3.387396812438965 -2.2512173652648926
5.236923694610596 3.494398832321167 -2.251399040222168
5.165522575378418 3.5999865531921387 -2.251577854156494
5.016342639923096 3.8067212104797363 -2.2519264221191406
4.777094841003418 4.105101108551025 -2.252427101135254
4.693349361419678 4.201268196105957 -2.25258731842041
4.520053386688232 4.3884100914001465 -2.2528982162475586
4.3392333984375 4.568384170532227 -2.2531955242156982
5.419726371765137 2.5959935188293457 -2.3029119968414307
5.243085861206055 2.643156051635742 -2.250110626220703
5.187963962554932 2.7487425804138184 -2.250103235244751
5.073652267456055 2.956939697265625 -2.250422239303589
5.013144493103027 3.059281587600708 -2.250596523284912
4.885937213897705 3.260197639465332 -2.2509377002716064
4.819292068481445 3.358687162399292 -2.2511043548583984
4.680063247680664 3.551528215408325 -2.251429796218872
4.607529163360596 3.6458001136779785 -2.2515883445739746
4.456782341003418 3.8298492431640625 -2.251896381378174
4.2169189453125 4.094105243682861 -2.252336025238037
4.048232555389404 4.261974811553955 -2.252613067626953
3.8728466033935547 4.422869682312012 -2.2528772354125977
5.392534255981445 2.319476842880249 -2.4025304317474365
5.344452857971191 2.42816162109375 -2.402523994445801
4.749838829040527 2.7682178020477295 -2.25004506111145
4.634560585021973 2.9586498737335205 -2.2503693103790283
4.51162576675415 3.144265651702881 -2.2506837844848633
4.447353363037109 3.2351739406585693 -2.2508373260498047
4.381240367889404 3.32476544380188 -2.250988245010376
4.313315391540527 3.4130003452301025 -2.251136541366577
4.172158241271973 3.585268497467041 -2.25142502784729
4.098979473114014 3.669222831726074 -2.2515652179718018
4.024111270904541 3.7516796588897705 -2.251702308654785
3.869394540786743 3.911959648132324 -2.251967668533325
5.064018249511719 2.178178071975708 -2.4024858474731445
5.018886566162109 2.2802422046661377 -2.402479887008667
4.922436237335205 2.481522798538208 -2.4024672508239746
4.862231254577637 2.5759167671203613 -2.3980472087860107
4.473788738250732 2.6073334217071533 -2.2567105293273926
4.351615905761719 2.778022289276123 -2.250011920928955
4.294770240783691 2.865734815597534 -2.2501606941223145
4.17578125 3.0376269817352295 -2.2504513263702393
3.7783007621765137 3.522510290145874 -2.25126314163208
3.706415891647339 3.598475933074951 -2.251389265060425
3.633007764816284 3.6729753017425537 -2.251512289047241
3.4817235469818115 3.817427396774292 -2.2517502307891846
4.767822265625 2.050771951675415 -2.4024457931518555
4.725287914276123 2.1468639373779297 -2.402440071105957
4.680903434753418 2.2420783042907715 -2.4024341106414795
4.536113262176514 2.5220489501953125 -2.4024150371551514
4.425214767456055 2.5790257453918457 -2.3708510398864746
4.245732307434082 2.590930223464966 -2.3022944927215576
4.043237209320068 2.6979010105133057 -2.249948501586914
3.9878318309783936 2.779224157333374 -2.249967575073242
3.8725292682647705 2.938720703125 -2.2502365112304688
3.8124608993530273 3.016688108444214 -2.2503676414489746
3.7508251667022705 3.093426465988159 -2.2504963874816895
3.687636613845825 3.1689043045043945 -2.2506227493286133
3.5567235946655273 3.31594181060791 -2.2508676052093506
3.4890527725219727 3.3874406814575195 -2.250986099243164
3.4199414253234863 3.4575586318969727 -2.2511022090911865
3.204238176345825 3.659306526184082 -2.2514336109161377
4.459003925323486 2.025869131088257 -2.4024040699005127
4.417231559753418 2.115717649459839 -2.4023985862731934
4.231401443481445 2.4660699367523193 -2.4023735523223877
4.042553424835205 2.5807206630706787 -2.3525874614715576
3.762939453125 2.622560977935791 -2.249910593032837
3.709174633026123 2.698193311691284 -2.249903440475464
3.653803586959839 2.772740364074707 -2.2499136924743652
3.597119092941284 2.846295118331909 -2.25003719329834
3.5389599800109863 2.9186906814575195 -2.2501585483551025
3.41827130317688 3.0598771572113037 -2.250394344329834
3.355790853500366 3.1286070346832275 -2.2505087852478027
3.291933536529541 3.196057081222534 -2.2506206035614014
3.2267138957977295 3.26220440864563 -2.250730037689209
3.16015625 3.327014684677124 -2.2508368492126465
3.0231738090515137 3.4525256156921387 -2.251042604446411
4.216073989868164 1.9155017137527466 -2.4023709297180176
4.176430702209473 2.000455379486084 -2.4023659229278564
4.135058403015137 2.084588050842285 -2.402360200881958
4.047289848327637 2.2502551078796387 -2.402348518371582
4.000878810882568 2.3317205905914307 -2.4023423194885254
3.903188467025757 2.4917516708374023 -2.402329444885254
3.851923704147339 2.5702476501464844 -2.40232253074646
3.4547460079193115 2.621668577194214 -2.249868869781494
3.40093731880188 2.691058874130249 -2.249861717224121
3.3457422256469727 2.7593414783477783 -2.2498505115509033
3.172548770904541 2.957772731781006 -2.2501814365386963
3.1121678352355957 3.021531343460083 -2.2502870559692383
3.0504980087280273 3.0840580463409424 -2.2503905296325684
2.9875781536102295 3.14532208442688 -2.2504913806915283
2.9234275817871094 3.20529842376709 -2.2505900859832764
2.8580615520477295 3.2639622688293457 -2.250685930252075
4.029301643371582 1.7331115007400513 -2.4023454189300537
3.875859260559082 2.053356885910034 -2.40232515335083
3.8334813117980957 2.1313939094543457 -2.4023196697235107
3.7895896434783936 2.2085564136505127 -2.402313709259033
3.74407696723938 2.2848150730133057 -2.4023075103759766
3.6484668254852295 2.43448543548584 -2.402294874191284
3.5341503620147705 2.5708775520324707 -2.393634796142578
3.272773265838623 2.589689254760742 -2.2858264446258545
3.1689305305480957 2.613598585128784 -2.2498302459716797
3.1154589653015137 2.677208185195923 -2.2498230934143066
3.0605711936950684 2.73972225189209 -2.2498157024383545
2.829409122467041 2.978799343109131 -2.2501752376556396
3.822338819503784 1.6440972089767456 -2.402317523956299
3.7154784202575684 1.873065710067749 -2.4023032188415527
3.6767919063568115 1.947894811630249 -2.4022982120513916
3.4136133193969727 2.379037380218506 -2.4022629261016846
3.01104474067688 2.587385892868042 -2.292034149169922
2.9083104133605957 2.6033873558044434 -2.2535808086395264
2.567397356033325 2.9320225715637207 -2.250058650970459
