ply
format ascii 1.0
element vertex 838
property float x
property float y
property float z
end_header
1.2243969440460205 11.884943962097168 -2.245727777481079
0.26466184854507446 11.934889793395996 -2.2438442707061768
-0.21564941108226776 11.930869102478027 -2.2429018020629883
-0.6951452493667603 11.907533645629883 -2.2419612407684326
-0.9344189167022705 11.888649940490723 -2.2414915561676025
-1.173193335533142 11.86495304107666 -2.241023302078247
-1.8856639862060547 11.765229225158691 -2.2396252155303955
-2.3564953804016113 11.67501449584961 -2.238701343536377
-2.590409994125366 11.622851371765137 -2.2382423877716064
-2.8231749534606934 11.566018104553223 -2.237785816192627
-3.0546765327453613 11.504545211791992 -2.2373313903808594
-3.284891366958618 11.43844985961914 -2.236879825592041
-3.5136265754699707 11.367755889892578 -2.236431121826172
-3.9665794372558594 11.212743759155273 -2.2355422973632812
-4.412753105163574 11.039748191833496 -2.2346668243408203
-4.633073806762695 10.946616172790527 -2.2342348098754883
-4.8514628410339355 10.84908676147461 -2.2338063716888428
-5.067795276641846 10.747243881225586 -2.233381748199463
-5.494028091430664 10.530707359313965 -2.2325456142425537
-5.703745365142822 10.41611099243164 -2.2321341037750244
-5.911094665527344 10.297368049621582 -2.231727361679077
-6.11597204208374 10.174527168273926 -2.231325387954712
-6.51806116104126 9.916719436645508 -2.230538845062256
-6.715129375457764 9.781880378723145 -2.230154037475586
-6.909409046173096 9.643156051635742 -2.2297749519348145
-7.289347171783447 9.354254722595215 -2.2290334701538086
-7.474853992462158 9.20419692993164 -2.228670120239258
-7.657309532165527 9.050488471984863 -2.2283132076263428
-7.836613655090332 8.89318561553955 -2.227962017059326
-5.171557426452637 5.41322660446167 -1.4071747064590454
-9.984580993652344 3.533939838409424 -2.238842487335205
-11.036181449890137 2.4615423679351807 -2.390155792236328
-11.083280563354492 2.23895263671875 -2.3901078701019287
-11.12588119506836 2.015460729598999 -2.3900644779205322
-11.164003372192383 1.7911736965179443 -2.3900256156921387
-11.251303672790527 1.1143585443496704 -2.3899364471435547
-11.271350860595703 0.8877465724945068 -2.389915943145752
-11.286858558654785 0.6607781648635864 -2.389899969100952
-11.306066513061523 -0.02134399302303791 -2.3898799419403076
-11.29610538482666 -0.47619718313217163 -2.3898894786834717
-11.247027397155762 -1.1568251848220825 -2.3899383544921875
-11.221596717834473 -1.382904052734375 -2.3899638652801514
-11.191645622253418 -1.6084225177764893 -2.389993906021118
-11.118212699890137 -2.0574495792388916 -2.3900678157806396
-11.074756622314453 -2.2807772159576416 -2.3901116847991943
-11.026865005493164 -2.5031943321228027 -2.390159845352173
-10.974509239196777 -2.7246084213256836 -2.3902125358581543
-10.85654354095459 -3.164091110229492 -2.390331745147705
-10.7210693359375 -3.598515272140503 -2.3904683589935303
-10.398459434509277 -4.4494309425354 -2.390794277191162
-10.307249069213867 -4.657933712005615 -2.390886068344116
-10.112313270568848 -5.0692644119262695 -2.391083240509033
-10.008726119995117 -5.27193021774292 -2.391187906265259
-9.67380428314209 -5.866974353790283 -2.391526222229004
-9.55427360534668 -6.060730457305908 -2.3916471004486084
-9.430898666381836 -6.252060413360596 -2.3917720317840576
-9.303691864013672 -6.4409003257751465 -2.3919005393981934
-8.899707794189453 -6.991625785827637 -2.3923089504241943
-8.612250328063965 -7.344912528991699 -2.3925998210906982
-8.46324634552002 -7.517183780670166 -2.3927502632141113
-7.995922565460205 -8.015646934509277 -2.3932230472564697
-7.833566188812256 -8.175464630126953 -2.3933873176574707
-7.668039321899414 -8.332013130187988 -2.3935546875
-7.499422550201416 -8.485214233398438 -2.3937251567840576
-7.327668190002441 -8.63500690460205 -2.3938989639282227
-7.152961730957031 -8.781341552734375 -2.394075632095337
-6.237242698669434 -9.459024429321289 -2.3950021266937256
-6.046133995056152 -9.583379745483398 -2.395195722579956
-5.656616687774658 -9.820484161376953 -2.395589828491211
-5.055129051208496 -10.14643383026123 -2.3961985111236572
-4.6436357498168945 -10.34339427947998 -2.3966150283813477
-4.434969902038574 -10.435656547546387 -2.3968260288238525
-4.01224946975708 -10.607525825500488 -2.39725399017334
-3.582880735397339 -10.762303352355957 -2.397688627243042
-3.3659324645996094 -10.833213806152344 -2.3979082107543945
-2.9279088973999023 -10.961881637573242 -2.3983514308929443
-2.484973192214966 -11.072877883911133 -2.3987998962402344
-2.037856340408325 -11.165990829467773 -2.3992526531219482
-1.8129515647888184 -11.205793380737305 -2.3994803428649902
-1.1339526176452637 -11.297990798950195 -2.40016770362854
-0.9064928889274597 -11.319607734680176 -2.400398015975952
-0.678619384765625 -11.33664321899414 -2.4006288051605225
0.006535644177347422 -11.360220909118652 -2.401322364807129
0.23512694239616394 -11.358884811401367 -2.4015538692474365
0.46366453170776367 -11.352941513061523 -2.401785373687744
1.3754675388336182 -11.283251762390137 -2.4027087688446045
1.8286535739898682 -11.220917701721191 -2.403167724609375
2.279047727584839 -11.140376091003418 -2.4036238193511963
2.7259275913238525 -11.041744232177734 -2.404076337814331
2.947809934616089 -10.985692977905273 -2.404301166534424
3.1685423851013184 -10.925172805786133 -2.404524564743042
3.388028383255005 -10.860213279724121 -2.4047470092773438
3.8229174613952637 -10.717076301574707 -2.4051873683929443
4.673856258392334 -10.378741264343262 -2.4060494899749756
4.882161617279053 -10.283488273620605 -2.4062604904174805
5.292858600616455 -10.080492973327637 -2.4066765308380127
5.495076656341553 -9.972810745239258 -2.406881332397461
5.892844200134277 -9.745283126831055 -2.4072837829589844
6.088231086730957 -9.625542640686035 -2.4074814319610596
6.281174182891846 -9.501863479614258 -2.4076759815216064
7.206550121307373 -8.826369285583496 -2.408609628677368
7.895139217376709 -8.220773696899414 -2.4093072414398193
8.059504508972168 -8.060813903808594 -2.4094736576080322
8.220617294311523 -7.897547245025635 -2.409636974334717
8.532812118530273 -7.5614166259765625 -2.4099533557891846
8.683769226074219 -7.388674259185791 -2.4101061820983887
9.115365982055664 -6.852580547332764 -2.41054368019104
9.384740829467773 -6.48104190826416 -2.4108166694641113
9.513754844665527 -6.291250705718994 -2.410947322845459
9.638917922973633 -6.098876953125 -2.411074161529541
9.760172843933105 -5.904005527496338 -2.4111971855163574
9.877470016479492 -5.706709384918213 -2.41131591796875
10.30617904663086 -4.894969940185547 -2.4117507934570312
10.402997970581055 -4.686802864074707 -2.411849021911621
10.495600700378418 -4.476717948913574 -2.411942958831787
10.667987823486328 -4.0511345863342285 -2.4121179580688477
10.747693061828613 -3.835796356201172 -2.412198781967163
10.893994331359863 -3.4004967212677 -2.4123473167419434
10.9605073928833 -3.180717706680298 -2.412414789199829
11.133244514465332 -2.5138750076293945 -2.412590265274048
11.181791305541992 -2.2894058227539062 -2.412639617919922
11.22580337524414 -2.0640008449554443 -2.412684440612793
11.356035232543945 -1.1548327207565308 -2.4128172397613525
11.393488883972168 -0.6970245242118835 -2.412855625152588
11.412389755249023 -0.2380877584218979 -2.412875175476074
11.414884567260742 -0.00841552671045065 -2.4128777980804443
11.4059419631958 0.45084166526794434 -2.412869453430176
11.394506454467773 0.6802288889884949 -2.412858009338379
11.378439903259277 0.9093475341796875 -2.412842035293579
11.33242130279541 1.3663678169250488 -2.4127960205078125
11.302496910095215 1.5940868854522705 -2.4127659797668457
11.26797103881836 1.8211498260498047 -2.412731170654297
11.228869438171387 2.0474650859832764 -2.412691831588745
11.185190200805664 2.2729272842407227 -2.4126477241516113
10.96523666381836 3.16457200050354 -2.412425994873047
10.89904499053955 3.3844499588012695 -2.4123594760894775
10.828417778015137 3.602949857711792 -2.412288188934326
10.753397941589355 3.819971799850464 -2.412212371826172
10.674013137817383 4.035428524017334 -2.4121322631835938
10.590283393859863 4.249224662780762 -2.4120471477508545
10.50223159790039 4.461268424987793 -2.411956787109375
10.409968376159668 4.671493053436279 -2.411863327026367
10.313444137573242 4.879800319671631 -2.4117655754089355
10.212746620178223 5.0861101150512695 -2.4116640090942383
9.768922805786133 5.8896403312683105 -2.4112117290496826
9.394340515136719 6.467240333557129 -2.410831928253174
9.125519752502441 6.839179992675781 -2.410560131072998
8.544015884399414 7.548889636993408 -2.4099719524383545
7.857394695281982 7.228890895843506 -2.2568764686584473
7.559191703796387 7.538151264190674 -2.256574869155884
7.405480861663818 7.6881937980651855 -2.2564194202423096
7.248788833618164 7.835087299346924 -2.256260871887207
5.212220191955566 6.364592552185059 -1.7389156818389893
6.249590873718262 8.647200584411621 -2.2552499771118164
6.073863506317139 8.77050495147705 -2.2550721168518066
5.895702838897705 8.890216827392578 -2.254891872406006
5.531511306762695 9.117356300354004 -2.2541840076446533
5.346081256866455 9.225313186645508 -2.2538199424743652
5.158535003662109 9.329486846923828 -2.2534515857696533
4.191878795623779 9.792170524597168 -2.2515523433685303
3.7932043075561523 9.949431419372559 -2.250770092010498
3.591628313064575 10.02196979522705 -2.2503743171691895
2.9788951873779297 10.214929580688477 -2.2491719722747803
2.772252082824707 10.270949363708496 -2.2487664222717285
2.146411180496216 10.413793563842773 -2.2475383281707764
1.513421654701233 10.518495559692383 -2.246295928955078
1.3012218475341797 10.544867515563965 -2.245879650115967
1.0886046886444092 10.56695556640625 -2.245462417602539
0.6623388528823853 10.598244667053223 -2.244626045227051
0.2353198230266571 10.612343788146973 -2.243788003921509
0.021749267354607582 10.612946510314941 -2.2433688640594482
-0.19175292551517487 10.609254837036133 -2.242949962615967
-0.40510374307632446 10.601271629333496 -2.2425312995910645
-0.6181982159614563 10.588998794555664 -2.2421131134033203
-0.8309801816940308 10.57244873046875 -2.2416956424713135
-1.0433300733566284 10.551626205444336 -2.241278886795044
-1.255190372467041 10.526545524597168 -2.24086332321167
-1.4664623737335205 10.49721908569336 -2.2404487133026123
-1.6770604848861694 10.463654518127441 -2.2400355339050293
-1.886910319328308 10.425878524780273 -2.239623785018921
-2.0959081649780273 10.383903503417969 -2.239213705062866
-2.5110692977905273 10.287426948547363 -2.2383992671966553
-3.327669620513916 10.0450439453125 -2.2367968559265137
-3.528463125228882 9.9743013381958 -2.236402988433838
-3.9255383014678955 9.82084846496582 -2.235626220703125
-4.508578777313232 9.561267852783203 -2.2344861030578613
-4.699224948883057 9.467036247253418 -2.2341132164001465
-4.887948989868164 9.369024276733398 -2.233743906021118
-5.074640274047852 9.26725959777832 -2.2333781719207764
-5.259220600128174 9.161789894104004 -2.2330167293548584
-6.318483829498291 8.45384693145752 -2.2309422492980957
-6.4863433837890625 8.323769569396973 -2.2306134700775146
-6.814015865325928 8.05375862121582 -2.2299721240997314
-9.179787635803223 3.249066114425659 -2.288599729537964
-9.721261024475098 3.006464719772339 -2.3914878368377686
-9.779534339904785 2.8101892471313477 -2.3914284706115723
-9.833883285522461 2.612797737121582 -2.3913731575012207
-9.884241104125977 2.414358377456665 -2.391322135925293
-9.973002433776855 2.0146636962890625 -2.3912317752838135
-10.011350631713867 1.8135632276535034 -2.391192674636841
-10.04566764831543 1.6117424964904785 -2.391157865524292
-10.075934410095215 1.4092755317687988 -2.391126871109009
-10.124267578125 1.002736210823059 -2.3910775184631348
-10.173566818237305 -0.019206542521715164 -2.391026496887207
-10.171126365661621 -0.22389404475688934 -2.391028881072998
-10.164605140686035 -0.428496390581131 -2.391035318374634
-10.153960227966309 -0.6329293847084045 -2.3910458087921143
-10.139235496520996 -0.8371008038520813 -2.3910603523254395
-10.12041187286377 -1.040945053100586 -2.3910794258117676
-10.09752082824707 -1.2443749904632568 -2.3911023139953613
-10.004448890686035 -1.8513448238372803 -2.391195774078369
-9.965344429016113 -2.052300453186035 -2.391235113143921
-9.922203063964844 -2.252429246902466 -2.3912787437438965
-9.768878936767578 -2.8470993041992188 -2.3914332389831543
-9.709866523742676 -3.043144464492798 -2.3914928436279297
-9.646924018859863 -3.237980842590332 -2.3915562629699707
-9.434858322143555 -3.814406156539917 -2.391770362854004
-9.356518745422363 -4.003591060638428 -2.3918495178222656
-9.274385452270508 -4.191182613372803 -2.391932725906372
-9.188511848449707 -4.377095699310303 -2.392019271850586
-9.098928451538086 -4.561254978179932 -2.3921098709106445
-8.908761024475098 -4.924034595489502 -2.3923020362854004
-8.808266639709473 -5.102499961853027 -2.3924036026000977
-8.37105941772461 -5.795238971710205 -2.392845630645752
-8.253170013427734 -5.96279239654541 -2.3929648399353027
-8.131945610046387 -6.1279425621032715 -2.393087148666382
-7.879663467407227 -6.450836181640625 -2.3933424949645996
-7.748704433441162 -6.608443260192871 -2.393474817276001
-7.614604473114014 -6.7633957862854 -2.3936104774475098
-7.477402210235596 -6.915628910064697 -2.393749237060547
-7.337195873260498 -7.065097332000732 -2.3938910961151123
-7.047863483428955 -7.355471134185791 -2.39418363571167
-6.89902400970459 -7.4962944984436035 -2.394334316253662
-6.113108158111572 -8.153960227966309 -2.395129442214966
-5.780919075012207 -8.394482612609863 -2.39546537399292
-5.611263751983643 -8.509709358215332 -2.395637035369873
-5.439298152923584 -8.621515274047852 -2.395811080932617
-5.088786602020264 -8.834681510925293 -2.3961658477783203
-4.910367965698242 -8.935951232910156 -2.3963463306427
-4.5475592613220215 -9.127673149108887 -2.3967134952545166
-4.363337993621826 -9.218043327331543 -2.396899938583374
-4.177308082580566 -9.304688453674316 -2.3970882892608643
-3.9895763397216797 -9.387600898742676 -2.397278308868408
-3.8001811504364014 -9.466726303100586 -2.397469997406006
-3.41679310798645 -9.613506317138672 -2.397857904434204
-2.8313074111938477 -9.804547309875488 -2.3984506130218506
-2.633690118789673 -9.860355377197266 -2.398650646209717
-2.434964656829834 -9.91218376159668 -2.3988518714904785
-2.2352232933044434 -9.960006713867188 -2.3990540504455566
-2.034543514251709 -10.00381088256836 -2.399257183074951
-1.0199267864227295 -10.161914825439453 -2.4002842903137207
-0.4051269292831421 -10.207589149475098 -2.400907039642334
0.005875243805348873 -10.217394828796387 -2.401323080062866
0.21147094666957855 -10.216086387634277 -2.401531219482422
0.41701292991638184 -10.210650444030762 -2.4017393589019775
0.622424304485321 -10.201077461242676 -2.401947259902954
1.0325145721435547 -10.169537544250488 -2.402362585067749
1.2370251417160034 -10.147579193115234 -2.4025697708129883
1.6445653438568115 -10.091325759887695 -2.402982473373413
2.6509313583374023 -9.879307746887207 -2.4040017127990723
2.8494091033935547 -9.82479190826416 -2.404202699661255
3.0467588901519775 -9.766288757324219 -2.404402494430542
3.2429089546203613 -9.703813552856445 -2.4046013355255127
3.437779426574707 -9.637388229370117 -2.404798746109009
3.6312828063964844 -9.567045211791992 -2.404994487762451
4.390117168426514 -9.247075080871582 -2.4057633876800537
4.575640678405762 -9.157600402832031 -2.4059512615203857
4.941127777099609 -8.96746826171875 -2.4063217639923096
5.1209397315979 -8.866891860961914 -2.406503915786743
5.298707008361816 -8.762761116027832 -2.406683921813965
5.474350452423096 -8.654983520507812 -2.4068617820739746
5.647791385650635 -8.54371166229248 -2.4070374965667725
5.818970680236816 -8.428977012634277 -2.4072105884552
6.318192005157471 -8.064239501953125 -2.40771484375
6.479606628417969 -7.936031341552734 -2.4078776836395264
6.794540882110596 -7.669833660125732 -2.4081947803497314
6.94793176651001 -7.532148361206055 -2.4083492755889893
7.098525047302246 -7.391303539276123 -2.4085018634796143
7.246254920959473 -7.247428894042969 -2.40865159034729
7.391057014465332 -7.100593090057373 -2.4087982177734375
7.532876014709473 -6.950860977172852 -2.4089419841766357
7.939843654632568 -6.484870910644531 -2.4093544483184814
8.069154739379883 -6.324146747589111 -2.409485340118408
8.195199966430664 -6.160838603973389 -2.4096128940582275
8.88009262084961 -5.130467891693115 -2.4103071689605713
9.174562454223633 -4.585972309112549 -2.4106059074401855
9.265336990356445 -4.400619029998779 -2.4106979370117188
9.352343559265137 -4.213459491729736 -2.4107861518859863
9.435548782348633 -4.024571418762207 -2.4108705520629883
9.514938354492188 -3.8340513706207275 -2.4109511375427246
9.662087440490723 -3.448350667953491 -2.411100387573242
9.853312492370605 -2.8594114780426025 -2.411294460296631
10.008520126342773 -2.2599141597747803 -2.411452293395996
10.05215072631836 -2.0581188201904297 -2.411496639251709
10.091696739196777 -1.8554803133010864 -2.411536693572998
10.12713623046875 -1.6520800590515137 -2.4115729331970215
10.185653686523438 -1.2433397769927979 -2.411632537841797
10.242358207702637 -0.6266027688980103 -2.4116907119750977
10.252936363220215 -0.42040830850601196 -2.4117016792297363
10.259343147277832 -0.21403075754642487 -2.411708354949951
10.243278503417969 0.6115020513534546 -2.4116928577423096
10.228837966918945 0.8174719214439392 -2.4116783142089844
10.21023941040039 1.023107886314392 -2.4116597175598145
10.129587173461914 1.6371630430221558 -2.411578893661499
10.094443321228027 1.8406157493591309 -2.411543607711792
9.9644775390625 2.4461052417755127 -2.4114127159118652
9.857561111450195 2.8448967933654785 -2.4113047122955322
9.595870971679688 3.6278257369995117 -2.411040782928467
9.441534996032715 4.010682106018066 -2.4108848571777344
9.358600616455078 4.199690341949463 -2.4108011722564697
9.18136978149414 4.572469234466553 -2.4106197357177734
9.087148666381836 4.756086826324463 -2.410524368286133
8.989248275756836 4.93776273727417 -2.4104254245758057
8.88769245147705 5.117410182952881 -2.4103217124938965
8.673828125 5.470339775085449 -2.4101033210754395
8.561596870422363 5.6434855461120605 -2.4099888801574707
8.326796531677246 5.9827799797058105 -2.4097506999969482
7.565812587738037 5.9116644859313965 -2.2565805912017822
7.064438343048096 6.499357223510742 -2.256072998046875
6.796425819396973 6.777494430541992 -2.2558016777038574
6.517423152923584 7.0445685386657715 -2.255519390106201
6.373956203460693 7.173800468444824 -2.2553741931915283
6.227910041809082 7.3001275062561035 -2.2552266120910645
5.775454044342041 7.661604404449463 -2.2549479007720947
5.61866569519043 7.774233818054199 -2.254361629486084
5.299876689910889 7.991763114929199 -2.253735065460205
5.137277603149414 8.095633506774902 -2.253415584564209
4.972634315490723 8.196181297302246 -2.2530922889709473
4.467148303985596 8.477507591247559 -2.2520992755889893
3.945782423019409 8.727594375610352 -2.251075506210327
2.292534112930298 5.355315208435059 -1.3690978288650513
3.4104795455932617 8.945560455322266 -2.2500243186950684
3.229299306869507 9.010944366455078 -2.249668598175049
3.046854257583618 9.07264232635498 -2.2493104934692383
2.863238573074341 9.13065242767334 -2.2489497661590576
2.6785216331481934 9.184926986694336 -2.2485873699188232
2.306070566177368 9.28223705291748 -2.2478561401367188
0.6804479956626892 5.514167785644531 -1.3057855367660522
0.5956884622573853 9.53153133392334 -2.244499921798706
0.4037158191204071 9.539983749389648 -2.2441232204437256
0.019562987610697746 9.54529857635498 -2.2433695793151855
-0.364349365234375 9.535150527954102 -2.2426164150238037
-0.556042492389679 9.524295806884766 -2.2422406673431396
-0.9384570121765137 9.491036415100098 -2.2414908409118652
-1.1290453672409058 9.468657493591309 -2.241117000579834
-1.6973693370819092 9.378625869750977 -2.2400026321411133
-2.072657346725464 9.29969310760498 -2.239266872406006
-2.628613233566284 9.153253555297852 -2.2381768226623535
-2.165609121322632 5.417898654937744 -1.3712811470031738
-3.8833043575286865 8.684040069580078 -2.2357177734375
-4.0566229820251465 8.60284423828125 -2.2353782653808594
-4.398136615753174 8.430144309997559 -2.2347092628479004
-4.56619119644165 8.338714599609375 -2.234380006790161
-4.732357501983643 8.243952751159668 -2.2340545654296875
-3.5731005668640137 5.4361982345581055 -1.5289016962051392
-3.8500852584838867 5.3734025955200195 -1.5535907745361328
-4.082096576690674 5.461671829223633 -1.6025283336639404
-4.256283283233643 5.4619927406311035 -1.6274279356002808
-4.621777057647705 5.46267032623291 -1.6817147731781006
-6.4524102210998535 7.031895160675049 -2.2429752349853516
-8.578788757324219 3.2319817543029785 -2.373570203781128
-8.710890769958496 3.0831267833709717 -2.3925108909606934
-8.770947456359863 2.9071691036224365 -2.3924498558044434
-8.929752349853516 2.372579336166382 -2.3922886848449707
-8.975500106811523 2.192385196685791 -2.392241954803467
-9.090972900390625 1.6468377113342285 -2.392124652862549
-9.173443794250488 1.095353364944458 -2.392040252685547
-9.193544387817383 0.910557210445404 -2.3920199871063232
-9.209940910339355 0.725384533405304 -2.392003059387207
-9.222622871398926 0.5399298071861267 -2.3919899463653564
-9.231579780578613 0.35426023602485657 -2.3919806480407715
-9.236821174621582 0.1684442162513733 -2.391975164413452
-9.23833179473877 -0.017440184950828552 -2.3919734954833984
-9.23611831665039 -0.20331114530563354 -2.3919754028320312
-9.220502853393555 -0.5747436285018921 -2.391991138458252
-9.207128524780273 -0.7601495385169983 -2.3920042514801025
-9.190051078796387 -0.945255696773529 -2.392021417617798
-9.116565704345703 -1.4979983568191528 -2.3920953273773193
-9.049172401428223 -1.8636187314987183 -2.392163038253784
-8.967179298400879 -2.2262535095214844 -2.3922457695007324
-8.817099571228027 -2.7633461952209473 -2.392397165298462
-8.759920120239258 -2.940258741378784 -2.3924548625946045
-8.634992599487305 -3.2904858589172363 -2.392580986022949
-8.567290306091309 -3.4636547565460205 -2.3926494121551514
-8.496124267578125 -3.6354339122772217 -2.392721176147461
-8.177427291870117 -4.307332992553711 -2.393043041229248
-7.903628349304199 -4.793374538421631 -2.393319845199585
-7.805875301361084 -4.951633930206299 -2.393418788909912
-7.704991340637207 -5.107899188995361 -2.3935208320617676
-7.600991249084473 -5.2621259689331055 -2.3936259746551514
-7.383815288543701 -5.564176559448242 -2.393845558166504
-7.27072286605835 -5.711885452270508 -2.3939597606658936
-7.1546630859375 -5.857307434082031 -2.3940770626068115
-6.789326190948486 -6.279236793518066 -2.394446611404419
-6.661964416503906 -6.414906024932861 -2.394575357437134
-6.126035213470459 -6.931334018707275 -2.3951175212860107
-5.697737693786621 -7.289602279663086 -2.3955507278442383
-5.550270080566406 -7.403224945068359 -2.395699977874756
-2.0298657417297363 -3.217424154281616 -0.9849829077720642
-1.9390575885772705 -3.2150676250457764 -0.9721189737319946
-1.7601549625396729 -3.203158140182495 -0.9463212490081787
-1.6726831197738647 -3.194634437561035 -0.9336692690849304
-1.6068567037582397 -3.2252144813537598 -0.9329670667648315
-1.5413695573806763 -3.2563207149505615 -0.9328027367591858
-1.47528076171875 -3.28609299659729 -0.9326387047767639
-1.3525207042694092 -3.3692991733551025 -0.9400357007980347
-1.2894299030303955 -3.4089784622192383 -0.9436752200126648
-1.1628795862197876 -3.4930779933929443 -0.9532212615013123
-1.0491943359375 -3.6332671642303467 -0.9791557192802429
-2.390878915786743 -8.951287269592285 -2.398897409439087
-1.846926212310791 -9.081305503845215 -2.3994481563568115
-1.2960107326507568 -9.178318977355957 -2.40000581741333
-1.1111632585525513 -9.20325756072998 -2.400192975997925
-0.7401110529899597 -9.241962432861328 -2.400568723678589
-0.367744117975235 -9.265704154968262 -2.4009456634521484
-0.18125487864017487 -9.271957397460938 -2.401134490966797
0.1919580101966858 -9.273204803466797 -2.401512384414673
0.5649706721305847 -9.259425163269043 -2.401890277862549
0.7512145638465881 -9.246912956237793 -2.402078866958618
1.1228100061416626 -9.210644721984863 -2.4024550914764404
1.3080065250396729 -9.186904907226562 -2.4026427268981934
2.224973201751709 -9.012563705444336 -2.403571367263794
2.5861597061157227 -8.917106628417969 -2.4039371013641357
2.943260431289673 -8.807165145874023 -2.404298782348633
3.642897844314575 -8.544539451599121 -2.4050076007843018
3.8143491744995117 -8.47012996673584 -2.4051811695098877
4.152629375457764 -8.310991287231445 -2.4055240154266357
4.319311618804932 -8.226363182067871 -2.4056925773620605
4.647417068481445 -8.047028541564941 -2.4060251712799072
5.125450134277344 -7.753497123718262 -2.4065093994140625
5.280759334564209 -7.649352073669434 -2.4066669940948486
5.433945178985596 -7.542102336883545 -2.4068222045898438
5.58494234085083 -7.431661605834961 -2.406975030899048
5.73369836807251 -7.3182244300842285 -2.40712571144104
6.024224758148193 -7.08248233795166 -2.407419443130493
6.305030345916748 -6.835154056549072 -2.407702922821045
6.441650390625 -6.707343578338623 -2.4078407287597656
6.575672626495361 -6.576738357543945 -2.407975912094116
6.707036018371582 -6.443735599517822 -2.4081082344055176
7.204875469207764 -5.884578227996826 -2.4086110591888428
7.436521053314209 -5.590490818023682 -2.4088456630706787
7.863320350646973 -4.9753923416137695 -2.409278392791748
8.150138854980469 -4.492483139038086 -2.409569263458252
8.239192008972168 -4.327763080596924 -2.4096596240997314
8.486157417297363 -3.8232152462005615 -2.409909963607788
8.561633110046387 -3.6518139839172363 -2.4099864959716797
8.633635520935059 -3.4789304733276367 -2.410059690475464
8.702133178710938 -3.304610013961792 -2.4101290702819824
8.767104148864746 -3.128936767578125 -2.4101948738098145
8.886337280273438 -2.7738213539123535 -2.410315990447998
9.038065910339355 -2.2328202724456787 -2.4104702472686768
9.08132553100586 -2.050555467605591 -2.4105141162872314
9.120903015136719 -1.8674523830413818 -2.4105544090270996
9.15676498413086 -1.6835814714431763 -2.410590887069702
9.188913345336914 -1.4990230798721313 -2.410623550415039
9.217326164245605 -1.3138610124588013 -2.4106526374816895
9.241989135742188 -1.1281497478485107 -2.410677671432495
9.262900352478027 -0.9419766068458557 -2.4106991291046143
9.303009986877441 -0.38145750761032104 -2.4107401371002197
9.309103965759277 0.18047606945037842 -2.4107470512390137
9.281157493591309 0.7417358160018921 -2.410719156265259
9.2642822265625 0.9283196926116943 -2.4107022285461426
9.24365234375 1.114524483680725 -2.41068172454834
9.191132545471191 1.4854882955551147 -2.4106287956237793
9.159257888793945 1.6700940132141113 -2.4105968475341797
9.123663902282715 1.8540068864822388 -2.4105610847473145
9.084360122680664 2.03717041015625 -2.4105215072631836
9.041374206542969 2.219499349594116 -2.410478115081787
8.99471378326416 2.4009196758270264 -2.410431146621704
8.944401741027832 2.581357479095459 -2.4103803634643555
8.832887649536133 2.938976287841797 -2.4102678298950195
8.707036018371582 3.2917912006378174 -2.4101409912109375
8.638798713684082 3.466214418411255 -2.410071849822998
8.33108139038086 4.14901065826416 -2.4097611904144287
8.245612144470215 4.315639972686768 -2.4096741676330566
7.969308853149414 4.804658889770508 -2.409392833709717
7.768891334533691 5.120959758758545 -2.4091875553131104
7.663945198059082 5.276005268096924 -2.409080982208252
7.555898189544678 5.428889751434326 -2.4089713096618652
6.972321510314941 5.2254438400268555 -2.2559826374053955
6.865441799163818 5.364415645599365 -2.2558743953704834
6.5283203125 5.767953395843506 -2.2555325031280518
6.167457103729248 6.1502885818481445 -2.255167007446289
6.042119026184082 6.2727861404418945 -2.255039930343628
5.914350509643555 6.392716407775879 -2.254910469055176
5.784199237823486 6.510035991668701 -2.2547786235809326
5.651692867279053 6.6247076988220215 -2.2546441555023193
5.212043285369873 6.364377975463867 -2.1299140453338623
5.240782260894775 6.9523210525512695 -2.2542319297790527
5.102831840515137 7.060495853424072 -2.25555157661438
4.813028335571289 7.257636070251465 -2.2547950744628906
4.364289283752441 7.5311102867126465 -2.253695011138916
3.897303342819214 7.771327495574951 -2.2509849071502686
3.5805015563964844 7.9196391105651855 -2.2503626346588135
2.1666905879974365 5.356758117675781 -1.4961172342300415
2.7649950981140137 8.233348846435547 -2.2487616539001465
2.2622594833374023 8.381473541259766 -2.247774600982666
2.092867374420166 8.424053192138672 -2.2474420070648193
1.4079504013061523 8.559926986694336 -2.246098041534424
0.6615881323814392 5.361332416534424 -1.3986726999282837
0.7147473096847534 8.640182495117188 -2.2447378635406494
0.5406762361526489 8.651494979858398 -2.244396209716797
0.1921044886112213 8.663599014282227 -2.2437124252319336
0.017760008573532104 8.66439151763916 -2.243370532989502
-0.1565515100955963 8.661675453186035 -2.243028402328491
-0.3307482898235321 8.655449867248535 -2.2426869869232178
-0.6785033941268921 8.63250732421875 -2.242004871368408
-0.8519176840782166 8.615808486938477 -2.2416646480560303
-0.6498803496360779 5.45021915435791 -1.421154499053955
-0.7467919588088989 5.345727920532227 -1.397544503211975
-0.8632323741912842 5.385990619659424 -1.4123257398605347
-1.5409448146820068 8.5142822265625 -2.2403135299682617
-1.7116796970367432 8.480287551879883 -2.239978790283203
-1.8816882371902466 8.44287395477295 -2.239645481109619
-2.0508689880371094 8.402066230773926 -2.239313840866089
-2.2191808223724365 8.357866287231445 -2.2389838695526123
-2.386545419692993 8.31030559539795 -2.2386558055877686
-2.5528905391693115 8.259407997131348 -2.2383296489715576
-2.718170166015625 8.205178260803223 -2.2380058765411377
-2.165677547454834 5.418069362640381 -1.5107479095458984
-2.2613818645477295 5.343005657196045 -1.5022011995315552
-3.526038646697998 7.885097980499268 -2.236422538757324
-2.574099063873291 5.458878517150879 -1.5626569986343384
-3.83931565284729 7.734722137451172 -2.235806465148926
-3.993875026702881 7.655226230621338 -2.2356059551239014
-4.614307880401611 7.337646961212158 -2.2442662715911865
-4.761086940765381 7.243607521057129 -2.244353771209717
-3.6897783279418945 5.374886989593506 -1.6880147457122803
-3.8500139713287354 5.37330961227417 -1.7115094661712646
-5.189863681793213 6.943807601928711 -2.2445526123046875
-5.465445041656494 6.729912757873535 -2.244727849960327
-7.969480514526367 2.8207201957702637 -2.393261432647705
-8.024462699890137 2.659747838973999 -2.393205404281616
-8.211682319641113 2.0058112144470215 -2.393015146255493
-8.250244140625 1.840155005455017 -2.3929760456085205
-8.285473823547363 1.6737608909606934 -2.392940044403076
-8.31735897064209 1.5066943168640137 -2.3929076194763184
-8.392834663391113 1.002146601676941 -2.3928308486938477
-8.411235809326172 0.8330737352371216 -2.3928120136260986
-8.45083999633789 0.1541113257408142 -2.392771005630493
-8.452224731445312 -0.015958251431584358 -2.3927695751190186
-8.435906410217285 -0.5258407592773438 -2.3927855491638184
-8.408037185668945 -0.8648202419281006 -2.3928134441375732
-8.27910327911377 -1.7050296068191528 -2.3929431438446045
-8.243249893188477 -1.8712893724441528 -2.392979145050049
-8.204063415527344 -2.0367965698242188 -2.3930184841156006
-8.115777015686035 -2.3653101921081543 -2.3931076526641846
-8.014389038085938 -2.6900200843811035 -2.393209934234619
-7.704695224761963 -3.481823682785034 -2.3935227394104004
-7.633301258087158 -3.6362464427948 -2.393594980239868
-7.558831691741943 -3.7892138957977295 -2.393670082092285
-7.141281604766846 -4.530054092407227 -2.394092082977295
-6.953796863555908 -4.814077854156494 -2.3942816257476807
-6.855794429779053 -4.953219413757324 -2.394380807876587
-6.436556816101074 -5.489360809326172 -2.3948047161102295
-6.211061954498291 -5.744417667388916 -2.3950326442718506
-2.812809944152832 -3.18257737159729 -1.2024186849594116
-2.366818904876709 -2.9056289196014404 -1.060919165611267
-2.028978109359741 -2.822960138320923 -0.9841645359992981
-1.9489110708236694 -2.8300182819366455 -0.9727557301521301
-1.7129381895065308 -2.840148448944092 -0.9389392137527466
-1.6440197229385376 -2.8541955947875977 -0.9324564933776855
-1.5253820419311523 -2.9133052825927734 -0.9309475421905518
-1.4652856588363647 -2.941060781478882 -0.9302050471305847
-1.4047057628631592 -2.967603921890259 -0.9294711351394653
-1.343664526939392 -2.9929277896881104 -0.9287458658218384
-1.282678246498108 -3.0181899070739746 -0.9283871054649353
-1.1628893613815308 -3.0744340419769287 -0.9305300712585449
-1.1091210842132568 -3.120631694793701 -0.9375675916671753
-1.0541247129440308 -3.1663951873779297 -0.9447517395019531
-0.9978893995285034 -3.211696147918701 -0.9520843029022217
-0.9404003620147705 -3.256516695022583 -0.9595661759376526
-0.7656261920928955 -3.411590576171875 -0.9898191690444946
-0.6427941918373108 -3.522047758102417 -1.0135366916656494
-1.1853820085525513 -8.394919395446777 -2.400118589401245
-1.016329288482666 -8.417668342590332 -2.40028977394104
-0.5067577958106995 -8.465475082397461 -2.400805711746216
-0.3363439738750458 -8.474563598632812 -2.4009783267974854
-0.1657727062702179 -8.480226516723633 -2.401151180267334
0.004877929575741291 -8.48245906829834 -2.4013237953186035
0.3461865186691284 -8.47661018371582 -2.401669502258301
0.8571264743804932 -8.442108154296875 -2.402186870574951
1.1962499618530273 -8.401983261108398 -2.4025301933288574
1.3651537895202637 -8.376815795898438 -2.4027013778686523
1.5335302352905273 -8.34824275970459 -2.40287184715271
2.200380802154541 -8.200224876403809 -2.4035472869873047
2.365093946456909 -8.15485668182373 -2.403714179992676
2.6916332244873047 -8.054213523864746 -2.4040448665618896
3.0138988494873047 -7.940476894378662 -2.4043712615966797
3.3313708305358887 -7.813839435577393 -2.4046928882598877
3.488138437271118 -7.7457404136657715 -2.4048516750335693
4.397305965423584 -7.272075653076172 -2.4057726860046387
4.54301118850708 -7.182533264160156 -2.4059202671051025
5.376867771148682 -6.585443496704102 -2.4067654609680176
5.508584976196289 -6.476320266723633 -2.4068987369537354
5.76530122756958 -6.250100612640381 -2.407158613204956
5.89019775390625 -6.133135795593262 -2.40728497505188
6.012718200683594 -6.013701438903809 -2.4074089527130127
6.250414848327637 -5.767436504364014 -2.407649040222168
6.365501403808594 -5.640881061553955 -2.4077651500701904
6.478011131286621 -5.511878490447998 -2.4078786373138428
6.58790397644043 -5.380667209625244 -2.407989501953125
6.799653053283691 -5.111714839935303 -2.408202648162842
6.901415824890137 -4.974085807800293 -2.4083051681518555
7.000385761260986 -4.834421157836914 -2.408405303955078
7.28014612197876 -4.403814792633057 -2.40868878364563
7.3675537109375 -4.256597995758057 -2.4087774753570557
7.611706256866455 -3.804763078689575 -2.409024953842163
7.686957836151123 -3.6509552001953125 -2.4091012477874756
7.75909423828125 -3.4956555366516113 -2.4091744422912598
7.956515789031982 -3.021458148956299 -2.409374713897705
8.072026252746582 -2.6990389823913574 -2.409492015838623
8.22066593170166 -2.2072842121124268 -2.4096429347991943
8.372050285339355 -1.5393041372299194 -2.409796953201294
8.401430130004883 -1.370558738708496 -2.4098267555236816
8.496954917907715 -0.5198239088058472 -2.409924268722534
8.505717277526855 -0.3487664759159088 -2.40993332862854
8.511032104492188 -0.17755675315856934 -2.4099388122558594
8.512887954711914 -0.006274413783103228 -2.4099409580230713
8.511286735534668 0.16500915586948395 -2.4099395275115967
8.506230354309082 0.3362261950969696 -2.4099345207214355
8.485747337341309 0.6781671047210693 -2.409914255142212
8.429174423217773 1.188839077949524 -2.4098575115203857
8.403461456298828 1.3581829071044922 -2.4098315238952637
8.374330520629883 1.526971459388733 -2.4098024368286133
8.341798782348633 1.6951251029968262 -2.4097695350646973
8.223930358886719 2.195178747177124 -2.4096508026123047
8.17794418334961 2.3601598739624023 -2.409604549407959
8.12863540649414 2.5241644382476807 -2.4095547199249268
8.02013874053955 2.8490264415740967 -2.409445285797119
7.898618221282959 3.169227123260498 -2.409322500228882
7.617348670959473 3.7935612201690674 -2.409038543701172
7.28667688369751 4.393103122711182 -2.408703327178955
7.007551193237305 4.824126243591309 -2.4084198474884033
6.375205039978027 4.7779459953308105 -2.2553822994232178
6.277507305145264 4.905032157897949 -2.2552833557128906
6.074532508850098 5.153153419494629 -2.255078077316284
5.969336032867432 5.274083614349365 -2.254971504211426
5.861732006072998 5.392857074737549 -2.2548625469207764
5.751753807067871 5.509426593780518 -2.254751443862915
5.524876594543457 5.735795021057129 -2.2545220851898193
5.408068656921387 5.845486164093018 -2.254403829574585
5.289084434509277 5.952793598175049 -2.2542836666107178
5.16795015335083 6.057684898376465 -2.2541611194610596
5.044747352600098 6.160094261169434 -2.2540369033813477
4.919511795043945 6.260004043579102 -2.253911018371582
4.663131237030029 6.452108383178711 -2.2536497116088867
4.268679141998291 6.726839065551758 -2.255382537841797
4.131850719451904 6.8103532791137695 -2.2550466060638428
3.993403196334839 6.891094207763672 -2.2547154426574707
3.4244885444641113 7.185779094696045 -2.25343656539917
3.2787671089172363 7.252235412597656 -2.253129005432129
2.16667103767395 5.35670804977417 -1.635793685913086
2.683677911758423 7.488450050354004 -2.2519516944885254
1.8305151462554932 5.450723171234131 -1.6277509927749634
2.3796238899230957 7.5884857177734375 -2.2513961791992188
1.9139134883880615 7.703861713409424 -2.247206687927246
1.7581652402877808 7.739367961883545 -2.2467877864837646
1.0098681449890137 5.452244281768799 -1.5697426795959473
0.7696752548217773 5.349298477172852 -1.5299428701400757
0.6615832448005676 5.361280918121338 -1.5292513370513916
0.8126440048217773 7.888275623321533 -2.2449333667755127
0.4511205852031708 5.453278064727783 -1.5490572452545166
0.33514404296875 7.919624328613281 -2.2439966201782227
0.17569701373577118 7.923658847808838 -2.2436838150024414
0.01624145545065403 7.9244866371154785 -2.24337100982666
-0.1431860327720642 7.9221014976501465 -2.243058204650879
-0.30251219868659973 7.91650915145874 -2.242745876312256
-0.6205956935882568 7.895737648010254 -2.242121934890747
-0.5393871665000916 5.455111503601074 -1.5518337488174438
-0.6499096751213074 5.45046329498291 -1.5539166927337646
-0.8631505966186523 5.3854780197143555 -1.544047474861145
-1.1012731790542603 5.456151485443115 -1.575747013092041
-1.7212499380111694 7.722971439361572 -2.2399609088897705
-2.0304319858551025 7.646851062774658 -2.239779233932495
-2.338373899459839 7.565981864929199 -2.2418549060821533
-1.9306823015213013 5.4576873779296875 -1.6388574838638306
-2.7963757514953613 7.425107955932617 -2.246091365814209
-2.1657445430755615 5.418243885040283 -1.6518594026565552
-2.261399984359741 5.34305477142334 -1.6424795389175415
-3.2387683391571045 7.2426934242248535 -2.246021032333374
-3.383819580078125 7.176028251647949 -2.2460107803344727
-3.5275022983551025 7.106484889984131 -2.2460086345672607
-3.9498889446258545 6.880856037139893 -2.246049404144287
-4.358026504516602 6.630365371704102 -2.2461607456207275
-3.6898138523101807 5.374937057495117 -1.8456412553787231
-3.849952220916748 5.373218059539795 -1.8712825775146484
-4.750453472137451 6.355897903442383 -2.2463431358337402
-5.002675533294678 6.160067558288574 -2.2465035915374756
-5.125813961029053 6.058408737182617 -2.2465953826904297
-5.246915817260742 5.954313278198242 -2.246694803237915
-5.172056198120117 5.413745403289795 -2.119586706161499
-7.283475399017334 2.7440288066864014 -2.393955945968628
-7.387648582458496 2.448671817779541 -2.393850088119507
-7.479894161224365 2.149378538131714 -2.39375638961792
-7.595566749572754 1.6941332817077637 -2.3936386108398438
-7.683648109436035 1.2327771186828613 -2.3935492038726807
-7.706821918487549 1.077919840812683 -2.3935256004333496
-7.726877689361572 0.9226269125938416 -2.393505096435547
-7.7683281898498535 0.45478636026382446 -2.3934624195098877
-7.775887489318848 0.2983984351158142 -2.3934547901153564
-7.781573295593262 -0.014692382887005806 -2.3934485912323
-7.766229152679443 -0.4841378629207611 -2.393463611602783
-7.755284309387207 -0.6402825713157654 -2.393474578857422
-7.740880966186523 -0.7961993217468262 -2.393489122390747
-7.723361015319824 -0.9517928957939148 -2.3935065269470215
-7.702702045440674 -1.107003092765808 -2.3935272693634033
-7.652091026306152 -1.4160363674163818 -2.393578290939331
-7.589127063751221 -1.7227996587753296 -2.393641710281372
-7.471729755401611 -2.177605628967285 -2.3937599658966064
-7.327203750610352 -2.6245522499084473 -2.3939058780670166
-7.2730889320373535 -2.7715072631835938 -2.393960475921631
-7.2160210609436035 -2.917355537414551 -2.3940181732177734
-7.156049728393555 -3.062025785446167 -2.3940787315368652
-7.093174934387207 -3.205472230911255 -2.3941421508789062
-7.027440071105957 -3.3476336002349854 -2.3942086696624756
-6.958864212036133 -3.4884514808654785 -2.394277811050415
-6.8874735832214355 -3.627869129180908 -2.394350051879883
-6.81329870223999 -3.7658300399780273 -2.3944249153137207
-6.656710147857666 -4.037164211273193 -2.3945834636688232
-6.57436466217041 -4.170429706573486 -2.3946664333343506
-6.489355087280273 -4.3020124435424805 -2.3947525024414062
-6.311496257781982 -4.559957027435303 -2.394932270050049
-6.218716144561768 -4.686202526092529 -2.3950259685516357
-5.925413608551025 -5.053458213806152 -2.395322561264038
-5.82278299331665 -5.171879768371582 -2.3954265117645264
-3.0535192489624023 -2.8241076469421387 -1.2793028354644775
-2.8544604778289795 -2.7486021518707275 -1.2188324928283691
-2.6802818775177 -2.686891794204712 -1.1673121452331543
-2.527000665664673 -2.6372954845428467 -1.1234428882598877
-2.407926082611084 -2.6164278984069824 -1.0936912298202515
-2.198371648788452 -2.5905892848968506 -1.0450422763824463
-2.0971715450286865 -2.5745949745178223 -1.0213583707809448
-1.9311633110046387 -2.5758800506591797 -0.990219235420227
-1.8570349216461182 -2.5837321281433105 -0.9786723256111145
-1.6394726037979126 -2.59863543510437 -0.9450611472129822
-1.5821374654769897 -2.6232733726501465 -0.9422507882118225
-1.5246325731277466 -2.6469271183013916 -0.9395368695259094
-1.4669653177261353 -2.6696078777313232 -0.9369181394577026
-1.4091503620147705 -2.691315174102783 -0.9343952536582947
-1.3511937856674194 -2.7120578289031982 -0.9319668412208557
-1.2951245307922363 -2.736100196838379 -0.9310842752456665
-1.1823229789733887 -2.7820494174957275 -0.9297669529914856
-1.0823802947998047 -2.861583709716797 -0.9410198926925659
-0.8709533214569092 -3.0160303115844727 -0.9655709862709045
-0.6446301341056824 -3.1696343421936035 -0.9948690533638
-0.5337671041488647 -3.2991905212402344 -1.0279546976089478
-0.4797924757003784 -3.397876501083374 -1.0554815530776978
-0.6230566501617432 -7.780218124389648 -2.400688648223877
-0.46641966700553894 -7.791692733764648 -2.4008474349975586
-0.3095752000808716 -7.8000168800354 -2.4010062217712402
0.16158202290534973 -7.806038856506348 -2.4014832973480225
0.47556883096694946 -7.79424524307251 -2.401801347732544
0.7888696193695068 -7.769833087921143 -2.402118444442749
1.2564220428466797 -7.709606170654297 -2.4025919437408447
1.5657824277877808 -7.653811454772949 -2.402905225753784
1.719573974609375 -7.621254920959473 -2.4030609130859375
2.0250635147094727 -7.546875 -2.4033703804016113
2.625936269760132 -7.361489295959473 -2.4039790630340576
2.9203381538391113 -7.250783443450928 -2.4042773246765137
3.065826416015625 -7.190999507904053 -2.4044246673583984
3.21008038520813 -7.128293514251709 -2.4045708179473877
3.3530590534210205 -7.062687873840332 -2.4047157764434814
3.494692325592041 -6.994212627410889 -2.4048590660095215
3.773702383041382 -6.848751068115234 -2.405141592025757
3.9109606742858887 -6.771829605102539 -2.405280828475952
4.046657562255859 -6.692659854888916 -2.4054183959960938
4.180720329284668 -6.609752178192139 -2.4055540561676025
4.443747520446777 -6.436933517456055 -2.405820608139038
4.572610855102539 -6.346545219421387 -2.4059512615203857
4.824751853942871 -6.158064365386963 -2.4062068462371826
5.069124698638916 -5.959590435028076 -2.40645432472229
5.420224666595459 -5.6437907218933105 -2.4068102836608887
5.6434326171875 -5.4216485023498535 -2.407036304473877
5.751635551452637 -5.3072075843811035 -2.4071457386016846
5.857511043548584 -5.190669536590576 -2.407252788543701
6.062129974365234 -4.951239585876465 -2.4074599742889404
6.160776138305664 -4.828465461730957 -2.407559633255005
6.350550174713135 -4.577273368835449 -2.4077513217926025
6.441601276397705 -4.448525428771973 -2.4078431129455566
6.53004264831543 -4.318185806274414 -2.4079322814941406
6.615843296051025 -4.186072826385498 -2.4080188274383545
6.698962211608887 -4.052201271057129 -2.4081027507781982
6.8570237159729 -3.779705047607422 -2.408261775970459
6.931901931762695 -3.6410906314849854 -2.408337116241455
7.003969669342041 -3.500988006591797 -2.4084103107452393
7.3211669921875 -2.780186891555786 -2.4087319374084473
7.427421569824219 -2.483496904373169 -2.408839702606201
7.521623134613037 -2.182760238647461 -2.408935546875
7.603612899780273 -1.8784422874450684 -2.4090187549591064
7.639987468719482 -1.725103735923767 -2.409055709838867
7.673261642456055 -1.5710500478744507 -2.4090895652770996
7.703415393829346 -1.4163638353347778 -2.4091203212738037
7.730439186096191 -1.2610909938812256 -2.4091477394104004
7.754325866699219 -1.1053167581558228 -2.4091720581054688
7.775060653686523 -0.9490804672241211 -2.409193277359009
7.818303108215332 -0.4782995581626892 -2.4092373847961426
7.831489086151123 0.15183165669441223 -2.4092514514923096
7.807992935180664 0.6240026950836182 -2.4092280864715576
7.793810844421387 0.7809716463088989 -2.4092140197753906
7.776462078094482 0.9376214146614075 -2.409196615219116
7.755956649780273 1.0938891172409058 -2.4091758728027344
7.7322998046875 1.249708890914917 -2.4091522693634033
7.675585746765137 1.5597442388534546 -2.409095287322998
7.524860858917236 2.171678304672241 -2.4089431762695312
7.479499340057373 2.322587251663208 -2.4088973999023438
7.431100845336914 2.472557306289673 -2.408848762512207
7.379692077636719 2.621516704559326 -2.408796787261963
7.3252854347229 2.7694036960601807 -2.4087419509887695
7.267910003662109 2.9161651134490967 -2.408684015274048
7.207582950592041 3.0617175102233887 -2.408623218536377
7.144330978393555 3.206038236618042 -2.4085593223571777
7.07818078994751 3.349046468734741 -2.40849232673645
7.009164810180664 3.490676164627075 -2.4084227085113525
6.862629413604736 3.7696173191070557 -2.4082753658294678
6.785173416137695 3.9068071842193604 -2.4081976413726807
6.704967975616455 4.042394161224365 -2.4081170558929443
6.038962364196777 4.1573357582092285 -2.25504469871521
5.953864574432373 4.27783203125 -2.2549588680267334
5.684263706207275 4.628659725189209 -2.254686117172241
5.589744567871094 4.741896152496338 -2.2545905113220215
5.492966175079346 4.8531951904296875 -2.2544925212860107
5.393969535827637 4.962510108947754 -2.254392385482788
5.189472675323486 5.175027370452881 -2.254185676574707
5.084057331085205 5.2781500816345215 -2.2540793418884277
4.976590633392334 5.379110813140869 -2.2539708614349365
4.755678653717041 5.57442569732666 -2.2537479400634766
4.64232063293457 5.6686930656433105 -2.253633499145508
4.52708625793457 5.760649681091309 -2.253516435623169
4.410032749176025 5.8502631187438965 -2.253397226333618
4.170638561248779 6.0223002433776855 -2.2531533241271973
3.804354190826416 6.270547389984131 -2.2558913230895996
2.6097729206085205 6.845333576202393 -2.2533037662506104
2.4712305068969727 6.8956499099731445 -2.253040075302124
2.331718683242798 6.943172931671143 -2.252781629562378
1.4714001417160034 5.451387405395508 -1.7367314100265503
1.3543994426727295 5.45160436630249 -1.7277673482894897
1.2385436296463013 5.45181941986084 -1.7195876836776733
