ply
format ascii 1.0
element vertex 343
property float x
property float y
property float z
end_header
-7.663686275482178 7.179361820220947 1.8516448736190796
-7.663681507110596 6.899474143981934 1.8182610273361206
-7.663681507110596 6.629395008087158 1.7867488861083984
-7.663681507110596 6.36841344833374 1.756986379623413
-7.962104320526123 6.354038715362549 1.7961913347244263
-9.0120210647583 6.3540215492248535 1.9443200826644897
-9.815736770629883 6.354010581970215 2.0617599487304688
-10.255483627319336 6.354002952575684 2.1272664070129395
-12.185697555541992 6.273661136627197 2.4167089462280273
-12.956425666809082 6.349003314971924 2.544116497039795
-13.644022941589355 6.353952884674072 2.6538939476013184
-14.381742477416992 6.353940963745117 2.772355318069458
-7.663701057434082 6.36843204498291 1.5264908075332642
-7.861469745635986 6.2737274169921875 1.540820598602295
-8.18905258178711 6.273722171783447 1.5803557634353638
-8.534032821655273 6.273717403411865 1.622625708580017
-9.2832612991333 6.273706436157227 1.7164504528045654
-9.815736770629883 6.354010581970215 1.7912756204605103
-10.255477905273438 6.354002952575684 1.848189353942871
-10.724296569824219 6.353997230529785 1.9096145629882812
-11.763139724731445 6.353981018066406 2.04813814163208
-14.2160005569458 6.280716896057129 2.380887746810913
-7.663730144500732 7.179407119750977 1.3674834966659546
-7.66372537612915 6.899515628814697 1.3428295850753784
-7.66372537612915 6.629432678222656 1.3195546865463257
-7.663720607757568 6.368450164794922 1.2975763082504272
-8.189047813415527 6.273722171783447 1.3433603048324585
-8.534032821655273 6.27371883392334 1.3792920112609863
-8.898115158081055 6.273712635040283 1.4177682399749756
-9.2832612991333 6.273706436157227 1.4590438604354858
-9.691669464111328 6.27370023727417 1.5034027099609375
-10.125859260559082 6.2736945152282715 1.551169991493225
-10.5887451171875 6.27368688583374 1.6027239561080933
-11.083662033081055 6.273679733276367 1.658496379852295
-11.763144493103027 6.353982448577881 1.740993618965149
-14.38174819946289 6.353943347930908 2.047438621520996
-7.663754940032959 7.179424285888672 1.1276458501815796
-7.663749694824219 6.89954137802124 1.1073166131973267
-7.663744926452637 6.629459857940674 1.0881246328353882
-7.663744926452637 6.368467330932617 1.0699999332427979
-7.861469745635986 6.273728370666504 1.080039381980896
-8.189057350158691 6.273723602294922 1.107751488685608
-8.534037590026855 6.27371883392334 1.137381911277771
-8.898119926452637 6.273714065551758 1.1691094636917114
-9.283256530761719 6.273707866668701 1.2031441926956177
-9.69167423248291 6.2737016677856445 1.2397247552871704
-10.1258544921875 6.273695468902588 1.279114007949829
-10.588749885559082 6.27368688583374 1.3216274976730347
-11.083666801452637 6.273680686950684 1.367616891860962
-14.199970245361328 6.273634433746338 1.6670031547546387
-7.663774013519287 7.179450035095215 0.8889663219451904
-7.663774013519287 6.89955472946167 0.8729400634765625
-7.663769245147705 6.629476547241211 0.8578103184700012
-7.663764476776123 6.368485450744629 0.8435198664665222
-7.861474514007568 6.273728370666504 0.8514333963394165
-8.898119926452637 6.273714065551758 0.9216503500938416
-14.199970245361328 6.273634433746338 1.3141558170318604
-7.663798809051514 7.179468154907227 0.651192307472229
-7.663793563842773 6.899575710296631 0.6394525170326233
-8.189062118530273 6.2737250328063965 0.639699399471283
-9.69167423248291 6.2737016677856445 0.7159121632575989
-11.083666801452637 6.273682117462158 0.7897647023200989
-11.61446762084961 6.273674964904785 0.8185717463493347
-11.076972007751465 5.702847003936768 0.7725732326507568
-13.47158145904541 6.273647785186768 0.9215200543403625
-7.66381311416626 6.629513263702393 0.39956632256507874
-8.534042358398438 6.273719787597656 0.4176516532897949
-9.283266067504883 6.273710250854492 0.44179990887641907
-9.69167423248291 6.273703098297119 0.45523345470428467
-10.125864028930664 6.273697853088379 0.4696972668170929
-10.588759422302246 6.273690700531006 0.4853073060512543
-11.614472389221191 6.273675918579102 0.5205108523368835
-12.185717582702637 6.273667335510254 0.5404366850852966
-12.802665710449219 6.273660182952881 0.562174379825592
-14.19998550415039 6.2736382484436035 0.612131655216217
-7.663837909698486 6.89961576461792 0.17418883740901947
-7.861474514007568 6.2737321853637695 0.16989745199680328
-8.189057350158691 6.273725986480713 0.17425628006458282
-8.898124694824219 6.273716449737549 0.18390777707099915
-9.69167423248291 6.2737040519714355 0.19501708447933197
-10.588754653930664 6.273690700531006 0.20790007710456848
-11.083671569824219 6.273684501647949 0.21513518691062927
-12.18570327758789 6.2736687660217285 0.2315170168876648
-12.802665710449219 6.273658752441406 0.24083037674427032
-13.471586227416992 6.273650169372559 0.25102508068084717
-7.663862228393555 7.17952823638916 -0.059125058352947235
-7.663857460021973 6.899636745452881 -0.05805908143520355
-7.663852214813232 6.629551410675049 -0.05705215409398079
-8.18905258178711 6.2737274169921875 -0.05808074772357941
-9.443099975585938 6.9420013427734375 -0.06598663330078125
-10.724047660827637 6.941981792449951 -0.07192397862672806
-11.716684341430664 6.941967010498047 -0.07667586952447891
-12.264310836791992 6.941958427429199 -0.07934372127056122
-14.261762619018555 6.300932884216309 -0.08778167515993118
-7.663886547088623 7.179553508758545 -0.29569944739341736
-7.663881778717041 6.899648666381836 -0.29036757349967957
-7.663877010345459 6.629568099975586 -0.2853344678878784
-7.663871765136719 6.368574619293213 -0.28058090806007385
-7.861474514007568 6.2737321853637695 -0.2832092344760895
-10.724038124084473 6.941982746124268 -0.35971084237098694
-12.851655006408691 6.941952228546143 -0.4112941026687622
-13.483735084533691 6.9419426918029785 -0.4270358085632324
-14.261801719665527 6.641643524169922 -0.4429939091205597
-7.663910865783691 7.179572105407715 -0.5325767397880554
-7.663901329040527 6.899672031402588 -0.5229740738868713
-7.86147928237915 6.273733615875244 -0.510081946849823
-8.189057350158691 6.273728370666504 -0.5231660604476929
-10.272123336791992 6.941988945007324 -0.6287492513656616
-11.204472541809082 6.9419755935668945 -0.6684494018554688
-12.26431655883789 6.94196081161499 -0.714698314666748
-13.483739852905273 6.941943645477295 -0.7691217064857483
-14.166420936584473 6.94193172454834 -0.8000590205192566
-14.261825561523438 6.300961017608643 -0.7907220125198364
-7.663930416107178 7.179594993591309 -0.7699967622756958
-7.663910865783691 6.368607521057129 -0.7306330800056458
-9.845961570739746 6.941996097564697 -0.8833239674568176
-10.272123336791992 6.941990375518799 -0.909040629863739
-11.204486846923828 6.941976547241211 -0.9664394855499268
-11.7166748046875 6.941969394683838 -0.9985600113868713
-12.264310836791992 6.941962242126465 -1.0333077907562256
-13.483749389648438 6.941943645477295 -1.1119914054870605
-14.26186466217041 6.641674041748047 -1.1535425186157227
-7.6639404296875 6.629619598388672 -0.9728655815124512
-7.66393518447876 6.368626117706299 -0.9566596746444702
-7.861474514007568 6.2737345695495605 -0.9656132459640503
-8.189062118530273 6.2737298011779785 -0.9903838634490967
-9.845956802368164 6.941997528076172 -1.1565868854522705
-10.27212905883789 6.941991329193115 -1.1902581453323364
-10.724047660827637 6.941986560821533 -1.2264469861984253
-11.204477310180664 6.9419779777526855 -1.265414834022522
-12.851655006408691 6.941953659057617 -1.4023150205612183
-13.483735084533691 6.9419450759887695 -1.4559916257858276
-14.16641616821289 6.941934108734131 -1.5145604610443115
-14.261894226074219 6.3009867668151855 -1.4968880414962769
-7.663974285125732 7.179635524749756 -1.2474433183670044
-7.66396951675415 6.899733066558838 -1.2249521017074585
-7.663959980010986 6.629645347595215 -1.2037218809127808
-7.86147928237915 6.273736000061035 -1.1947461366653442
-8.189062118530273 6.273730754852295 -1.2253965139389038
-9.443090438842773 6.942004680633545 -1.3921966552734375
-9.84597110748291 6.941997528076172 -1.4310353994369507
-10.27212905883789 6.941991329193115 -1.4726943969726562
-10.724047660827637 6.941986560821533 -1.517470359802246
-11.716679573059082 6.941971778869629 -1.6177210807800293
-12.264321327209473 6.941963195800781 -1.6740156412124634
-12.851655006408691 6.941956043243408 -1.7350701093673706
-14.26192855834961 6.301003932952881 -1.85209059715271
-7.663999080657959 7.179661273956299 -1.4879686832427979
-7.663989067077637 6.899750232696533 -1.4611397981643677
-7.663984298706055 6.62966251373291 -1.4358160495758057
-7.663974285125732 6.368662357330322 -1.411899209022522
-8.189066886901855 6.2737321853637695 -1.461669921875
-9.845956802368164 6.9419989585876465 -1.7069543600082397
-10.27212905883789 6.94199275970459 -1.7566497325897217
-10.724052429199219 6.941986560821533 -1.810056447982788
-11.204482078552246 6.94197940826416 -1.867569088935852
-11.716679573059082 6.941971778869629 -1.929638147354126
-13.4837646484375 6.9419474601745605 -2.1488349437713623
-14.166425704956055 6.941936492919922 -2.235271692276001
-14.261967658996582 6.641722679138184 -2.229145050048828
-7.664023399353027 7.179680824279785 -1.7300360202789307
-8.189057350158691 6.2737321853637695 -1.6994531154632568
-9.443085670471191 6.9420061111450195 -1.9307774305343628
-9.84597110748291 6.941999912261963 -1.9846415519714355
-11.716684341430664 6.9419732093811035 -2.2435505390167236
-11.885595321655273 6.727461338043213 -2.2498855590820312
-12.016058921813965 6.4905924797058105 -2.24984073638916
-12.263222694396973 6.009308338165283 -2.249748706817627
-12.4008150100708 5.77498722076416 -2.2535574436187744
-7.664042949676514 7.179698944091797 -1.9739065170288086
-7.86147928237915 6.273736953735352 -1.8905014991760254
-8.189066886901855 6.2737321853637695 -1.9390064477920532
-9.443099975585938 6.942007064819336 -2.2029428482055664
-9.917387008666992 6.702249050140381 -2.24983811378479
-10.048022270202637 6.504374027252197 -2.24980092048645
-10.17471694946289 6.303966522216797 -2.249763250350952
-10.416078567504883 5.8958001136779785 -2.2496860027313232
-10.549023628234863 5.6981635093688965 -2.253580331802368
-10.863242149353027 5.058955669403076 -2.2524185180664062
-7.664067268371582 7.17972469329834 -2.2198543548583984
-7.66405725479126 6.899816036224365 -2.1798298358917236
-7.664047718048096 6.6297173500061035 -2.1420493125915527
-7.861489295959473 6.273738384246826 -2.1260504722595215
-8.189066886901855 6.273733615875244 -2.180596351623535
-8.817938804626465 5.959236145019531 -2.249664545059204
-9.3760347366333 5.0645623207092285 -2.252556324005127
-9.655854225158691 4.496681213378906 -2.2515242099761963
-9.741522789001465 4.303863048553467 -2.2511746883392334
-7.114077091217041 6.404663562774658 -2.2497177124023438
-7.239452838897705 6.262414932250977 -2.2496917247772217
-7.361997127532959 6.117711544036865 -2.2496652603149414
-7.481650352478027 5.970609664916992 -2.249638080596924
-7.726499080657959 5.680055618286133 -2.2537906169891357
-7.836503505706787 5.525198459625244 -2.2535061836242676
-7.943393230438232 5.3682050704956055 -2.253218412399292
-8.429717063903809 4.553400039672852 -2.25173020362854
-8.517099380493164 4.384929180145264 -2.2514238357543945
-8.681703567504883 4.043024063110352 -2.250802755355835
-8.758852005004883 3.869718551635742 -2.250488519668579
-6.340781211853027 5.94006872177124 -2.2496073246002197
-6.583671569824219 5.69514799118042 -2.253915548324585
-6.8026123046875 5.428713798522949 -2.2534236907958984
-6.908012390136719 5.292322158813477 -2.2531726360321045
-7.110615253448486 5.013411045074463 -2.2526602745056152
-7.207685470581055 4.8710150718688965 -2.252399206161499
-7.301899433135986 4.726734638214111 -2.2521347999572754
-7.393227577209473 4.58062744140625 -2.2518677711486816
-7.481606483459473 4.432746887207031 -2.2515976428985596
-7.728832721710205 3.9791009426116943 -2.2507710456848145
-7.80517053604126 3.8247435092926025 -2.250490665435791
-6.120625019073486 5.086153030395508 -2.2528741359710693
-6.315996170043945 4.838752746582031 -2.2524185180664062
-6.40994119644165 4.712209224700928 -2.252185821533203
-6.50133752822876 4.583838939666748 -2.2519500255584717
-6.676372051239014 4.321813106536865 -2.251469850540161
-6.759941101074219 4.188267230987549 -2.251225709915161
-6.994438171386719 3.7781176567077637 -2.2504775524139404
-7.136967658996582 3.4973137378692627 -2.249966859817505
-7.268222332000732 3.2111425399780273 -2.249447822570801
-5.345224380493164 5.007418632507324 -2.2528011798858643
-5.631679534912109 4.67984676361084 -2.252195119857788
-5.898027420043945 4.33587646484375 -2.2515616416931152
-5.982177734375 4.217798233032227 -2.251344919204712
-6.220283031463623 3.853908061981201 -2.250678539276123
-6.294775485992432 3.7295658588409424 -2.2504515647888184
-6.567509651184082 3.2182610034942627 -2.2495205402374268
-4.944599628448486 4.632118225097656 -2.252169370651245
-5.034980297088623 4.532894134521484 -2.251985549926758
-5.123349666595459 4.431906700134277 -2.251798629760742
-5.209697246551514 4.329184055328369 -2.2516090869903564
-5.609785079956055 3.7911412715911865 -2.250619649887085
-5.754482269287109 3.5653162002563477 -2.250206470489502
-5.823447227478027 3.4503087997436523 -2.2499961853027344
-5.890087604522705 3.3339648246765137 -2.249783992767334
-6.016366958618164 3.097454786300659 -2.2493534088134766
-6.07595682144165 2.9773833751678467 -2.2491352558135986
-6.133134841918945 2.856170654296875 -2.248915195465088
-4.679023265838623 4.212441921234131 -2.2514474391937256
-4.761181354522705 4.118618488311768 -2.2512738704681396
-4.841454982757568 4.02318000793457 -2.2510974407196045
-4.919814109802246 3.9261767864227295 -2.2509186267852783
-4.996201038360596 3.827645778656006 -2.250737190246582
-5.070624828338623 3.7276268005371094 -2.2505531311035156
-5.143046855926514 3.626157760620117 -2.2503669261932373
-5.213427543640137 3.52327823638916 -2.250178098678589
-5.347968578338623 3.3134515285491943 -2.2497942447662354
-5.412089824676514 3.20658802986145 -2.2495992183685303
-5.533876895904541 2.9891772270202637 -2.2492027282714844
-5.591503620147705 2.878718137741089 -2.2490017414093018
-5.647119045257568 2.767240524291992 -2.248877763748169
-5.705400466918945 2.6569762229919434 -2.250687599182129
-5.954316139221191 2.630650520324707 -2.327857732772827
-4.365409851074219 3.930093288421631 -2.2509732246398926
-4.442080020904541 3.842576265335083 -2.2508113384246826
-4.516982555389404 3.753556966781616 -2.2506468296051025
-4.661425590515137 3.5711669921875 -2.2503106594085693
-4.730888366699219 3.477867364883423 -2.250138998031616
-4.864169597625732 3.2872440814971924 -2.249789237976074
-4.927939414978027 3.189997434616089 -2.2496111392974854
-4.989765644073486 3.0915112495422363 -2.2494311332702637
-5.049609184265137 2.9918224811553955 -2.24924898147583
-5.163398265838623 2.789062976837158 -2.2489230632781982
-5.217617034912109 2.686229705810547 -2.248918056488037
-5.384785175323486 2.638690233230591 -2.2979843616485596
-5.631025314331055 2.622337579727173 -2.3804304599761963
-5.731601238250732 2.5322587490081787 -2.4012703895568848
-4.158505916595459 3.5972771644592285 -2.2504003047943115
-4.228662014007568 3.5139551162719727 -2.250246286392212
-4.297138690948486 3.429265022277832 -2.2500898838043213
-4.428964614868164 3.255913019180298 -2.2497711181640625
-4.492255687713623 3.167315721511841 -2.2496085166931152
-4.613515377044678 2.986459255218506 -2.249276876449585
-4.895976543426514 2.6446423530578613 -2.2774698734283447
-5.366777420043945 2.3710734844207764 -2.4013049602508545
-3.8371875286102295 3.4545445442199707 -2.2501745223999023
-3.904609203338623 3.377645254135132 -2.2500321865081787
-3.9704978466033936 3.2994260787963867 -2.249887704849243
-4.034804821014404 3.219918727874756 -2.2497410774230957
-4.097529411315918 3.1391594409942627 -2.2495923042297363
-4.158632755279541 3.05717396736145 -2.249441385269165
-4.218085765838623 2.9739983081817627 -2.24928879737854
-4.386689186096191 2.717869758605957 -2.2489960193634033
-4.656347751617432 2.6356279850006104 -2.331846237182617
-4.847802639007568 2.6186773777008057 -2.401352882385254
-4.898876667022705 2.5221264362335205 -2.40134859085083
-4.994921684265137 2.326104164123535 -2.4013400077819824
-3.612246036529541 3.2520408630371094 -2.2498342990875244
-3.6757421493530273 3.179661750793457 -2.2497003078460693
-3.8573925495147705 2.955188512802124 -2.249286413192749
-3.914931535720825 2.878021240234375 -2.2491445541381836
-3.9709668159484863 2.7997734546661377 -2.2490346431732178
-4.025634765625 2.7205607891082764 -2.2490296363830566
-4.100048542022705 2.6540777683258057 -2.2607786655426025
-4.260351657867432 2.6395890712738037 -2.3198764324188232
-4.612460613250732 2.374666690826416 -2.4013757705688477
-4.658584117889404 2.2828314304351807 -2.401371717453003
-4.702831745147705 2.1901042461395264 -2.4013679027557373
-3.346992015838623 3.135464906692505 -2.249650239944458
-3.4681639671325684 3.000103712081909 -2.249399423599243
-3.5267186164855957 2.930647611618042 -2.2492711544036865
-3.583857297897339 2.86004638671875 -2.249140977859497
-3.6396872997283936 2.7884063720703125 -2.249065637588501
-3.694208860397339 2.7157554626464844 -2.249060869216919
-3.909550666809082 2.6421122550964355 -2.3145933151245117
-4.063417911529541 2.630366086959839 -2.3743631839752197
-4.161601543426514 2.578411817550659 -2.4014172554016113
-4.211855411529541 2.495465040206909 -2.4014129638671875
-4.260448932647705 2.411540985107422 -2.4014086723327637
-4.352617263793945 2.2408909797668457 -2.401400566101074
-4.396142482757568 2.1542272567749023 -2.4013967514038086
-4.437939167022705 2.066725969314575 -2.401393175125122
-3.1642870903015137 2.9643101692199707 -2.2493622303009033
-3.27886700630188 2.836353063583374 -2.2491252422332764
-3.334365129470825 2.770808696746826 -2.249094247817993
-3.3885838985443115 2.7042088508605957 -2.249089479446411
-3.5957517623901367 2.6433775424957275 -2.3152225017547607
-3.835331916809082 2.591949939727783 -2.4014477729797363
-3.9349706172943115 2.4379961490631104 -2.4014389514923096
-4.028437614440918 2.280212879180908 -2.40143084526062
-4.072793006896973 2.1999669075012207 -2.4014267921447754
-4.115585803985596 2.1188549995422363 -2.401423215866089
-4.15673828125 2.036914110183716 -2.4014194011688232
-4.196259498596191 1.9541765451431274 -2.401416063308716
-4.234150409698486 1.870668888092041 -2.4014127254486084
-3.1924901008605957 2.652891159057617 -2.2734405994415283
-3.437617063522339 2.633593797683716 -2.3718152046203613
-3.5327343940734863 2.5970611572265625 -2.4014761447906494
-3.6328125 2.455087900161743 -2.4014673233032227
-3.7271971702575684 2.3092644214630127 -2.401458978652954
-3.772207021713257 2.234977960586548 -2.4014549255371094
-3.898271322250366 2.0069775581359863 -2.4014437198638916
-3.9746971130371094 1.850993037223816 -2.401437282562256
-2.8476269245147705 2.667664051055908 -2.2528040409088135
-3.251152276992798 2.594536781311035 -2.4015026092529297
-3.3019042015075684 2.5296263694763184 -2.4014980792999268
-3.3513574600219727 2.4637200832366943 -2.401493549346924
-3.3995018005371094 2.3968498706817627 -2.4014892578125
-3.446298837661743 2.32904052734375 -2.4014852046966553
-3.4917478561401367 2.2603142261505127 -2.4014811515808105
-3.5785253047943115 2.1202306747436523 -2.4014735221862793
-3.6596875190734863 1.9768182039260864 -2.4014663696289062
-3.735107421875 1.830304503440857 -2.4014596939086914
-3.804814338684082 1.6809215545654297 -2.4014534950256348
