ply
format ascii 1.0
element vertex 337
property float x
property float y
property float z
end_header
-17.246742248535156 21.060272216796875 4.799803733825684
-17.246740341186523 20.204254150390625 4.684001445770264
-17.24673843383789 18.608869552612305 4.473774433135986
-17.383474349975586 18.004751205444336 4.4129557609558105
-17.246734619140625 15.165680885314941 4.049564838409424
-17.246732711791992 13.959452629089355 3.9123759269714355
-17.246732711791992 13.386000633239746 3.8495635986328125
-17.246728897094727 12.830458641052246 3.790292263031006
-17.246728897094727 12.291547775268555 3.734351634979248
-17.540313720703125 10.455129623413086 3.600576639175415
-17.246742248535156 20.20425796508789 4.069502353668213
-17.38347625732422 18.00474739074707 3.834009885787964
-17.258142471313477 16.472667694091797 3.654862642288208
-17.246736526489258 15.801610946655273 3.583376407623291
-17.246734619140625 14.55217456817627 3.456953763961792
-17.308530807495117 13.433964729309082 3.356517791748047
-17.309167861938477 12.876906394958496 3.304960250854492
-17.310388565063477 11.811532974243164 3.2103703022003174
-17.591217041015625 10.48547077178955 3.13729190826416
-18.932844161987305 10.261696815490723 3.2990355491638184
-17.246742248535156 20.20424461364746 3.4592254161834717
-17.246740341186523 19.38823890686035 3.3791093826293945
-17.425046920776367 18.04780387878418 3.2668449878692627
-17.46458625793457 16.66972541809082 3.143932342529297
-17.30648422241211 15.21822738647461 3.001041889190674
-17.30718994140625 14.603188514709473 2.9488377571105957
-17.30786895751953 14.008925437927246 2.8996057510375977
-17.309167861938477 12.876903533935547 2.8093371391296387
-17.310388565063477 11.811532974243164 2.7289319038391113
-17.354747772216797 10.830756187438965 2.663940906524658
-17.30560302734375 18.672382354736328 2.733793258666992
-17.425045013427734 18.047801971435547 2.6938841342926025
-17.812646865844727 17.710878372192383 2.69732666015625
-17.306482315063477 15.218219757080078 2.4746975898742676
-17.30786895751953 14.00893497467041 2.3910529613494873
-17.30852699279785 13.433966636657715 2.352755308151245
-17.24673080444336 12.830458641052246 2.3082587718963623
-18.818878173828125 10.199929237365723 2.2985434532165527
-17.24673843383789 19.38823699951172 2.196659564971924
-17.38347625732422 18.004751205444336 2.1186113357543945
-17.76679801940918 17.665294647216797 2.120929479598999
-17.246736526489258 15.801610946655273 1.980116367340088
-17.246734619140625 14.552177429199219 1.9102582931518555
-17.246732711791992 13.386005401611328 1.8481366634368896
-17.246728897094727 12.291549682617188 1.7928245067596436
-17.54030990600586 10.455134391784668 1.7286006212234497
-18.006717681884766 10.240800857543945 1.7535945177078247
-17.246742248535156 21.060283660888672 1.687985897064209
-17.76679801940918 17.665294647216797 1.5536326169967651
-17.258159637451172 16.472694396972656 1.4794468879699707
-17.246736526489258 15.801610946655273 1.450485348701477
-17.246732711791992 13.959443092346191 1.3758964538574219
-17.246726989746094 11.25902271270752 1.2771943807601929
-17.54030990600586 10.455134391784668 1.2662440538406372
-18.00672149658203 10.240800857543945 1.2845518589019775
-18.818878173828125 10.199929237365723 1.3273518085479736
-17.837162017822266 19.24591827392578 1.0346943140029907
-17.837160110473633 17.025331497192383 0.9722965955734253
-17.837158203125 16.342557907104492 0.9539070129394531
-17.837158203125 15.684863090515137 0.9365831017494202
-17.837156295776367 14.437326431274414 0.9048536419868469
-17.837154388427734 13.844255447387695 0.8903266787528992
-19.231929779052734 13.122673034667969 0.9180494546890259
-19.99428367614746 12.478034019470215 0.9293281435966492
-20.230636596679688 12.058737754821777 0.9286747574806213
-17.837162017822266 20.051965713500977 0.45333144068717957
-17.837158203125 18.474634170532227 0.4337858557701111
-17.837158203125 17.735246658325195 0.42488935589790344
-17.837162017822266 17.02533721923828 0.41652023792266846
-17.837160110473633 16.342557907104492 0.40864211320877075
-17.837156295776367 14.43734073638916 0.38762831687927246
-17.837154388427734 13.844255447387695 0.38140517473220825
-18.168304443359375 13.51605224609375 0.38250473141670227
-19.231929779052734 13.12267017364502 0.39328140020370483
-20.059391021728516 12.518671989440918 0.39940932393074036
-17.837158203125 18.47464370727539 -0.14458465576171875
-17.837160110473633 17.025333404541016 -0.13883072137832642
-17.837158203125 16.342557907104492 -0.13620467483997345
-17.837158203125 15.050346374511719 -0.13139937818050385
-17.837156295776367 14.437328338623047 -0.129200741648674
-18.16830825805664 13.51605224609375 -0.1274929791688919
-18.827316284179688 13.418017387390137 -0.13016647100448608
-19.23193359375 13.122668266296387 -0.13108490407466888
-20.059391021728516 12.518671989440918 -0.13312728703022003
-20.230634689331055 12.058737754821777 -0.13260208070278168
-17.837162017822266 17.025341033935547 -0.6943197250366211
-18.16830825805664 13.51605224609375 -0.6376166939735413
-20.059391021728516 12.518669128417969 -0.665796160697937
-20.23063850402832 12.058732986450195 -0.6631686091423035
-17.837162017822266 20.051971435546875 -1.3610388040542603
-17.837158203125 17.735254287719727 -1.2756459712982178
-17.837158203125 15.684858322143555 -1.204588532447815
-17.837156295776367 15.050346374511719 -1.1835861206054688
-17.837154388427734 13.844255447387695 -1.145095944404602
-18.16830825805664 13.51605224609375 -1.148396611213684
-18.827316284179688 13.418017387390137 -1.1724860668182373
-20.05938720703125 12.518669128417969 -1.1991498470306396
-20.230634689331055 12.058732986450195 -1.1944173574447632
-20.697290420532227 11.770983695983887 -1.2075254917144775
-10.53204345703125 5.708423137664795 -0.6075347661972046
-17.837162017822266 20.051969528198242 -1.967775583267212
-17.837158203125 17.735248565673828 -1.8443154096603394
-17.837160110473633 17.025341033935547 -1.8079912662506104
-17.837156295776367 15.050346374511719 -1.7112154960632324
-17.837156295776367 14.437328338623047 -1.6825804710388184
-18.82731819152832 13.418017387390137 -1.6951709985733032
-19.2319278717041 13.122673034667969 -1.7071179151535034
-19.642452239990234 12.823009490966797 -1.7199560403823853
-20.05938720703125 12.518669128417969 -1.7337173223495483
-10.53060531616211 5.707644462585449 -0.8782473802566528
-14.716663360595703 17.970767974853516 -2.2299787998199463
-15.433337211608887 17.349668502807617 -2.229297399520874
-15.781984329223633 17.0284366607666 -2.228965997695923
-16.459228515625 16.36520004272461 -2.2283220291137695
-16.78755760192871 16.023517608642578 -2.2280099391937256
-17.108850479125977 15.675288200378418 -2.2277045249938965
-18.02927017211914 14.592839241027832 -2.2268292903900146
-18.16830825805664 13.5160493850708 -2.173978567123413
-18.881938934326172 13.456923484802246 -2.226022481918335
-19.15054702758789 13.067145347595215 -2.225769519805908
-20.144271850585938 11.45647144317627 -2.2248377799987793
-10.529165267944336 5.7068634033203125 -1.1497840881347656
-11.908504486083984 14.541671752929688 -2.2326462268829346
-12.201399803161621 14.293723106384277 -2.232367992401123
-12.489157676696777 14.039909362792969 -2.2320942878723145
-13.320537567138672 13.244384765625 -2.231306552886963
-13.84702205657959 12.686725616455078 -2.2308099269866943
-14.10163402557373 12.40004825592041 -2.2305705547332764
-15.502009391784668 10.57761001586914 -2.229248046875
-15.918149948120117 9.934202194213867 -2.22886061668396
-16.116329193115234 9.606348991394043 -2.22867751121521
-16.307781219482422 9.27458381652832 -2.2285006046295166
-10.527716636657715 5.70607852935791 -1.4224190711975098
-9.991718292236328 12.201064109802246 -2.234475612640381
-10.479345321655273 11.780556678771973 -2.234015941619873
-10.949324607849121 11.340676307678223 -2.2335703372955322
-11.619711875915527 10.646105766296387 -2.2329349517822266
-11.833588600158691 10.405710220336914 -2.2327322959899902
-12.042550086975098 10.161046981811523 -2.2325360774993896
-12.44521713256836 9.659317970275879 -2.232161521911621
-7.398496627807617 5.504014015197754 -1.3065561056137085
-13.187630653381348 8.609163284301758 -2.2314670085906982
-13.68701171875 7.7840895652771 -2.2309939861297607
-10.0730562210083 5.459654808044434 -1.623405933380127
-8.598822593688965 10.500165939331055 -2.2358040809631348
-8.810622215270996 10.321486473083496 -2.2356033325195312
-9.01873779296875 10.13856315612793 -2.2354066371917725
-9.423514366149902 9.760283470153809 -2.2350282669067383
-9.812522888183594 9.365909576416016 -2.2346649169921875
-5.862443923950195 5.371229648590088 -1.3098405599594116
-10.185073852539062 8.9561128616333 -2.234314441680908
-10.365008354187012 8.745635986328125 -2.234144926071167
-10.540645599365234 8.531558990478516 -2.2339794635772705
-11.198390007019043 7.6410393714904785 -2.2333426475524902
-8.38089370727539 5.471227169036865 -1.6488219499588013
-8.812400817871094 5.49965238571167 -1.7112685441970825
-10.389827728271484 5.908915042877197 -1.9690566062927246
-10.390764236450195 5.631849765777588 -1.9470312595367432
-4.404153823852539 5.377993583679199 -1.3065561056137085
-7.9082932472229 8.890242576599121 -2.2364754676818848
-8.087526321411133 8.726273536682129 -2.2363064289093018
-8.263379096984863 8.558704376220703 -2.236140489578247
-8.435794830322266 8.387590408325195 -2.2359778881073
-5.726951599121094 5.466307640075684 -1.4880808591842651
-5.862442970275879 5.371229648590088 -1.4944748878479004
-6.217427730560303 5.467217445373535 -1.5561847686767578
-9.089481353759766 7.669291019439697 -2.235349416732788
-9.251386642456055 7.48818302154541 -2.237161159515381
-7.31243371963501 5.439988136291504 -1.7130792140960693
-9.893489837646484 6.750709533691406 -2.251244068145752
-10.031211853027344 6.548586845397949 -2.251683235168457
-10.294304847717285 6.136057376861572 -2.2525813579559326
-4.387765884399414 5.357982635498047 -1.463879108428955
-7.351253032684326 7.614038467407227 -2.2371878623962402
-7.6870012283325195 7.337137699127197 -2.2462379932403564
-5.862442970275879 5.371229648590088 -1.680680513381958
-8.279231071472168 6.7011895179748535 -2.251485586166382
-7.312433242797852 5.439988136291504 -1.9265164136886597
-8.678229331970215 6.184879779815674 -2.2526040077209473
-8.80419635772705 6.007441997528076 -2.2529892921447754
-8.926566123962402 5.827449321746826 -2.253380537033081
-9.372191429138184 5.079777240753174 -2.253373622894287
-6.6531662940979 6.890951156616211 -2.251194715499878
-7.325768947601318 6.181221008300781 -2.2527220249176025
-7.810230731964111 5.5662665367126465 -2.2540535926818848
-8.030427932739258 5.242439270019531 -2.2539072036743164
-8.13425064086914 5.0764312744140625 -2.2534801959991455
-8.23462963104248 4.908358573913574 -2.2530484199523926
-8.331503868103027 4.7383012771606445 -2.2526121139526367
-8.4248628616333 4.566317558288574 -2.252171039581299
-5.646694660186768 6.615001678466797 -2.251891851425171
-5.781220436096191 6.499053001403809 -2.2521393299102783
-6.170342445373535 6.1350908279418945 -2.2529189586639404
-6.295066833496094 6.008561134338379 -2.253190755844116
-5.862443923950195 5.371229648590088 -2.058657169342041
-6.536739349365234 5.747993469238281 -2.2537519931793213
-6.653588771820068 5.6140618324279785 -2.2540411949157715
-6.87789249420166 5.338255882263184 -2.2542550563812256
-6.984297275543213 5.195873260498047 -2.253887176513672
-7.087754249572754 5.051363945007324 -2.253514289855957
-7.188198566436768 4.904783248901367 -2.25313663482666
-7.37992000579834 4.605665683746338 -2.2523670196533203
-7.64398193359375 4.1430792808532715 -2.2511799335479736
-5.290497779846191 5.9474101066589355 -2.253408670425415
-5.646432876586914 5.614177703857422 -2.254122734069824
-5.760506629943848 5.498330593109131 -2.2543716430664062
-5.871789455413818 5.3797736167907715 -2.254452705383301
-6.0847954750061035 5.134126663208008 -2.2538156509399414
-6.187445640563965 5.008100986480713 -2.2534892559051514
-6.287485122680664 4.880013942718506 -2.2531580924987793
-6.479518890380859 4.617878437042236 -2.25248122215271
-6.660572528839111 4.348160743713379 -2.251786708831787
-6.910964012145996 3.930410623550415 -2.250713348388672
-6.9889750480651855 3.7880680561065674 -2.2504632472991943
-4.758400917053223 5.5743865966796875 -2.2542836666107178
-5.692445755004883 4.60745096206665 -2.252528190612793
-6.1280999183654785 4.000551700592041 -2.250962257385254
-6.359992027282715 3.6170654296875 -2.2504308223724365
-6.432448387145996 3.486422061920166 -2.250405788421631
-4.2967448234558105 5.246817111968994 -2.2542648315429688
-4.506415843963623 5.0659637451171875 -2.253790855407715
-4.708434104919434 4.876704692840576 -2.253296375274658
-4.902474403381348 4.679347991943359 -2.2527823448181152
-5.088212966918945 4.474251747131348 -2.2522494792938232
-5.350586891174316 4.152846813201904 -2.251417398452759
-5.433569431304932 4.042227268218994 -2.251131534576416
-5.514254093170166 3.9299473762512207 -2.2508418560028076
-5.592609882354736 3.8160502910614014 -2.2505483627319336
-5.669076442718506 3.700906991958618 -2.2504472732543945
-5.743408203125 3.5843560695648193 -2.250424861907959
-3.9923179149627686 4.875099182128906 -2.2533586025238037
-4.187208652496338 4.707128047943115 -2.2529184818267822
-4.282007217407227 4.6201934814453125 -2.2526910305023193
-4.374985218048096 4.531343936920166 -2.2524592876434326
-4.555362224578857 4.3480353355407715 -2.251981735229492
-4.81138801574707 4.059675216674805 -2.2512331008911133
-4.971961498260498 3.8589770793914795 -2.25071382522583
-5.198156833648682 3.546915292739868 -2.250417947769165
-5.338586330413818 3.3317081928253174 -2.2503926753997803
-5.688386917114258 3.23510479927063 -2.3401739597320557
-5.907190799713135 3.2017321586608887 -2.4027926921844482
-3.7241978645324707 4.547680377960205 -2.252560615539551
-3.8159258365631104 4.470291614532471 -2.2523577213287354
-3.906041145324707 4.391047954559326 -2.252150297164917
-3.994499921798706 4.309980869293213 -2.2519381046295166
-4.249592304229736 4.056182861328125 -2.251276731491089
-4.410736083984375 3.8785204887390137 -2.2508151531219482
-4.488533020019531 3.787261962890625 -2.2505786418914795
-4.56463623046875 3.694612979888916 -2.250446319580078
-4.711596965789795 3.505129337310791 -2.2504100799560547
-4.971352577209473 3.2454044818878174 -2.275134801864624
-5.450284957885742 3.0996813774108887 -2.4027926921844482
-3.5718774795532227 4.184393882751465 -2.251661777496338
-3.6562511920928955 4.1102399826049805 -2.25146746635437
-3.820317268371582 3.956848621368408 -2.2510669231414795
-4.054243564605713 3.7145495414733887 -2.250450611114502
-4.129214286804199 3.630976438522339 -2.250434637069702
-4.202462196350098 3.5458903312683105 -2.250418186187744
-4.273947238922119 3.459324836730957 -2.250401496887207
-4.549380779266357 3.242286205291748 -2.2864224910736084
-4.736064434051514 3.231598377227783 -2.3465964794158936
-4.980546951293945 3.1082518100738525 -2.4027926921844482
-5.0429511070251465 3.0059192180633545 -2.4027926921844482
-5.103268146514893 2.902336359024048 -2.4027926921844482
-5.161436080932617 2.797538995742798 -2.4027926921844482
-3.2727720737457275 3.9964349269866943 -2.2512171268463135
-3.3534178733825684 3.928469657897949 -2.2510387897491455
-3.5104246139526367 3.787675142288208 -2.2506704330444336
-3.586719274520874 3.7149040699005127 -2.2504804134368896
-3.6617376804351807 3.6408276557922363 -2.250436544418335
-3.878509521484375 3.411205291748047 -2.251332998275757
-3.946484327316284 3.329902172088623 -2.2503926753997803
-4.022005081176758 3.255404472351074 -2.255082607269287
-4.172551155090332 3.2385008335113525 -2.3019180297851562
-4.4897637367248535 3.199796676635742 -2.4027926921844482
-4.61663818359375 3.01383900642395 -2.4027926921844482
-4.6772074699401855 2.918954372406006 -2.4027926921844482
-4.8471360206604 2.627164840698242 -2.4027926921844482
-3.080606698989868 3.7617814540863037 -2.250645160675049
-3.231301784515381 3.6325395107269287 -2.2504353523254395
-3.304779052734375 3.565790891647339 -2.250422477722168
-3.37685227394104 3.49755859375 -2.2504093647003174
-3.4475438594818115 3.427863121032715 -2.2503960132598877
-3.516763210296631 3.356757164001465 -2.2503926753997803
-3.5846166610717773 3.284257173538208 -2.2503926753997803
-3.8329081535339355 3.2340710163116455 -2.321376085281372
-3.9843602180480957 3.224931001663208 -2.3727223873138428
-4.100695610046387 3.1827428340911865 -2.4027926921844482
-4.16480016708374 3.098358154296875 -2.4027926921844482
-4.2878336906433105 2.9257524013519287 -2.4027926921844482
-4.346645355224609 2.8375988006591797 -2.4027926921844482
-4.40369176864624 2.748262882232666 -2.4027926921844482
-4.458898067474365 2.657783031463623 -2.4027926921844482
-4.512215614318848 2.5661962032318115 -2.4027926921844482
-4.563675880432129 2.473536968231201 -2.4027926921844482
-2.9067370891571045 3.549466371536255 -2.2504196166992188
-2.978580951690674 3.4893620014190674 -2.2504079341888428
-3.0491905212402344 3.4278032779693604 -2.250396251678467
-3.186577796936035 3.3004631996154785 -2.2503926753997803
-3.3913700580596924 3.2370121479034424 -2.2996904850006104
-3.80751633644104 3.081789493560791 -2.4027926921844482
-3.989046573638916 2.8429346084594727 -2.4027926921844482
-4.1017560958862305 2.6777141094207764 -2.4027926921844482
-4.155572414398193 2.593411922454834 -2.4027926921844482
-4.2076568603515625 2.508028507232666 -2.4027926921844482
-4.2579827308654785 2.4216039180755615 -2.4027926921844482
-4.306402683258057 2.334165096282959 -2.4027926921844482
-2.748387336730957 3.35610032081604 -2.2503926753997803
-2.8163347244262695 3.2992875576019287 -2.2503926753997803
-2.8916375637054443 3.250685453414917 -2.257049322128296
-3.0008862018585205 3.237821578979492 -2.2901861667633057
-3.415015697479248 3.1288554668426514 -2.4027926921844482
-3.47817063331604 3.0584826469421387 -2.4027926921844482
-3.600132942199707 2.913936138153076 -2.4027926921844482
-3.658856153488159 2.8398258686065674 -2.4027926921844482
-3.7161083221435547 2.7645349502563477 -2.4027926921844482
-3.771739959716797 2.6880900859832764 -2.4027926921844482
-3.825853109359741 2.610525369644165 -2.4027926921844482
-2.650627374649048 3.2367498874664307 -2.291370391845703
-2.867861270904541 3.2239580154418945 -2.363297462463379
-3.173475980758667 3.029042959213257 -2.4027926921844482
-3.23465633392334 2.9636218547821045 -2.4027926921844482
-3.5198521614074707 2.618539333343506 -2.4027926921844482
-3.6238090991973877 2.472663402557373 -2.4027926921844482
-3.721613645553589 2.3226611614227295 -2.4027926921844482
-3.768376350402832 2.24619197845459 -2.4027926921844482
-3.856934070587158 2.090479612350464 -2.4027926921844482
-2.766052722930908 3.109523296356201 -2.4027926921844482
-2.828972101211548 3.052402973175049 -2.4027926921844482
-2.890700101852417 2.994011878967285 -2.4027926921844482
-3.01051926612854 2.873502731323242 -2.4027926921844482
-3.1807775497436523 2.6838250160217285 -2.4027926921844482
-3.287689685821533 2.5517332553863525 -2.4027926921844482
-3.4377269744873047 2.3456926345825195 -2.4027926921844482
-3.4847967624664307 2.2750182151794434 -2.4027926921844482
-3.574876546859741 2.130851984024048 -2.4027926921844482
-3.6588804721832275 1.9831335544586182 -2.4027926921844482
