ply
format ascii 1.0
element vertex 300
property float x
property float y
property float z
end_header
-7.342206954956055 4.875878810882568 1.5541573762893677
-33.25593185424805 17.540773391723633 6.629602909088135
-7.342231273651123 4.875892162322998 1.3502835035324097
-33.20527267456055 18.379467010498047 5.814116477966309
-33.53374099731445 16.831745147705078 5.747997283935547
-7.293388366699219 5.058349609375 1.1558196544647217
-32.18788146972656 17.81633758544922 4.790782928466797
-33.442138671875 16.78575897216797 4.872661590576172
-7.342275142669678 4.875929832458496 0.9464776515960693
-32.52391052246094 16.324872970581055 3.9077305793762207
-7.293490886688232 5.05842399597168 0.7513750791549683
-33.08829116821289 19.19655418395996 3.2382774353027344
-32.39449691772461 17.93069839477539 3.1343400478363037
-32.02738952636719 16.892786026000977 3.0652239322662354
-33.5076789855957 15.9808931350708 3.1426074504852295
-7.293544769287109 5.058460712432861 0.5504064559936523
-7.342329025268555 4.875960350036621 0.5466061234474182
-33.00749206542969 19.14968490600586 2.3663277626037598
-32.58942413330078 18.038585662841797 2.309800148010254
-33.08633041381836 16.6071720123291 2.2956442832946777
-33.39560317993164 15.108390808105469 2.2729332447052
-7.293593406677246 5.058495998382568 0.3499941825866699
-7.342353343963623 4.875977516174316 0.34752073884010315
-30.81832504272461 17.87962532043457 1.4048986434936523
-32.57612991333008 18.031232833862305 1.468151569366455
-32.661712646484375 17.22735595703125 1.4560482501983643
-31.518070220947266 15.8200044631958 1.390560269355774
-7.342377662658691 4.875994682312012 0.14884917438030243
-30.71103858947754 19.513906478881836 0.6146292090415955
-31.15230941772461 18.923297882080078 0.6156976222991943
-37.43026351928711 16.933691024780273 0.6939572095870972
-37.70668411254883 32.22929382324219 -0.2792767286300659
-7.29369592666626 5.058565616607666 -0.049972839653491974
-7.34240198135376 4.876009464263916 -0.04959716647863388
-32.46381378173828 28.901283264160156 -1.223873257637024
-33.74566650390625 28.843671798706055 -1.2500076293945312
-39.72128677368164 28.752418518066406 -1.3807361125946045
-7.293745040893555 5.058603286743164 -0.24993498623371124
-32.60708236694336 29.028810501098633 -2.2140088081359863
-32.90180587768555 28.12238883972168 -2.1950523853302
-7.342455863952637 4.876040935516357 -0.44695067405700684
-33.071170806884766 21.013545989990234 -1.9871140718460083
-32.19830322265625 18.68022918701172 -1.8877456188201904
-34.27717208862305 18.9727783203125 -1.986863613128662
-32.1982421875 15.35638427734375 -1.8091171979904175
-41.369354248046875 14.828351974487305 -2.2287209033966064
-41.92184066772461 13.144152641296387 -2.2280805110931396
-24.414737701416016 21.73550033569336 -2.3967597484588623
-24.847204208374023 21.237817764282227 -2.39667010307312
-25.26958465576172 20.731624603271484 -2.396582841873169
-26.431320190429688 19.13241195678711 -2.3924384117126465
-7.293847560882568 5.058672904968262 -0.6508352756500244
-7.342480182647705 4.876059532165527 -0.6462347507476807
-26.45281982421875 16.068614959716797 -2.2693800926208496
-26.774913787841797 14.82019329071045 -2.2438666820526123
-27.067665100097656 14.276792526245117 -2.2438058853149414
-27.349308013916016 13.727561950683594 -2.2437474727630615
-27.619991302490234 13.17286205291748 -2.2436909675598145
-28.127450942993164 12.047680854797363 -2.2435853481292725
-28.36408233642578 11.477676391601562 -2.2435362339019775
-28.58919906616211 10.903034210205078 -2.2434892654418945
-28.800174713134766 10.32308578491211 -2.2432501316070557
-29.18732261657715 9.151371955871582 -2.2428059577941895
-18.655519485473633 16.60828399658203 -2.3979392051696777
-18.98615837097168 16.22817611694336 -2.3978707790374756
-19.624130249023438 15.448420524597168 -2.3977386951446533
-20.23011016845703 14.643634796142578 -2.397613048553467
-7.342499732971191 4.876076698303223 -0.8461666703224182
-21.077091217041016 13.392470359802246 -2.397437572479248
-21.59909439086914 12.530975341796875 -2.397329092025757
-21.846965789794922 12.092524528503418 -2.39727783203125
-22.536916732788086 10.74858283996582 -2.397134304046631
-22.748729705810547 10.291669845581055 -2.397090196609497
-22.95124053955078 9.830584526062012 -2.397048234939575
-23.144445419311523 9.365513801574707 -2.397007942199707
-23.667394638061523 7.948378562927246 -2.3968987464904785
-15.08233642578125 13.427210807800293 -2.3986711502075195
-15.349716186523438 13.11996841430664 -2.398615598678589
-15.61086654663086 12.807422637939453 -2.398561716079712
-16.35573959350586 11.839167594909668 -2.398407459259033
-7.34252405166626 4.876092433929443 -1.046978235244751
-17.25537109375 10.481674194335938 -2.3982207775115967
-17.663415908813477 9.776887893676758 -2.3981361389160156
-17.856727600097656 9.41849422454834 -2.3980958461761475
-18.712871551513672 7.572250843048096 -2.3979177474975586
-18.86153221130371 7.1932053565979 -2.3978867530822754
-19.135868072509766 6.42652702331543 -2.397831678390503
-13.303966522216797 10.473084449768066 -2.399033784866333
-14.289567947387695 9.079651832580566 -2.398829460144043
-14.469574928283691 8.789459228515625 -2.398792266845703
-14.811845779418945 8.19851016998291 -2.398721218109131
-15.130019187927246 7.594277381896973 -2.3986549377441406
-15.692089080810547 6.349881649017334 -2.398538827896118
-15.816794395446777 6.032035827636719 -2.398513078689575
-15.935080528259277 5.711742877960205 -2.398488759994507
-16.04688262939453 5.389132976531982 -2.398465633392334
-11.260476112365723 9.238290786743164 -2.3994529247283936
-11.623527526855469 8.7763671875 -2.3993775844573975
-12.292311668395996 7.810584545135498 -2.3992390632629395
-12.447172164916992 7.560964107513428 -2.3992068767547607
-12.596994400024414 7.308297157287598 -2.3991758823394775
-12.881156921386719 6.794146537780762 -2.3991169929504395
-13.015409469604492 6.532880783081055 -2.3990890979766846
-13.144389152526855 6.268988132476807 -2.399062156677246
-13.268014907836914 6.002536296844482 -2.3990366458892822
-13.499030113220215 5.462450981140137 -2.398988962173462
-13.89487075805664 4.356593608856201 -2.398906946182251
-9.089438438415527 7.769079208374023 -2.247498035430908
-9.244147300720215 7.584062099456787 -2.2474660873413086
-9.395099639892578 7.395970344543457 -2.2474348545074463
-9.685481071472168 7.010869026184082 -2.2473747730255127
-7.342602252960205 4.876142501831055 -1.6566808223724365
-11.16900634765625 6.182161808013916 -2.399468421936035
-11.291291236877441 5.955568790435791 -2.3994431495666504
-11.409001350402832 5.726576805114746 -2.399418592453003
-11.522062301635742 5.495245456695557 -2.399394989013672
-11.630444526672363 5.261683464050293 -2.3993725776672363
-11.83297348022461 4.788269996643066 -2.3993306159973145
-12.100595474243164 4.063827037811279 -2.399275541305542
-12.180024147033691 3.8189146518707275 -2.399259328842163
-8.220751762390137 6.744443416595459 -2.247675657272339
-8.974235534667969 5.702249526977539 -2.2475197315216064
-9.087311744689941 5.520033836364746 -2.2474961280822754
-9.196703910827637 5.335582256317139 -2.2474734783172607
-9.302360534667969 5.148952484130859 -2.2474515438079834
-9.404226303100586 4.960241794586182 -2.2474303245544434
-9.596940994262695 4.577090740203857 -2.2475054264068604
-10.343031883239746 4.6792497634887695 -2.399636745452881
-10.606698989868164 4.045109272003174 -2.3995821475982666
-10.68618106842041 3.830331325531006 -2.3995659351348877
-10.831826210021973 3.3962085247039795 -2.3995354175567627
-8.58065414428711 7.639063358306885 -2.699998378753662
-7.515065670013428 5.915977478027344 -2.2478201389312744
-7.342656135559082 4.876175403594971 -2.071518898010254
-8.272221565246582 4.799228191375732 -2.247663736343384
-8.458903312683105 4.4616289138793945 -2.2476251125335693
-8.790695190429688 3.765272855758667 -2.2475569248199463
-9.540661811828613 3.6385107040405273 -2.39980149269104
-9.612048149108887 3.4453227519989014 -2.3997867107391357
-6.712343692779541 5.506918907165527 -2.2479922771453857
-6.821972370147705 5.370362281799316 -2.247968912124634
-6.92882776260376 5.231630802154541 -2.24794602394104
-7.134047508239746 4.947833061218262 -2.247903347015381
-7.327646255493164 4.65601921081543 -2.2478630542755127
-7.4200119972229 4.507241725921631 -2.2478439807891846
-7.509340763092041 4.356639862060547 -2.2478256225585938
-7.595627307891846 4.204258441925049 -2.247807741165161
-7.678811073303223 4.050185680389404 -2.247790575027466
-7.758886337280273 3.8944523334503174 -2.2477738857269287
-7.835795879364014 3.737152576446533 -2.247758388519287
-7.909535884857178 3.578314781188965 -2.2477431297302246
-8.047304153442383 3.2563793659210205 -2.2477147579193115
-8.111298561096191 3.093395948410034 -2.247701644897461
-8.844594955444336 2.7731292247772217 -2.399946928024292
-6.036694049835205 5.159782409667969 -2.248138666152954
-6.139472484588623 5.036928653717041 -2.248117208480835
-6.432661056518555 4.656301975250244 -2.2480554580688477
-6.70229959487915 4.258669376373291 -2.2479984760284424
-6.868486404418945 3.9848437309265137 -2.2479636669158936
-6.94741678237915 3.845470428466797 -2.2479472160339355
-7.299042701721191 3.126354217529297 -2.247873544692993
-7.419103622436523 2.829415798187256 -2.2478485107421875
-7.981034755706787 2.8607048988342285 -2.400129795074463
-8.037070274353027 2.6991424560546875 -2.400118112564087
-5.469135761260986 4.868959903717041 -2.252225399017334
-5.565698146820068 4.757195949554443 -2.252007484436035
-5.751874923706055 4.527971267700195 -2.2515628337860107
-5.928603172302246 4.291445732116699 -2.2511072158813477
-6.088788986206055 4.043502330780029 -2.248126745223999
-6.464731216430664 3.409810781478882 -2.2480485439300537
-6.658979415893555 3.012568235397339 -2.2480077743530273
-6.718344688415527 2.877628803253174 -2.247995138168335
-6.774985313415527 2.741533041000366 -2.247983455657959
-7.34609842300415 2.633122444152832 -2.400264024734497
-7.446247577667236 2.3346948623657227 -2.400243043899536
-5.059379577636719 4.5041632652282715 -2.251657724380493
-5.321049690246582 4.18881893157959 -2.251044988632202
-5.403950214385986 4.080261707305908 -2.2508351802825928
-5.563056468963623 3.8582763671875 -2.250408887863159
-5.784506797790527 3.513766288757324 -2.2497520446777344
-5.853622913360596 3.3960509300231934 -2.2495291233062744
-5.984619140625 3.156578302383423 -2.249077081680298
-6.044531345367432 3.0339555740356445 -2.2481346130371094
-6.104457855224609 2.911416530609131 -2.248122453689575
-6.161909103393555 2.787698268890381 -2.248110294342041
-6.532148361206055 2.491161346435547 -2.323867082595825
-6.845483303070068 2.298962354660034 -2.4003686904907227
-4.701786994934082 4.185821533203125 -2.251162052154541
-5.24087381362915 3.4804069995880127 -2.249800443649292
-5.309521198272705 3.373690128326416 -2.2495970726013184
-5.440263748168945 3.156235933303833 -2.2491841316223145
-5.502304553985596 3.045586585998535 -2.2489750385284424
-5.562094688415527 2.9337151050567627 -2.2487642765045166
-5.727885723114014 2.5913310050964355 -2.248199462890625
-6.363320350646973 2.137038469314575 -2.400468349456787
-4.464238166809082 3.815751314163208 -2.2505507469177246
-4.539936542510986 3.7246415615081787 -2.250373601913452
-4.61376953125 3.6320292949676514 -2.2501943111419678
-4.685702800750732 3.5379478931427 -2.2500126361846924
-4.755717754364014 3.4424450397491455 -2.249828815460205
-4.889863014221191 3.2473089694976807 -2.249455213546753
-5.076005935668945 2.9449009895324707 -2.248880386352539
-5.133920669555664 2.841679573059082 -2.248685359954834
-5.189736366271973 2.737313747406006 -2.248488664627075
-5.248793601989746 2.634549617767334 -2.2505905628204346
-5.445073127746582 2.463385581970215 -2.290254831314087
-5.709570407867432 2.4455461502075195 -2.380270004272461
-5.85305643081665 2.232171058654785 -2.400573253631592
-5.938271522521973 1.994289517402649 -2.4005556106567383
-4.1793212890625 3.5722203254699707 -2.250173807144165
-4.319350719451904 3.4002561569213867 -2.249840259552002
-4.516035079956055 3.132108688354492 -2.249324321746826
-4.752260684967041 2.757080554962158 -2.248610258102417
-4.932104587554932 2.475593090057373 -2.2585976123809814
-5.150282859802246 2.456338405609131 -2.335343599319458
-5.437338829040527 2.2002458572387695 -2.4006588459014893
-5.480586051940918 2.090125799179077 -2.4006497859954834
-5.5216064453125 1.9791539907455444 -2.4006412029266357
-5.596899509429932 1.7548491954803467 -2.400625467300415
-3.856020450592041 3.432864189147949 -2.2499899864196777
-3.924204111099243 3.3541619777679443 -2.2498364448547363
-4.055722713470459 3.192728281021118 -2.249523162841797
-4.180585861206055 3.026132822036743 -2.249202013015747
-4.240463733673096 2.940983772277832 -2.2490386962890625
-4.354975700378418 2.767167329788208 -2.248706817626953
-4.462543964385986 2.5889978408813477 -2.248459815979004
-4.513852596282959 2.498452663421631 -2.2484490871429443
-4.879809379577637 2.4493443965911865 -2.3795664310455322
-4.972094535827637 2.371354341506958 -2.400754690170288
-5.018896579742432 2.270577907562256 -2.400744915008545
-5.106342792510986 2.06630802154541 -2.400726795196533
-5.185483455657959 1.858675479888916 -2.400710344314575
-5.256191253662109 1.6480236053466797 -2.400695323944092
-3.6300292015075684 3.2316691875457764 -2.2496767044067383
-3.694228410720825 3.157595157623291 -2.2495322227478027
-3.7569236755371094 3.082242965698242 -2.2493858337402344
-3.8776562213897705 2.9278314113616943 -2.24908709526062
-3.9356493949890137 2.848836660385132 -2.2489352226257324
-3.9920361042022705 2.7686877250671387 -2.248781442642212
-4.046786785125732 2.687425374984741 -2.2486259937286377
-4.258656978607178 2.470712184906006 -2.2790024280548096
-4.439013481140137 2.457042694091797 -2.3485147953033447
-4.587641716003418 2.419743061065674 -2.40083384513855
-4.681459903717041 2.2327404022216797 -2.4008142948150635
-4.725527286529541 2.137856960296631 -2.4008052349090576
-4.767661094665527 2.0421056747436523 -2.400796413421631
-4.807861328125 1.94552481174469 -2.4007880687713623
-4.846108436584473 1.8481560945510864 -2.400780200958252
-4.882382869720459 1.750030517578125 -2.4007725715637207
-4.916665077209473 1.6511980295181274 -2.4007654190063477
-4.948955059051514 1.551695466041565 -2.4007585048675537
-3.602529287338257 2.835963010787964 -2.2489781379699707
-3.658759593963623 2.7625536918640137 -2.2488365173339844
-3.713495969772339 2.6880297660827637 -2.2486929893493652
-3.7668066024780273 2.612480401992798 -2.248603105545044
-3.8953514099121094 2.475123167037964 -2.2638609409332275
-4.054277420043945 2.4627509117126465 -2.3268773555755615
-4.282329082489014 2.3703155517578125 -2.4008967876434326
-4.329247951507568 2.283454656600952 -2.4008870124816895
-4.417788028717041 2.1069836616516113 -2.4008684158325195
-4.537070274353027 1.835947871208191 -2.400843620300293
-4.573163986206055 1.7440612316131592 -2.400836229324341
-4.607387542724609 1.6514642238616943 -2.4008288383483887
-4.670219421386719 1.4642999172210693 -2.400815725326538
-3.2381346225738525 2.8827874660491943 -2.249133825302124
-3.35137677192688 2.7495312690734863 -2.2488741874694824
-3.459223508834839 2.611891508102417 -2.248666286468506
-3.511171817779541 2.5415802001953125 -2.2486555576324463
-3.577954053878784 2.481502056121826 -2.258901357650757
-4.003154277801514 2.3224785327911377 -2.400954008102417
-4.049170017242432 2.241258382797241 -2.400944471359253
-4.09353494644165 2.159126043319702 -2.400935411453247
-4.136235237121582 2.0761168003082275 -2.400926351547241
-4.324164867401123 1.6491034030914307 -2.4008872509002686
-4.356537818908691 1.5615490674972534 -2.4008805751800537
-4.387133598327637 1.473360538482666 -2.400874137878418
-3.2260448932647705 2.5395922660827637 -2.2487142086029053
-3.289794921875 2.483964681625366 -2.2577617168426514
-3.4114012718200684 2.4693548679351807 -2.30656361579895
-3.544633626937866 2.4583826065063477 -2.3626277446746826
-3.6518847942352295 2.4251768589019775 -2.401026487350464
-3.791821241378784 2.199867010116577 -2.4009974002838135
-3.835405111312866 2.122934579849243 -2.4009883403778076
-3.9178662300109863 1.9665130376815796 -2.4009711742401123
-3.95672345161438 1.8870885372161865 -2.400963068008423
-4.063564300537109 1.6443426609039307 -2.4009408950805664
-4.095888614654541 1.5620452165603638 -2.4009339809417725
-4.126552581787109 1.4791125059127808 -2.400927782058716
-4.155537128448486 1.3955810070037842 -2.4009218215942383
-2.909184455871582 2.5899271965026855 -2.248779296875
-3.1384668350219727 2.4706499576568604 -2.306084156036377
-3.368842601776123 2.438552141189575 -2.4010846614837646
-3.4173240661621094 2.370098114013672 -2.4010746479034424
-3.464418888092041 2.300682306289673 -2.401064872741699
-3.716752767562866 1.8655657768249512 -2.401012420654297
-3.788945198059082 1.7141430377960205 -2.4009974002838135
-3.854970693588257 1.5599322319030762 -2.4009835720062256
-3.8856396675109863 1.481862187385559 -2.400977373123169
-3.914726495742798 1.4031859636306763 -2.4009714126586914
-3.9681150913238525 1.244159460067749 -2.4009599685668945
