ply
format ascii 1.0
element vertex 268
property float x
property float y
property float z
end_header
-32.43611145019531 -37.657432556152344 -0.2798164188861847
-30.158449172973633 -29.838878631591797 -1.194597840309143
-30.99777603149414 -37.47188186645508 -1.36935555934906
-28.78611183166504 -37.76547622680664 -1.33708918094635
-15.051424980163574 -23.399553298950195 -0.783417820930481
-33.315757751464844 -28.083797454833984 -2.2097885608673096
-32.763084411621094 -28.753536224365234 -2.2106926441192627
-32.196895599365234 -29.412364959716797 -2.2115843296051025
-29.163236618041992 -28.854209899902344 -2.080554485321045
-29.17278480529785 -32.53504943847656 -2.2161474227905273
-27.21266746520996 -34.26353073120117 -2.219008445739746
-21.93007469177246 -28.770843505859375 -1.834628701210022
-20.1611270904541 -28.757587432861328 -1.7811189889907837
-15.554484367370605 -23.15459632873535 -1.414621353149414
-13.013381958007812 -23.164405822753906 -1.3474496603012085
-12.416322708129883 -23.170682907104492 -1.333160638809204
-11.80179500579834 -23.118547439575195 -1.3163716793060303
-23.968473434448242 -18.623254776000977 -2.2255589962005615
-23.21575164794922 -19.56991958618164 -2.2263312339782715
-22.01750373840332 -20.932931900024414 -2.2275443077087402
-19.389076232910156 -23.438610076904297 -2.230374813079834
-11.72237777709961 -15.37899398803711 -1.4178466796875
-14.865293502807617 -23.110177993774414 -2.0147666931152344
-13.571098327636719 -23.06867218017578 -1.9624320268630981
-12.960749626159668 -23.070743560791016 -1.940255045890808
-17.50254249572754 -15.36058521270752 -2.235670804977417
-17.195781707763672 -15.708624839782715 -2.2360217571258545
-16.882246017456055 -16.050640106201172 -2.2363836765289307
-15.561747550964355 -17.355297088623047 -2.237914562225342
-14.863251686096191 -17.96755027770996 -2.2386856079101562
-14.140978813171387 -18.552045822143555 -2.239499807357788
-11.255922317504883 -15.393625259399414 -1.8308137655258179
-12.629350662231445 -19.63410186767578 -2.2412538528442383
-9.046643257141113 -15.377846717834473 -1.7128762006759644
-11.441415786743164 -20.36622428894043 -2.242673873901367
-10.625866889953613 -20.815006256103516 -2.2436676025390625
-15.921122550964355 -12.370458602905273 -2.3949649333953857
-15.644224166870117 -12.663126945495605 -2.3908114433288574
-15.03609561920166 -12.67480182647705 -2.335996150970459
-14.454761505126953 -12.685795783996582 -2.2844903469085693
-12.34677791595459 -14.33427906036377 -2.247267246246338
-12.062915802001953 -14.582341194152832 -2.2480335235595703
-11.452608108520508 -15.025256156921387 -2.2441558837890625
-10.850184440612793 -15.47657299041748 -2.2451837062835693
-10.228660583496094 -15.901896476745605 -2.2459540367126465
-9.265429496765137 -16.49288558959961 -2.2471060752868652
-8.604253768920898 -16.85487174987793 -2.2479124069213867
-13.35352611541748 -10.375551223754883 -2.396052837371826
-13.144693374633789 -10.639867782592773 -2.3961408138275146
-12.930644989013672 -10.89999771118164 -2.396230936050415
-12.48721694946289 -11.40726089477539 -2.3964180946350098
-12.023944854736328 -11.89653491973877 -2.396613359451294
-11.541549682617188 -12.367050170898438 -2.3968167304992676
-10.494839668273926 -12.686750411987305 -2.3329100608825684
-10.082133293151855 -12.694445610046387 -2.2969343662261963
-9.353608131408691 -12.792011260986328 -2.2453415393829346
-8.312695503234863 -13.507216453552246 -2.247220039367676
-7.77189302444458 -13.83431339263916 -2.248314380645752
-11.309182167053223 -9.154134750366211 -2.396918535232544
-11.124961853027344 -9.377887725830078 -2.396996259689331
-10.743348121643066 -9.814214706420898 -2.3971571922302246
-8.35665512084961 -11.91983413696289 -2.3981640338897705
-8.117915153503418 -12.08442497253418 -2.3982648849487305
-7.125325679779053 -12.683398246765137 -2.3965938091278076
-6.799483299255371 -12.688849449157715 -2.3715593814849854
-6.480838298797607 -12.695317268371582 -2.3481693267822266
-10.072052001953125 -7.82588005065918 -2.3974430561065674
-9.91443920135498 -8.025165557861328 -2.3975095748901367
-9.752901077270508 -8.22128963470459 -2.3975775241851807
-9.418264389038086 -8.603731155395508 -2.397718667984009
-9.068668365478516 -8.972570419311523 -2.3978662490844727
-8.888423919677734 -9.151723861694336 -2.397942066192627
-8.704652786254883 -9.327251434326172 -2.398019552230835
-8.32679557800293 -9.667187690734863 -2.398179054260254
-8.132866859436035 -9.831475257873535 -2.3982608318328857
-7.531972408294678 -10.300739288330078 -2.39851450920105
-6.689174652099609 -10.869179725646973 -2.3988702297210693
-6.251437664031982 -11.127839088439941 -2.399055004119873
-8.674020767211914 -7.311835765838623 -2.3980348110198975
-8.376346588134766 -7.651919841766357 -2.398160219192505
-8.22248649597168 -7.817453384399414 -2.3982253074645996
-7.741564750671387 -8.29528522491455 -2.398427963256836
-7.057586669921875 -8.886232376098633 -2.398716449737549
-6.879401683807373 -9.025328636169434 -2.398791790008545
-6.698475360870361 -9.160855293273926 -2.3988680839538574
-6.51488733291626 -9.292807579040527 -2.3989455699920654
-6.140003681182861 -9.545501708984375 -2.399103879928589
-5.559514045715332 -9.896177291870117 -2.399348735809326
-5.161296367645264 -10.110466957092285 -2.399517059326172
-7.534812927246094 -6.883168697357178 -2.398516893386841
-7.396389007568359 -7.032051086425781 -2.3985753059387207
-6.506170272827148 -7.865025520324707 -2.3989508152008057
-6.188097953796387 -8.118379592895508 -2.39908504486084
-6.025336742401123 -8.24026870727539 -2.399153709411621
-5.860175609588623 -8.358885765075684 -2.3992233276367188
-5.692685604095459 -8.474211692810059 -2.399294137954712
-5.350964069366455 -8.694737434387207 -2.3994383811950684
-5.000723838806152 -8.901532173156738 -2.3995862007141113
-4.822571754455566 -8.999640464782715 -2.3996615409851074
-7.200811386108398 -5.828647136688232 -2.3986592292785645
-7.08342981338501 -5.971041202545166 -2.3987088203430176
-6.963234901428223 -6.111078262329102 -2.398759365081787
-6.840278148651123 -6.248709678649902 -2.3988113403320312
-6.586262226104736 -6.516482830047607 -2.398918390274048
-6.455300331115723 -6.646658897399902 -2.3989737033843994
-6.32179069519043 -6.773948669433594 -2.3990299701690674
-5.906359672546387 -7.139931678771973 -2.399205207824707
-5.617578029632568 -7.369901657104492 -2.399327039718628
-5.469808101654053 -7.480508804321289 -2.3993895053863525
-5.013683795928955 -7.794480800628662 -2.3995819091796875
-4.857562065124512 -7.893008708953857 -2.3996479511260986
-4.699512958526611 -7.98844575881958 -2.399714708328247
-4.37785530090332 -8.16973876953125 -2.399850368499756
-4.214373588562012 -8.255520820617676 -2.399919271469116
-6.691370487213135 -5.19912576675415 -2.3988754749298096
-6.369271278381348 -5.589770793914795 -2.3990111351013184
-6.141824722290039 -5.839290142059326 -2.399106979370117
-6.024418830871582 -5.960585117340088 -2.3991565704345703
-5.782482624053955 -6.196044921875 -2.399258613586426
-5.531350135803223 -6.421751022338867 -2.399364471435547
-5.27142333984375 -6.637262344360352 -2.3994743824005127
-5.138293266296387 -6.741113185882568 -2.3995304107666016
-5.003121376037598 -6.842279434204102 -2.399587392807007
-4.865955829620361 -6.9407477378845215 -2.3996453285217285
-4.726857662200928 -7.036490440368652 -2.3997039794921875
-4.585881233215332 -7.129408836364746 -2.399763584136963
-4.298497200012207 -7.3067626953125 -2.3998847007751465
-6.159271240234375 -4.785686016082764 -2.3991007804870605
-5.435018062591553 -5.596019268035889 -2.3994059562683105
-5.322585105895996 -5.703285217285156 -2.399453639984131
-4.97275972366333 -6.0113701820373535 -2.3996009826660156
-4.729588508605957 -6.204922199249268 -2.3997037410736084
-4.478897571563721 -6.388708591461182 -2.3998095989227295
-4.350856781005859 -6.476772308349609 -2.3998634815216064
-4.221080303192139 -6.562270164489746 -2.3999180793762207
-4.089625358581543 -6.645236492156982 -2.3999736309051514
-3.6857030391693115 -6.87807035446167 -2.4001431465148926
-3.548055410385132 -6.950315475463867 -2.400200843811035
-5.699700832366943 -4.428603649139404 -2.3992953300476074
-5.425288200378418 -4.761257171630859 -2.399411201477051
-5.231523513793945 -4.973823547363281 -2.3994929790496826
-5.029443264007568 -5.178430080413818 -2.399578094482422
-4.37661600112915 -5.741830348968506 -2.399853467941284
-4.144615173339844 -5.911868095397949 -2.399951219558716
-4.026124000549316 -5.993369102478027 -2.400001049041748
-3.7843785285949707 -6.149204730987549 -2.400102376937866
-3.6612205505371094 -6.2234978675842285 -2.4001541137695312
-3.41058349609375 -6.364664077758789 -2.400258779525757
-3.2832043170928955 -6.4314866065979 -2.4003119468688965
-5.215425968170166 -4.221585750579834 -2.399500608444214
-5.130378246307373 -4.3247785568237305 -2.3995361328125
-5.043289661407471 -4.426097869873047 -2.3995730876922607
-4.954211235046387 -4.525740146636963 -2.3996105194091797
-4.863157749176025 -4.623603343963623 -2.399648904800415
-4.770176887512207 -4.719632625579834 -2.399688243865967
-4.379677772521973 -5.08475923538208 -2.399852752685547
-4.277603626251221 -5.171012878417969 -2.3998959064483643
-4.068398475646973 -5.337521076202393 -2.3999838829040527
-3.9613537788391113 -5.417501926422119 -2.400028705596924
-3.742574453353882 -5.571198463439941 -2.400120735168457
-3.403357982635498 -5.785222053527832 -2.4002623558044434
-4.94460916519165 -3.841921806335449 -2.399615526199341
-4.86716890335083 -3.9396934509277344 -2.3996481895446777
-4.538406848907471 -4.31484842300415 -2.3997867107391357
-4.4516282081604 -4.404417514801025 -2.3998231887817383
-4.363078594207764 -4.492354393005371 -2.399860382080078
-4.272802829742432 -4.5784149169921875 -2.3998985290527344
-4.180827617645264 -4.662690162658691 -2.399937152862549
-3.89507794380188 -4.904308795928955 -2.400057077407837
-3.696782112121582 -5.05574893951416 -2.4001402854919434
-3.4926085472106934 -5.199131488800049 -2.400225877761841
-3.388417959213257 -5.267769813537598 -2.4002692699432373
-3.067924737930298 -5.4610466957092285 -2.400402545928955
-4.630063533782959 -3.597512722015381 -2.3997485637664795
-4.483217716217041 -3.779226303100586 -2.399810552597046
-4.407110691070557 -3.8677711486816406 -2.3998427391052246
-4.32925271987915 -3.9548516273498535 -2.3998751640319824
-4.249679088592529 -4.040347099304199 -2.3999087810516357
-4.168421745300293 -4.124251842498779 -2.3999431133270264
-4.085499286651611 -4.2065629959106445 -2.399977922439575
-3.9148337841033936 -4.3660407066345215 -2.4000494480133057
-3.737945556640625 -4.518692970275879 -2.4001235961914062
-3.6472556591033936 -4.592270851135254 -2.4001617431640625
-3.555117130279541 -4.664083957672119 -2.400200128555298
-3.4615659713745117 -4.734027862548828 -2.4002392292022705
-3.2703747749328613 -4.868325710296631 -2.4003188610076904
-3.073981761932373 -4.994886875152588 -2.400400400161743
-2.973930597305298 -5.0552167892456055 -2.400441884994507
-2.8727025985717773 -5.113539218902588 -2.400484085083008
-2.770322322845459 -5.169837951660156 -2.400527238845825
-2.6668431758880615 -5.224086761474609 -2.400570869445801
-4.138905048370361 -3.6323907375335693 -2.399955987930298
-3.991053342819214 -3.7944798469543457 -2.4000182151794434
-3.9147300720214844 -3.8732519149780273 -2.400049924850464
-3.8368542194366455 -3.950515031814575 -2.400082588195801
-3.757460832595825 -4.026210784912109 -2.400115966796875
-3.6765708923339844 -4.100290298461914 -2.4001498222351074
-3.51043701171875 -4.243619441986084 -2.400219440460205
-3.250871419906616 -4.445902347564697 -2.400327444076538
-3.1617186069488525 -4.509842872619629 -2.400364637374878
-3.0713109970092773 -4.571997165679932 -2.400402069091797
-2.979680061340332 -4.63233757019043 -2.400439977645874
-2.8868675231933594 -4.691082000732422 -2.4004786014556885
-2.79290509223938 -4.747496604919434 -2.4005181789398193
-2.504504442214966 -4.906074047088623 -2.4006400108337402
-4.030077934265137 -3.262117862701416 -2.4000022411346436
-3.8970420360565186 -3.4201250076293945 -2.4000580310821533
-3.7578184604644775 -3.5727148056030273 -2.400116443634033
-3.6859593391418457 -3.646968364715576 -2.400146484375
-3.537872314453125 -3.790917158126831 -2.4002084732055664
-3.4617040157318115 -3.8607707023620605 -2.400240182876587
-3.3841638565063477 -3.928936719894409 -2.4002723693847656
-3.3052759170532227 -3.995609998703003 -2.4003052711486816
-3.2250781059265137 -4.060708045959473 -2.400338649749756
-3.0608739852905273 -4.186058521270752 -2.400406837463379
-2.891799211502075 -4.3048624992370605 -2.4004769325256348
-2.8055248260498047 -4.361581802368164 -2.4005134105682373
-2.718132257461548 -4.416672229766846 -2.400550127029419
-2.5401439666748047 -4.521570205688477 -2.400625228881836
-2.4496116638183594 -4.571343421936035 -2.400663375854492
-3.677604913711548 -3.227541923522949 -2.4001502990722656
-3.5462169647216797 -3.371535062789917 -2.400205373764038
-3.4783995151519775 -3.4416563510894775 -2.400233507156372
-3.338646173477173 -3.577455997467041 -2.400291919708252
-3.2667675018310547 -3.643279552459717 -2.4003217220306396
-2.966564893722534 -3.891944169998169 -2.4004461765289307
-2.888493537902832 -3.9504382610321045 -2.4004788398742676
-2.64752197265625 -4.115944862365723 -2.400580406188965
-2.565051317214966 -4.16792631149292 -2.4006149768829346
-2.481557607650757 -4.218257427215576 -2.4006502628326416
-2.3970775604248047 -4.266908645629883 -2.400686025619507
-2.225295305252075 -4.359130859375 -2.4007582664489746
-3.653373956680298 -2.8386356830596924 -2.400161027908325
-3.5961461067199707 -2.9108705520629883 -2.4001848697662354
-3.537482738494873 -2.9819557666778564 -2.4002091884613037
-3.4774181842803955 -3.0519890785217285 -2.4002344608306885
-3.4159789085388184 -3.120551347732544 -2.4002599716186523
-3.353179931640625 -3.187990665435791 -2.4002861976623535
-3.289052724838257 -3.2542030811309814 -2.400312662124634
-3.223614454269409 -3.3191094398498535 -2.4003400802612305
-3.088935375213623 -3.444951057434082 -2.4003958702087402
-2.9493408203125 -3.565333843231201 -2.400453805923462
-2.8777759075164795 -3.623415946960449 -2.4004836082458496
-2.805065870285034 -3.6800670623779297 -2.4005141258239746
-2.7312426567077637 -3.735255002975464 -2.400545358657837
-2.6563353538513184 -3.7889678478240967 -2.4005768299102783
-2.580375909805298 -3.8411784172058105 -2.400609016418457
-2.5033862590789795 -3.89186429977417 -2.400641441345215
-2.346450090408325 -3.988600492477417 -2.400707721710205
-2.2665698528289795 -4.0345964431762695 -2.4007411003112793
-2.185786008834839 -4.079004287719727 -2.40077543258667
-3.4605553150177 -2.688960313796997 -2.4002418518066406
-3.350778818130493 -2.824558734893799 -2.400287628173828
-3.2938854694366455 -2.8907830715179443 -2.400311231613159
-3.176196336746216 -3.019742965698242 -2.400360107421875
-2.444162607192993 -3.6384148597717285 -2.4006667137145996
-2.222585439682007 -3.7780418395996094 -2.4007601737976074
-2.146919012069702 -3.821613073348999 -2.400792121887207
-2.0703978538513184 -3.863672971725464 -2.4008243083953857
-3.231527090072632 -2.615736961364746 -2.4003374576568604
-3.1788134574890137 -2.679610252380371 -2.4003593921661377
-3.01318359375 -2.8647847175598145 -2.400428056716919
-2.955556631088257 -2.9242422580718994 -2.400451898574829
-2.8967504501342773 -2.9826135635375977 -2.4004762172698975
-2.5859618186950684 -3.255995988845825 -2.4006073474884033
-2.249523878097534 -3.4972002506256104 -2.4007489681243896
-2.179443359375 -3.5413572788238525 -2.4007785320281982
-2.0367138385772705 -3.6254448890686035 -2.400838613510132
