ply
format ascii 1.0
element vertex 315
property float x
property float y
property float z
end_header
-16.50948143005371 28.830020904541016 5.858017444610596
-16.509490966796875 27.545488357543945 5.662589073181152
-16.509506225585938 25.215335845947266 5.314371109008789
-16.720561981201172 22.488649368286133 4.941298484802246
-16.509525299072266 21.306880950927734 4.752816200256348
-16.718700408935547 20.713022232055664 4.693557262420654
-16.509546279907227 18.12725257873535 4.3232951164245605
-14.03564453125 13.676379203796387 3.455481767654419
-14.605507850646973 13.676369667053223 3.528142213821411
-15.200112342834473 13.676359176635742 3.6053860187530518
-15.821611404418945 13.676352500915527 3.687580108642578
-16.50957489013672 28.8302001953125 5.089528560638428
-16.71086311340332 27.88146209716797 4.979709148406982
-16.720624923706055 24.46258544921875 4.539306163787842
-16.68519401550293 23.398439407348633 4.402526378631592
-16.720640182495117 22.488752365112305 4.293064117431641
-15.983808517456055 20.628381729125977 3.9977924823760986
-15.983808517456055 19.802547454833984 3.8985586166381836
-15.983813285827637 18.266538619995117 3.7183961868286133
-15.983813285827637 17.550016403198242 3.636507749557495
-15.983818054199219 16.864137649536133 3.559525966644287
-15.9838228225708 15.574682235717773 3.418855905532837
-15.983818054199219 14.966991424560547 3.3545491695404053
-15.903505325317383 14.309235572814941 3.2773427963256836
-16.706195831298828 30.566884994506836 4.536155700683594
-16.509668350219727 28.830373764038086 4.326310634613037
-15.90355396270752 26.534528732299805 4.028446197509766
-15.983871459960938 25.504745483398438 3.91957426071167
-15.98387622833252 23.38470458984375 3.6885573863983154
-15.983881950378418 21.497838973999023 3.488464593887329
-15.983881950378418 20.62846565246582 3.3982882499694824
-15.903564453125 19.70313835144043 3.2972781658172607
-15.983881950378418 16.864194869995117 3.0257387161254883
-15.98388671875 15.574748039245605 2.9061665534973145
-15.983881950378418 14.967045783996582 2.851500988006592
-15.903564453125 13.7471923828125 2.7374532222747803
-15.983954429626465 25.5048828125 3.2321438789367676
-15.983954429626465 22.415075302124023 2.956261157989502
-15.983954429626465 20.62857437133789 2.802279233932495
-15.983954429626465 19.80274200439453 2.7327206134796143
-15.983949661254883 17.5501651763916 2.5490334033966064
-15.9839448928833 14.381603240966797 2.308872699737549
-15.9036226272583 13.747241020202637 2.2573468685150146
-15.984037399291992 25.5050048828125 2.548027276992798
-15.984037399291992 24.412792205810547 2.470168113708496
-15.903719902038574 23.267431259155273 2.3857979774475098
-15.984023094177246 19.802825927734375 2.154310464859009
-15.984013557434082 16.864336013793945 1.9669616222381592
-15.984004020690918 14.967164993286133 1.8536889553070068
-15.903681755065918 13.747292518615723 1.779551386833191
-19.179956436157227 35.09303283691406 2.4799437522888184
-15.984140396118164 27.912635803222656 1.9945800304412842
-15.984126091003418 25.505136489868164 1.866504192352295
-15.984115600585938 24.41291618347168 1.809472918510437
-15.984115600585938 23.385046005249023 1.7564953565597534
-15.90377426147461 18.921159744262695 1.5327211618423462
-15.903759002685547 16.7796573638916 1.4336168766021729
-15.903749465942383 15.496665000915527 1.3769595623016357
-15.903739929199219 13.747343063354492 1.303571105003357
-15.903905868530273 26.53508186340332 1.219844937324524
-15.903861999511719 21.39021873474121 1.0510262250900269
-15.903852462768555 20.525203704833984 1.023855209350586
-15.903847694396973 19.703500747680664 0.998437762260437
-15.903837203979492 18.17514419555664 0.9522976279258728
-15.903827667236328 17.462196350097656 0.931323230266571
-15.903818130493164 16.125307083129883 0.8930550813674927
-15.903803825378418 14.30950927734375 0.8435775637626648
-15.903998374938965 27.772689819335938 0.5406082272529602
-15.9039888381958 26.53523063659668 0.5225738286972046
-15.903974533081055 25.37723731994629 0.505894124507904
-15.903964042663574 24.29048728942871 0.49043792486190796
-15.90395450592041 23.26777458190918 0.47607603669166565
-15.903935432434082 21.39031219482422 0.4502480924129486
-15.903925895690918 20.525293350219727 0.4386102259159088
-15.903910636901855 18.921327590942383 0.41752317547798157
-15.903905868530273 18.17521858215332 0.40795835852622986
-15.90389633178711 17.462278366088867 0.3989694118499756
-15.903886795043945 16.779804229736328 0.390524297952652
-15.903871536254883 15.49678897857666 0.3750918507575989
-15.9038667678833 14.892133712768555 0.3680346608161926
-15.903857231140137 13.747441291809082 0.35510069131851196
-19.179183959960938 35.09164810180664 -0.2251533418893814
-16.2622013092041 27.132892608642578 -0.17809905111789703
-16.262094497680664 20.9875431060791 -0.14948272705078125
-16.262065887451172 19.347429275512695 -0.14229537546634674
-16.262035369873047 17.855504989624023 -0.135975182056427
-16.26201629638672 16.48849105834961 -0.13038481771945953
-16.261991500854492 15.22746753692627 -0.12542937695980072
-16.261972427368164 14.056994438171387 -0.12102141976356506
-19.17915916442871 35.091644287109375 -1.1260534524917603
-15.904125213623047 24.290739059448242 -0.8175384402275085
-16.262182235717773 21.872148513793945 -0.7674497961997986
-16.26216697692871 20.987638473510742 -0.7476087808609009
-16.262147903442383 20.147403717041016 -0.7290530204772949
-16.262104034423828 17.855567932128906 -0.6800450086593628
-16.2620792388916 16.488554000854492 -0.6521012783050537
-16.262065887451172 15.845817565917969 -0.6393397450447083
-16.262054443359375 15.227531433105469 -0.6273156404495239
-16.262041091918945 14.631820678710938 -0.615972101688385
-16.142080307006836 28.188459396362305 -1.6473584175109863
-16.26237678527832 27.133182525634766 -1.6042650938034058
-16.262304306030273 23.792036056518555 -1.461519479751587
-16.262279510498047 22.805368423461914 -1.4204930067062378
-16.26226043701172 21.872257232666016 -1.3822338581085205
-16.26224136352539 20.98772430419922 -1.3465025424957275
-16.26220703125 19.347597122192383 -1.281764030456543
-16.262187957763672 18.58466339111328 -1.252393126487732
-16.26217269897461 17.85564422607422 -1.2248125076293945
-16.262144088745117 16.488622665405273 -1.1744837760925293
-16.262128829956055 15.845878601074219 -1.1515012979507446
-16.262088775634766 14.057099342346191 -1.090131163597107
-11.689149856567383 21.38734245300293 -1.7870793342590332
-12.357318878173828 21.579235076904297 -1.8232817649841309
-16.26238250732422 23.792150497436523 -2.1130683422088623
-16.262332916259766 21.872365951538086 -1.9984362125396729
-16.262313842773438 20.987829208374023 -1.9467754364013672
-16.26227569580078 19.34766960144043 -1.8531720638275146
-16.26224136352539 17.85572052001953 -1.7708282470703125
-16.262163162231445 14.631940841674805 -1.6039822101593018
-16.262147903442383 14.057157516479492 -1.576104998588562
-11.232245445251465 20.551315307617188 -2.2484848499298096
-12.039521217346191 20.087587356567383 -2.2483620643615723
-12.436098098754883 19.843751907348633 -2.2483012676239014
-13.214286804199219 19.332721710205078 -2.248180389404297
-13.595561027526855 19.065792083740234 -2.2481207847595215
-15.065390586853027 17.923778533935547 -2.2478859424591064
-16.26224136352539 15.227705001831055 -2.138871669769287
-9.078608512878418 16.610883712768555 -2.2486109733581543
-9.406777381896973 16.426794052124023 -2.248561382293701
-9.73122501373291 16.236196517944336 -2.248512029647827
-10.0518159866333 16.039220809936523 -2.248462677001953
-10.368403434753418 15.835886001586914 -2.2484138011932373
-10.680903434753418 15.6263427734375 -2.2483651638031006
-11.293051719665527 15.188822746276855 -2.2482686042785645
-11.592480659484863 14.96102523803711 -2.2482211589813232
-12.177446365356445 14.48784351348877 -2.248126983642578
-12.4627685546875 14.24263858795166 -2.2480804920196533
-13.553573608398438 13.206647872924805 -2.247898817062378
-13.81314468383789 12.934415817260742 -2.247854471206665
-14.067235946655273 12.657048225402832 -2.2478108406066895
-14.315756797790527 12.374674797058105 -2.247767686843872
-7.886557579040527 13.77205753326416 -2.248655319213867
-8.158598899841309 13.612336158752441 -2.2486138343811035
-8.954896926879883 13.101157188415527 -2.248490810394287
-9.468183517456055 12.734428405761719 -2.248410224914551
-9.719266891479492 12.543498039245605 -2.2483701705932617
-10.209784507751465 12.146855354309082 -2.248291015625
-10.4490327835083 11.941301345825195 -2.2482521533966064
-10.6841402053833 11.731049537658691 -2.248213529586792
-11.141576766967773 11.296737670898438 -2.2481374740600586
-11.581391334533691 10.844640731811523 -2.2480628490448
-12.002900123596191 10.375411987304688 -2.247990131378174
-6.546606063842773 11.9781494140625 -2.2487595081329346
-7.476860046386719 11.41957950592041 -2.248617172241211
-7.92458963394165 11.113043785095215 -2.248547315597534
-8.35977554321289 10.78896713256836 -2.248478412628174
-8.572436332702637 10.620512008666992 -2.248444080352783
-8.781723022460938 10.447858810424805 -2.248410224914551
-9.583251953125 9.716751098632812 -2.248281717300415
-9.774423599243164 9.524246215820312 -2.2482573986053467
-10.145063400268555 9.128037452697754 -2.2482101917266846
-10.324403762817383 8.924493789672852 -2.248187303543091
-5.737919807434082 10.498530387878418 -2.248806953430176
-6.150493144989014 10.261881828308105 -2.248744249343872
-6.353168964385986 10.13746452331543 -2.2487130165100098
-6.553334712982178 10.009041786193848 -2.2486822605133057
-7.137914657592773 9.60028076171875 -2.2485904693603516
-7.327236175537109 9.456411361694336 -2.248565673828125
-7.513671875 9.308796882629395 -2.248542070388794
-7.697157859802246 9.157516479492188 -2.248518705368042
-8.054892539978027 8.844167709350586 -2.2484734058380127
-8.399882316589355 8.516862869262695 -2.248429536819458
-9.049487113952637 7.8224687576293945 -2.2483468055725098
-5.102294921875 9.335538864135742 -2.2488441467285156
-5.469203948974609 9.125182151794434 -2.2487993240356445
-6.176469802856445 8.661587715148926 -2.2487099170684814
-6.515761375427246 8.409098625183105 -2.248666763305664
-7.005160808563232 8.005586624145508 -2.2486047744750977
-7.469624042510986 7.573657512664795 -2.2485456466674805
-7.764623641967773 7.270665645599365 -2.2485082149505615
-7.907524108886719 7.114833354949951 -2.2484898567199707
-4.589150428771973 8.396631240844727 -2.2489094734191895
-5.081279277801514 8.107970237731934 -2.248847246170044
-5.241376876831055 8.00529670715332 -2.248826742172241
-5.399428367614746 7.899456024169922 -2.248806953430176
-5.555336952209473 7.7905144691467285 -2.2487871646881104
-5.709023475646973 7.6784820556640625 -2.248767614364624
-5.860483169555664 7.56342077255249 -2.248748540878296
-6.1563720703125 7.324392318725586 -2.248710870742798
-6.442519187927246 7.073795795440674 -2.2486746311187744
-6.581796646118164 6.944288730621338 -2.248656988143921
-6.718417644500732 6.8120341300964355 -2.2486393451690674
-6.852309226989746 6.677098751068115 -2.248622179031372
-7.119277000427246 6.405519485473633 -2.2507517337799072
-7.246889591217041 6.264285087585449 -2.2513039112091064
-4.165712833404541 7.6219096183776855 -2.248962163925171
-4.316371917724609 7.537538051605225 -2.2489430904388428
-4.465312480926514 7.450189590454102 -2.2489240169525146
-4.61245584487915 7.359899044036865 -2.2489054203033447
-4.757807731628418 7.266702175140381 -2.248887062072754
-5.182304382324219 6.970057964324951 -2.248833179473877
-5.455121994018555 6.7584710121154785 -2.248798370361328
-5.588632583618164 6.648645401000977 -2.24878191947937
-5.719199180603027 6.536223411560059 -2.248767614364624
-6.105654239654541 6.190682888031006 -2.251297950744629
-6.227426528930664 6.068024158477783 -2.2512717247009277
-6.346723556518555 5.9429802894592285 -2.2512450218200684
-6.46353006362915 5.815584182739258 -2.251217842102051
-3.810053586959839 6.971158981323242 -2.2490060329437256
-4.745126724243164 6.381967067718506 -2.2513480186462402
-4.994877815246582 6.1882171630859375 -2.2513060569763184
-5.470409870147705 5.771692276000977 -2.2512166500091553
-3.5104784965515137 6.422939777374268 -2.251366138458252
-3.6373777389526367 6.3518524169921875 -2.2513506412506104
-4.0093994140625 6.123631954193115 -2.251300573348999
-4.367128849029541 5.873651504516602 -2.251246213912964
-4.715014457702637 5.6095805168151855 -2.2539186477661133
-4.933461666107178 5.4168620109558105 -2.2535502910614014
-5.039711952209473 5.3172807693481445 -2.2533609867095947
-5.346254825592041 5.006160259246826 -2.252772092819214
-5.444238185882568 4.898463726043701 -2.2525691986083984
-5.540019512176514 4.78883695602417 -2.2523632049560547
-3.3655614852905273 5.877185344696045 -2.2512550354003906
-3.826420783996582 5.598108291625977 -2.254000425338745
-3.9366796016693115 5.520576477050781 -2.253849983215332
-4.152397155761719 5.359005451202393 -2.253537654876709
-4.463427543640137 5.1008782386779785 -2.253042459487915
-4.563593864440918 5.010768413543701 -2.252870559692383
-4.758393287658691 4.8246684074401855 -2.252516984939575
-4.94558572769165 4.630977630615234 -2.252150774002075
-5.12490701675415 4.430002212524414 -2.25177264213562
-3.022817373275757 5.5307769775390625 -2.2539734840393066
-3.3465232849121094 5.3398919105529785 -2.253596544265747
-3.8586668968200684 4.979923725128174 -2.252897024154663
-3.9566357135772705 4.901920795440674 -2.252747058868408
-4.332260608673096 4.5708723068237305 -2.252114772796631
-4.5098876953125 4.39441442489624 -2.2517802715301514
-4.680263519287109 4.211049556732178 -2.251434326171875
-2.82000470161438 5.1596903800964355 -2.2533366680145264
-3.1220359802246094 4.981667995452881 -2.2529852390289307
-3.5070409774780273 4.716868877410889 -2.252469539642334
-3.691293954849243 4.5731940269470215 -2.252192735671997
-3.7812254428863525 4.498629570007324 -2.2520499229431152
-4.041811466217041 4.264427185058594 -2.251603126525879
-4.207539081573486 4.09984016418457 -2.251291036605835
-4.287885665893555 4.0151166915893555 -2.251131057739258
-3.0145018100738525 4.604130744934082 -2.2523257732391357
-3.1052637100219727 4.543060302734375 -2.252206802368164
-3.1947460174560547 4.48020076751709 -2.252084493637085
-3.455507755279541 4.281100749969482 -2.2517004013061523
-3.539736270904541 4.211317539215088 -2.2515664100646973
-3.6225242614746094 4.1398749351501465 -2.251429796218872
-3.93890118598938 3.838078498840332 -2.250856399536133
-4.014140605926514 3.7587804794311523 -2.250706672668457
-4.087788105010986 3.677999258041382 -2.2505545616149902
-2.4784374237060547 4.534811973571777 -2.2522642612457275
-2.567988157272339 4.4844536781311035 -2.252164363861084
-2.6565184593200684 4.432315349578857 -2.252061605453491
-2.743969678878784 4.378429889678955 -2.251955509185791
-2.830278158187866 4.322817325592041 -2.2518467903137207
-2.915532112121582 4.265488624572754 -2.251734972000122
-3.08245587348938 4.145809650421143 -2.251502752304077
-3.1640820503234863 4.083504676818848 -2.251382350921631
-3.3235204219818115 3.954080820083618 -2.251133918762207
-3.698378801345825 3.6037120819091797 -2.25046706199646
-3.76904296875 3.529269218444824 -2.250326633453369
-3.905834913253784 3.37624454498291 -2.2500386238098145
-2.5830078125 4.121591567993164 -2.2515170574188232
-2.664301633834839 4.069247245788574 -2.2514147758483887
-3.2018213272094727 3.6590940952301025 -2.2506229877471924
-3.481562376022339 3.3924498558044434 -2.2501163482666016
-2.3593554496765137 3.9365124702453613 -2.251213788986206
-2.4370410442352295 3.888672351837158 -2.251119613647461
-2.513735294342041 3.8392980098724365 -2.2510228157043457
-2.664111375808716 3.73602032661438 -2.250821828842163
-2.737719774246216 3.682156801223755 -2.2507176399230957
-2.81023907661438 3.626840829849243 -2.250610828399658
-2.881640672683716 3.570093870162964 -2.2505016326904297
-2.9518797397613525 3.5119359493255615 -2.25039005279541
-3.020951986312866 3.45238995552063 -2.2502760887145996
-3.220834970474243 3.2656919956207275 -2.2499208450317383
-3.34771466255188 3.134753465652466 -2.249673366546631
-3.409169912338257 3.0674164295196533 -2.249546527862549
-3.4692723751068115 2.9988744258880615 -2.249417781829834
-2.1561572551727295 3.7652435302734375 -2.250932455062866
-2.2304883003234863 3.7214958667755127 -2.2508461475372314
-2.5882225036621094 3.48107647895813 -2.2503771781921387
-2.6567773818969727 3.4287896156311035 -2.2502760887145996
-2.856010675430298 3.2638933658599854 -2.249959707260132
-2.920180559158325 3.2063212394714355 -2.249850034713745
-2.9831836223602295 3.1474876403808594 -2.2497382164001465
-3.0450048446655273 3.0874149799346924 -2.249624013900757
-3.164980411529541 2.963639974594116 -2.249390125274658
-3.223090648651123 2.8999884128570557 -2.24927020072937
-3.279917001724243 2.8351945877075195 -2.24914813041687
-1.9707714319229126 3.6058690547943115 -2.2506701946258545
-2.041982412338257 3.5658581256866455 -2.2505910396575928
-2.181933641433716 3.481621742248535 -2.250424861907959
-2.318413019180298 3.3918840885162354 -2.2502496242523193
-2.4511914253234863 3.296785831451416 -2.2500648498535156
-2.5800633430480957 3.196481943130493 -2.2498717308044434
-2.704833984375 3.0911290645599365 -2.2496697902679443
-2.8252928256988525 2.980900764465332 -2.249459981918335
-2.99749493598938 2.8068058490753174 -2.2491302490234375
-3.057016611099243 2.7505571842193604 -2.2523133754730225
-1.8693065643310547 3.4202239513397217 -2.250351905822754
-2.0036375522613525 3.342998504638672 -2.2501988410949707
-2.134770393371582 3.260484457015991 -2.2500369548797607
-2.1990721225738525 3.2172863483428955 -2.249952554702759
-2.325024366378784 3.12709641456604 -2.2497777938842773
-2.4472851753234863 3.031970262527466 -2.2495944499969482
-2.7899999618530273 2.7185893058776855 -2.2490620613098145
-2.8434715270996094 2.6625895500183105 -2.2490553855895996
-2.8958544731140137 2.6055357456207275 -2.249048948287964
-2.9886474609375 2.583437442779541 -2.2808115482330322
