ply
format ascii 1.0
element vertex 428
property float x
property float y
property float z
end_header
-22.307323455810547 6.095986366271973 4.077608108520508
-22.30731964111328 5.617477893829346 4.056182384490967
-22.307313919067383 5.143797397613525 4.036597728729248
-22.30730438232422 4.20906400680542 4.002780437469482
-22.30728530883789 2.8323259353637695 3.9649572372436523
-22.307275772094727 1.9267535209655762 3.9480199813842773
-22.307270050048828 1.4765063524246216 3.9419798851013184
-22.307260513305664 1.0274431705474854 3.937541961669922
-22.307235717773438 -0.7641226053237915 3.935671806335449
-22.30721664428711 -1.6621532440185547 3.944267511367798
-22.307207107543945 -2.5655670166015625 3.9592907428741455
-22.30716323852539 -4.867608070373535 4.02590799331665
-22.30710792541504 -6.294899940490723 4.086956024169922
-22.30709457397461 -7.273046016693115 4.13712739944458
-25.230663299560547 6.353635311126709 3.9858691692352295
-25.50107765197754 5.880225658416748 4.0091352462768555
-25.501068115234375 5.343698501586914 3.991467237472534
-25.50106430053711 4.81167459487915 3.975551128387451
-25.501054763793945 4.283656597137451 3.961351156234741
-25.501020431518555 2.202590227127075 3.921154022216797
-25.500028610229492 0.15024840831756592 3.906529426574707
-25.49924659729004 -0.8734790086746216 3.9086315631866455
-25.49996566772461 -1.38621187210083 3.912217855453491
-25.500932693481445 -2.415529489517212 3.924084424972534
-25.500917434692383 -2.932893991470337 3.9323480129241943
-25.500898361206055 -3.9752416610717773 3.9537768363952637
-25.500810623168945 -8.314355850219727 4.108979225158691
-25.50080108642578 -8.884261131286621 4.136876106262207
-28.8716983795166 -8.777055740356445 3.929565906524658
-28.830244064331055 -9.399892807006836 3.948806047439575
-28.830228805541992 -10.044188499450684 3.9756109714508057
-34.24274826049805 1.5771715641021729 3.6809446811676025
-25.23067283630371 6.353635311126709 2.2025270462036133
-34.160640716552734 5.035756587982178 2.9230432510375977
-24.91175651550293 6.273326396942139 1.5930123329162598
-34.16073226928711 5.035755634307861 2.141212224960327
-22.956377029418945 6.273352146148682 0.9383847117424011
-27.20566749572754 6.273294448852539 1.1008983850479126
-27.54319190979004 6.351129055023193 -0.15914122760295868
-27.543270111083984 6.351144790649414 -0.7959097027778625
-25.308412551879883 6.916093826293945 -1.3305549621582031
-25.308406829833984 6.373210430145264 -1.3235626220703125
-27.543344497680664 6.351161956787109 -1.4334934949874878
-46.246726989746094 9.690916061401367 -2.396303176879883
-46.43142318725586 8.760951042175293 -2.39628005027771
-46.59743118286133 7.827432632446289 -2.3962595462799072
-34.16122055053711 5.035830974578857 -1.751183271408081
-46.98302459716797 5.00969123840332 -2.396214008331299
-47.07391357421875 4.0659284591674805 -2.3962042331695557
-47.14580535888672 3.1205437183380127 -2.3961946964263916
-47.19881820678711 2.173906087875366 -2.3961875438690186
-47.23281478881836 1.2264196872711182 -2.3961825370788574
-47.24399185180664 -0.6696749925613403 -2.39617919921875
-47.22104263305664 -1.6175259351730347 -2.3961808681488037
-47.03852462768555 -4.4556121826171875 -2.3961997032165527
-46.82160949707031 -6.338690757751465 -2.3962230682373047
-46.68599319458008 -7.277667045593262 -2.396237850189209
-45.95376205444336 -10.997941970825195 -2.396320343017578
-45.72426223754883 -11.917914390563965 -2.3963465690612793
-45.47654724121094 -12.833161354064941 -2.3963751792907715
-45.21043014526367 -13.743230819702148 -2.3964056968688965
-25.308481216430664 6.916118144989014 -1.9237154722213745
-27.54342269897461 6.351176738739014 -2.0725390911102295
-29.978666305541992 6.281984806060791 -2.245844602584839
-30.16592788696289 5.691883563995361 -2.2508625984191895
-30.26450538635254 5.083831787109375 -2.2501492500305176
-32.66929244995117 1.504702091217041 -2.397923469543457
-32.703304290771484 0.19271178543567657 -2.3979179859161377
-32.700584411621094 -0.46353697776794434 -2.3979175090789795
-32.65570831298828 -1.7751944065093994 -2.397921562194824
-32.61356735229492 -2.4300999641418457 -2.397925853729248
-32.49001693725586 -3.736701011657715 -2.3979392051696777
-32.40860366821289 -4.387882709503174 -2.3979480266571045
-32.31419372558594 -5.037324905395508 -2.397958517074585
-31.953115463256836 -6.972434043884277 -2.3979995250701904
-31.476459503173828 -8.882436752319336 -2.3980541229248047
-22.574331283569336 6.169056415557861 -2.2467477321624756
-22.7358341217041 5.725378513336182 -2.250896453857422
-22.85023307800293 5.268985271453857 -2.2513022422790527
-22.942899703979492 4.807650089263916 -2.2504711151123047
-23.026229858398438 4.344719886779785 -2.249638319015503
-23.100189208984375 3.880361795425415 -2.2488038539886475
-23.219999313354492 2.948221445083618 -2.2471323013305664
-23.499032974243164 2.5056488513946533 -2.268812656402588
-24.9600830078125 1.1496233940124512 -2.398839235305786
-24.98616600036621 0.14723998308181763 -2.3988351821899414
-24.984081268310547 -0.35414427518844604 -2.398834705352783
-24.97195816040039 -0.8553951978683472 -2.3988356590270996
-24.949779510498047 -1.3562896251678467 -2.3988378047943115
-24.917572021484375 -1.8566524982452393 -2.398841142654419
-24.8231143951416 -2.8549296855926514 -2.398851156234741
-24.60665512084961 -4.343236446380615 -2.3988754749298096
-24.514638900756836 -4.836134433746338 -2.39888596534729
-24.412879943847656 -5.3270769119262695 -2.398897409439087
-24.301132202148438 -5.815898895263672 -2.3989100456237793
-24.1796875 -6.302366733551025 -2.3989241123199463
-23.907630920410156 -7.267522811889648 -2.3989553451538086
-18.457216262817383 4.256011486053467 -2.249987840652466
-18.53335952758789 3.883639335632324 -2.249316930770874
-18.6630802154541 3.1350183486938477 -2.2479705810546875
-18.716596603393555 2.759084463119507 -2.24729585647583
-20.124574661254883 1.7382177114486694 -2.399414539337158
-20.15534210205078 1.3340691328048706 -2.3994104862213135
-20.1779727935791 0.9293676614761353 -2.399407386779785
-20.192596435546875 0.524308443069458 -2.3994052410125732
-20.199052810668945 0.11902648955583572 -2.3994040489196777
-20.18753433227539 -0.6915179491043091 -2.399404525756836
-20.169618606567383 -1.096440076828003 -2.3994061946868896
-20.143598556518555 -1.500936508178711 -2.399409055709839
-20.109447479248047 -1.90481436252594 -2.3994123935699463
-19.95856475830078 -3.1112542152404785 -2.3994290828704834
-19.8922061920166 -3.5110960006713867 -2.3994364738464355
-19.735424041748047 -4.306434154510498 -2.399454355239868
-19.44093132019043 -5.486067771911621 -2.3994882106781006
-19.32697296142578 -5.875085353851318 -2.399501323699951
-19.075902938842773 -6.645867347717285 -2.3995301723480225
-15.396689414978027 3.8772270679473877 -2.2496538162231445
-15.532114028930664 3.254725933074951 -2.2485313415527344
-15.590380668640137 2.941681385040283 -2.2479681968688965
-15.643080711364746 2.627767324447632 -2.2475481033325195
-16.802230834960938 2.1333563327789307 -2.3998098373413086
-16.841625213623047 1.7957842350006104 -2.3998048305511475
-16.874252319335938 1.4574780464172363 -2.3998007774353027
-16.931318283081055 0.43962645530700684 -2.3997926712036133
-16.936752319335938 0.0998065173625946 -2.399791717529297
-16.927162170410156 -0.5798174738883972 -2.399792194366455
-16.826156616210938 -1.9351869821548462 -2.3998026847839355
-16.73505401611328 -2.608757257461548 -2.399812936782837
-16.547914505004883 -3.6108882427215576 -2.399833917617798
-16.38985824584961 -4.271963596343994 -2.3998520374298096
-16.103418350219727 -5.250373363494873 -2.3998849391937256
-13.17141056060791 3.59938907623291 -2.249406576156616
-13.2381591796875 3.333660125732422 -2.2489266395568848
-13.29952621459961 3.066707134246826 -2.2484450340270996
-13.35550308227539 2.7986271381378174 -2.2479617595672607
-13.515600204467773 2.5502049922943115 -2.2658395767211914
-14.413290977478027 2.1247198581695557 -2.4000937938690186
-14.4530029296875 1.8350744247436523 -2.4000887870788574
-14.486845016479492 1.5447039604187012 -2.4000844955444336
-14.51491641998291 1.2537004947662354 -2.400080919265747
-14.55349063873291 0.6703118681907654 -2.400075674057007
-14.564013481140137 0.3781610131263733 -2.400074005126953
-14.568671226501465 0.08584778010845184 -2.400073289871216
-14.560395240783691 -0.4987557828426361 -2.400073528289795
-14.528671264648438 -1.0825598239898682 -2.4000766277313232
-14.437284469604492 -1.9546972513198853 -2.4000866413116455
-14.2936372756958 -2.8197829723358154 -2.4001028537750244
-14.234198570251465 -3.106022357940674 -2.4001095294952393
-14.169072151184082 -3.391030788421631 -2.4001169204711914
-14.098227500915527 -3.674664258956909 -2.400125026702881
-13.939536094665527 -4.23738956451416 -2.4001433849334717
-13.851762771606445 -4.5162577629089355 -2.400153398513794
-13.7584228515625 -4.793302536010742 -2.4001643657684326
-11.540995597839355 3.153839588165283 -2.2487950325012207
-11.654242515563965 2.6873278617858887 -2.2480223178863525
-12.140830039978027 2.544092893600464 -2.3315656185150146
-12.548871994018555 2.367792844772339 -2.400315761566162
-12.633749961853027 1.8623815774917603 -2.4003050327301025
-12.698226928710938 1.353981852531433 -2.400296926498413
-12.742289543151855 0.8434045314788818 -2.4002909660339355
-12.7698974609375 0.07524535804986954 -2.400286912918091
-12.76266098022461 -0.4371740520000458 -2.40028715133667
-12.734858512878418 -0.948899507522583 -2.400290012359619
-12.713266372680664 -1.204234004020691 -2.40029239654541
-12.654755592346191 -1.7133547067642212 -2.400298595428467
-12.617851257324219 -1.966939926147461 -2.4003028869628906
-12.528818130493164 -2.4716317653656006 -2.400312900543213
-12.476728439331055 -2.7225260734558105 -2.4003188610076904
-12.29043960571289 -3.468271493911743 -2.4003403186798096
-12.218427658081055 -3.714202880859375 -2.400348424911499
-12.059648513793945 -4.201472759246826 -2.40036678314209
-10.313627243041992 2.59722900390625 -2.2481815814971924
-11.009218215942383 2.5385942459106445 -2.388193368911743
-11.11485767364502 2.3291032314300537 -2.4004859924316406
-11.159330368041992 2.1056041717529297 -2.4004805088043213
-11.234785079956055 1.6561614274978638 -2.4004712104797363
-11.265731811523438 1.4303936958312988 -2.4004671573638916
-11.292142868041992 1.2040575742721558 -2.400463819503784
-11.352299690246582 0.2947656214237213 -2.4004557132720947
-11.33937931060791 -0.6164181232452393 -2.400456190109253
-11.324735641479492 -0.8438262939453125 -2.4004576206207275
-11.253491401672363 -1.5236382484436035 -2.400465488433838
-11.220678329467773 -1.749143362045288 -2.4004690647125244
-11.141498565673828 -2.1979448795318604 -2.400477886199951
-11.095175743103027 -2.4210643768310547 -2.4004833698272705
-10.989150047302246 -2.864295482635498 -2.4004952907562256
-10.79702091217041 -3.5202856063842773 -2.400517702102661
-10.724257469177246 -3.7362310886383057 -2.4005260467529297
-9.9052095413208 2.494352340698242 -2.400629997253418
-9.99728012084961 2.094907760620117 -2.4006187915802
-10.037270545959473 1.8938878774642944 -2.40061354637146
-10.0732421875 1.6920995712280273 -2.400609254837036
-10.156743049621582 1.082991361618042 -2.4005985260009766
-10.17641544342041 0.8789678812026978 -2.4005961418151855
-10.191987037658691 0.6746020317077637 -2.4005939960479736
-10.203471183776855 0.4699566662311554 -2.40059232711792
-10.21084976196289 0.26512572169303894 -2.4005913734436035
-10.214096069335938 0.06018615514039993 -2.400590658187866
-10.213105201721191 -0.1447802633047104 -2.400590658187866
-10.208305358886719 -0.349677711725235 -2.4005908966064453
-10.12197208404541 -1.370438814163208 -2.400599956512451
-9.979559898376465 -2.1776201725006104 -2.40061616897583
-9.830541610717773 -2.7741105556488037 -2.4006333351135254
-9.772924423217773 -2.97080659866333 -2.4006400108337402
-9.6459321975708 -3.3605527877807617 -2.4006545543670654
-8.944276809692383 2.4442241191864014 -2.4007441997528076
-9.075057983398438 1.9016655683517456 -2.4007279872894287
-9.111381530761719 1.7191863059997559 -2.400723457336426
-9.172983169555664 1.3522247076034546 -2.4007158279418945
-9.19826602935791 1.167891263961792 -2.400712728500366
-9.237714767456055 0.7978881597518921 -2.400707483291626
-9.251826286315918 0.6123723983764648 -2.400705575942993
-9.262226104736328 0.42660459876060486 -2.4007043838500977
-9.26894474029541 0.24066832661628723 -2.400703191757202
-9.27187442779541 0.05463317781686783 -2.400702714920044
-9.246435165405273 -0.6889675855636597 -2.400704860687256
-9.230791091918945 -0.874359130859375 -2.4007065296173096
-9.161444664001465 -1.4281442165374756 -2.400714159011841
-8.972421646118164 -2.3386342525482178 -2.40073561668396
-8.871411323547363 -2.696761131286621 -2.400747299194336
-8.756108283996582 -3.050546884536743 -2.4007606506347656
-8.180776596069336 2.2355809211730957 -2.400834798812866
-8.263842582702637 1.9055418968200684 -2.400824546813965
-8.333208084106445 1.5724352598190308 -2.400815725326538
-8.389966011047363 1.2367974519729614 -2.400808811187744
-8.413090705871582 1.0681976079940796 -2.400805711746216
-8.432817459106445 0.8991711139678955 -2.400803327560425
-8.4491548538208 0.729781448841095 -2.400801181793213
-8.462089538574219 0.5600976347923279 -2.400799512863159
-8.477739334106445 0.22012633085250854 -2.400797128677368
-8.480448722839355 0.04997070133686066 -2.40079665184021
-8.457162857055664 -0.6301577687263489 -2.400798797607422
-8.403949737548828 -1.1378310918807983 -2.4008045196533203
-8.379433631896973 -1.3062341213226318 -2.4008073806762695
-8.351547241210938 -1.4741064310073853 -2.400810480117798
-8.2857027053833 -1.8080098628997803 -2.40081787109375
-8.206527709960938 -2.139009714126587 -2.400826930999756
-8.114126205444336 -2.4665615558624268 -2.4008376598358154
-8.063017845153809 -2.6288838386535645 -2.400843381881714
-8.008676528930664 -2.7901458740234375 -2.4008498191833496
-7.569511413574219 1.906171202659607 -2.400907039642334
-7.606235027313232 1.753902554512024 -2.400902509689331
-7.63992166519165 1.6009246110916138 -2.4008982181549072
-7.697924613952637 1.293099284172058 -2.400891065597534
-7.722323894500732 1.1383758783340454 -2.400887966156006
-7.743593692779541 0.9831921458244324 -2.4008853435516357
-7.761762619018555 0.8276171684265137 -2.4008829593658447
-7.79748010635376 0.35913756489753723 -2.4008781909942627
-7.805600643157959 0.04599548131227493 -2.400876760482788
-7.80496072769165 -0.11063293367624283 -2.400876760482788
-7.770966529846191 -0.7360842823982239 -2.4008803367614746
-7.754643440246582 -0.8918642997741699 -2.4008820056915283
-7.735190391540527 -1.0472854375839233 -2.4008841514587402
-7.712626934051514 -1.2022866010665894 -2.4008865356445312
-7.686953067779541 -1.3567992448806763 -2.4008896350860596
-7.658203125 -1.5107744932174683 -2.400892734527588
-7.591435432434082 -1.8168294429779053 -2.400900363922119
-7.553471565246582 -1.9687914848327637 -2.400904893875122
-7.512460708618164 -2.119965076446533 -2.400909423828125
-7.468422889709473 -2.2702789306640625 -2.4009146690368652
-7.371362209320068 -2.568115472793579 -2.400925636291504
-7.069501876831055 1.4813921451568604 -2.400965929031372
-7.097753524780273 1.3392455577850342 -2.4009623527526855
-7.123183250427246 1.1965514421463013 -2.4009592533111572
-7.145756721496582 1.0533831119537354 -2.400956392288208
-7.1961669921875 0.6215539574623108 -2.4009499549865723
-7.20718240737915 0.4770367443561554 -2.4009485244750977
-7.202973365783691 -0.5367053151130676 -2.4009480476379395
-7.157651424407959 -0.969092071056366 -2.4009528160095215
-7.086415767669678 -1.397976040840149 -2.400960922241211
-7.056938171386719 -1.5398818254470825 -2.4009642601013184
-6.951552391052246 -1.961678147315979 -2.4009764194488525
-6.510888576507568 1.6395868062973022 -2.4010324478149414
-6.542490005493164 1.508616328239441 -2.401028633117676
-6.621362209320068 1.1122558116912842 -2.4010188579559326
-6.642333984375 0.9791735410690308 -2.4010162353515625
-6.676235198974609 0.7118743658065796 -2.4010119438171387
-6.689198970794678 0.5777654647827148 -2.401010274887085
-6.706987380981445 0.3089154064655304 -2.401007890701294
-6.710155963897705 -0.22985167801380157 -2.4010069370269775
-6.704194068908691 -0.3644433617591858 -2.4010074138641357
-6.684184551239014 -0.6331405639648438 -2.4010095596313477
-6.670136451721191 -0.7671365141868591 -2.4010109901428223
-6.653671741485596 -0.900797426700592 -2.401012897491455
-6.633998870849609 -1.0341442823410034 -2.401015043258667
-6.611918926239014 -1.1670483350753784 -2.401017665863037
-6.587172508239746 -1.2994881868362427 -2.4010202884674072
-6.559784889221191 -1.4313980340957642 -2.4010233879089355
-6.529755592346191 -1.5627400875091553 -2.401026964187622
-6.461816310882568 -1.823476791381836 -2.4010345935821533
-6.383466720581055 -2.081279754638672 -2.401043653488159
-6.340434551239014 -2.2089486122131348 -2.4010486602783203
-6.105360984802246 1.4078222513198853 -2.401080369949341
-6.132368087768555 1.2850298881530762 -2.4010770320892334
-6.156908988952637 1.161723017692566 -2.401073932647705
-6.178979396820068 1.037946105003357 -2.401071310043335
-6.198539733886719 0.9137524366378784 -2.401068925857544
-6.23021936416626 0.6643151640892029 -2.401064872741699
-6.242290019989014 0.5391656160354614 -2.4010634422302246
-6.251845359802246 0.41380614042282104 -2.40106201171875
-6.263408184051514 0.16263122856616974 -2.4010603427886963
-6.265405178070068 0.036918945610523224 -2.401059865951538
-6.261850357055664 -0.21449583768844604 -2.401060104370117
-6.256289005279541 -0.340097039937973 -2.4010608196258545
-6.248202800750732 -0.46556517481803894 -2.401061534881592
-6.20889139175415 -0.8406375050544739 -2.4010658264160156
-6.190776348114014 -0.965053379535675 -2.4010677337646484
-6.17016077041626 -1.0890761613845825 -2.4010701179504395
-6.093495845794678 -1.4583321809768677 -2.401078939437866
-6.063012599945068 -1.5803072452545166 -2.4010822772979736
-6.030092716217041 -1.7016491889953613 -2.4010860919952393
-5.99474573135376 -1.8223034143447876 -2.401090145111084
-5.956977367401123 -1.9422249794006348 -2.401094436645508
-5.716762542724609 1.3182177543640137 -2.4011263847351074
-5.74206018447876 1.2032396793365479 -2.401123523712158
-5.76504373550415 1.087778925895691 -2.401120662689209
-5.785703182220459 0.9718822836875916 -2.401118040084839
-5.820024490356445 0.7389605641365051 -2.401113748550415
-5.833676815032959 0.6220324635505676 -2.4011118412017822
-5.844985008239746 0.504850447177887 -2.4011104106903076
-5.860527038574219 0.26992735266685486 -2.4011082649230957
-5.864760398864746 0.1522802710533142 -2.4011077880859375
-5.863300800323486 -0.20084410905838013 -2.4011075496673584
-5.850522518157959 -0.43593353033065796 -2.401108741760254
-5.840600490570068 -0.5532369613647461 -2.4011099338531494
-5.828320026397705 -0.6703197956085205 -2.401111125946045
-5.7967529296875 -0.903629720211029 -2.4011147022247314
-5.755835056304932 -1.1354836225509644 -2.4011192321777344
-5.646284103393555 -1.5933403968811035 -2.4011318683624268
-5.368696212768555 1.2379577159881592 -2.401167869567871
-5.3924560546875 1.129980444908142 -2.401165008544922
-5.414032936096191 1.021551489830017 -2.4011621475219727
-5.450654029846191 0.8035003542900085 -2.4011576175689697
-5.497509479522705 0.36387693881988525 -2.401151418685913
-5.509443283081055 0.03246399015188217 -2.4011497497558594
-5.506313323974609 -0.1886151134967804 -2.4011499881744385
-5.494316101074219 -0.4093920886516571 -2.401151180267334
-5.473549842834473 -0.6295010447502136 -2.401153326034546
-5.459731101989746 -0.7392077445983887 -2.4011549949645996
-5.443813323974609 -0.8486111164093018 -2.4011566638946533
-5.425693035125732 -0.9576708674430847 -2.4011588096618652
-5.382910251617432 -1.174593210220337 -2.4011635780334473
-5.358261585235596 -1.282373070716858 -2.4011664390563965
-5.331464767456055 -1.3896312713623047 -2.401169538497925
-5.271420955657959 -1.6024264097213745 -2.4011764526367188
-5.004013538360596 1.3674602508544922 -2.4012112617492676
-5.030444145202637 1.2667754888534546 -2.4012081623077393
-5.077201843261719 1.0639190673828125 -2.401202440261841
-5.097519397735596 0.9618285894393921 -2.4011998176574707
-5.131997108459473 0.7565277218818665 -2.401195526123047
-5.158217430114746 0.5500066876411438 -2.4011921882629395
-5.168208122253418 0.44639402627944946 -2.401190996170044
-5.181957721710205 0.23867247998714447 -2.401188850402832
-5.18569803237915 0.13464903831481934 -2.401188373565674
-5.186928749084473 -0.07352172583341599 -2.4011878967285156
-5.179804801940918 -0.2815777659416199 -2.401188611984253
-5.164330959320068 -0.4891790747642517 -2.4011902809143066
-5.153481483459473 -0.5927047729492188 -2.401191473007202
-5.125556468963623 -0.7990008592605591 -2.4011945724487305
-5.108496189117432 -0.9016817808151245 -2.4011964797973633
-5.045009613037109 -1.2074023485183716 -2.4012036323547363
-5.019775390625 -1.308390498161316 -2.4012064933776855
-4.992514610290527 -1.4088516235351562 -2.401209592819214
-4.963246822357178 -1.5087448358535767 -2.4012131690979004
-4.791191101074219 1.003987431526184 -2.4012362957000732
-4.827612400054932 0.810941755771637 -2.401231527328491
-4.867641448974609 0.5190264582633972 -2.40122652053833
-4.877070426940918 0.4212481677532196 -2.4012253284454346
-4.893579006195068 0.1270636022090912 -2.4012231826782227
-4.895146369934082 0.02884582430124283 -2.4012227058410645
-4.892358303070068 -0.16758544743061066 -2.4012229442596436
-4.83682107925415 -0.753991961479187 -2.401228904724121
-4.820722579956055 -0.8508908152580261 -2.401230812072754
-4.78271484375 -1.0436276197433472 -2.4012351036071777
-4.760815143585205 -1.139386534690857 -2.4012374877929688
-4.683661937713623 -1.4237548112869263 -2.4012465476989746
-4.548427581787109 0.8582220077514648 -2.4012649059295654
-4.56472635269165 0.7667840123176575 -2.4012629985809326
-4.579199314117432 0.675036609172821 -2.4012610912323
-4.618564128875732 0.30570006370544434 -2.4012560844421387
-4.623764514923096 0.21296508610248566 -2.4012553691864014
-4.62710428237915 0.12014526128768921 -2.401254892349243
-4.62820291519165 -0.06560302525758743 -2.401254415512085
-4.625957012176514 -0.1584588587284088 -2.401254653930664
-4.621840953826904 -0.25124692916870117 -2.401254892349243
-4.615869045257568 -0.34393614530563354 -2.4012556076049805
-4.608041763305664 -0.4364855885505676 -2.401256561279297
-4.586787223815918 -0.621024489402771 -2.401258707046509
-4.522382736206055 -0.9867873787879944 -2.401266098022461
-4.501572132110596 -1.077344298362732 -2.401268482208252
-4.479057312011719 -1.1674515008926392 -2.401271104812622
-4.428613185882568 -1.3462249040603638 -2.4012768268585205
-4.400717735290527 -1.4348177909851074 -2.401279926300049
-4.272197246551514 0.9851165413856506 -2.4012978076934814
-4.291079044342041 0.8991931080818176 -2.4012956619262695
-4.308276176452637 0.8129101395606995 -2.4012935161590576
-4.323715686798096 0.7262969613075256 -2.4012913703918457
-4.349370002746582 0.552233874797821 -2.4012882709503174
-4.374706745147705 0.2895581126213074 -2.40128493309021
-4.379638671875 0.20172058045864105 -2.4012842178344727
-4.382797718048096 0.1138012632727623 -2.4012837409973145
-4.384203910827637 0.025834960862994194 -2.4012835025787354
-4.372168064117432 -0.3257775902748108 -2.401284694671631
-4.355571269989014 -0.5009368658065796 -2.4012863636016846
-4.344643592834473 -0.5882323980331421 -2.40128755569458
-4.317548751831055 -0.7620763778686523 -2.4012906551361084
-4.301396369934082 -0.8485592603683472 -2.401292562484741
-4.283505916595459 -0.9346963167190552 -2.401294469833374
-4.263891696929932 -1.0204601287841797 -2.401296854019165
-4.219526290893555 -1.1907176971435547 -2.401301860809326
-4.194785118103027 -1.2751452922821045 -2.4013047218322754
-4.168359279632568 -1.359061598777771 -2.4013078212738037
-4.033305644989014 1.0156750679016113 -2.4013261795043945
-4.052865982055664 0.9345415830612183 -2.4013240337371826
-4.070796012878418 0.8530291318893433 -2.4013216495513916
-4.101733207702637 0.6890100240707397 -2.401317834854126
-2.225468635559082 0.28256407380104065 -1.2951873540878296
-2.212583065032959 0.013037719763815403 -1.2774591445922852
-2.2157177925109863 -0.031407471746206284 -1.2793725728988647
-2.222094774246216 -0.07611633092164993 -1.2836776971817017
-2.227836847305298 -0.2562243640422821 -1.2947204113006592
-4.109570026397705 -0.6406219601631165 -2.401315450668335
-4.095893383026123 -0.7229516506195068 -2.4013171195983887
-4.063603401184082 -0.8867095708847046 -2.401320695877075
-4.044990062713623 -0.9680706858634949 -2.401322841644287
-4.024750709533691 -1.0490407943725586 -2.401325225830078
-4.002895355224609 -1.12958824634552 -2.401327610015869
-3.954355478286743 -1.2892876863479614 -2.4013333320617676
