ply
format ascii 1.0
element vertex 361
property float x
property float y
property float z
end_header
18.956180572509766 -11.068089485168457 3.870523691177368
18.95613670349121 -10.06476879119873 3.7844011783599854
22.150087356567383 -11.193300247192383 4.376023292541504
22.15007209777832 -10.637474060058594 4.332697868347168
22.150014877319336 -9.03115177154541 4.217808246612549
22.14999008178711 -8.004390716552734 4.152832508087158
22.149974822998047 -7.502374172210693 4.123589515686035
22.149946212768555 -6.5182719230651855 4.071236610412598
22.14993667602539 -6.0351386070251465 4.048009395599365
21.664575576782227 -5.435536861419678 3.9384429454803467
22.14986228942871 -3.231499671936035 3.9469616413116455
22.14995574951172 -13.539751052856445 3.976996898651123
22.14991569519043 -12.340063095092773 3.884302854537964
22.14986228942871 -10.637374877929688 3.764254570007324
25.479476928710938 -10.993680000305176 4.251150608062744
25.479461669921875 -10.388654708862305 4.215288162231445
25.479413986206055 -8.630084991455078 4.121124744415283
25.479398727416992 -8.060454368591309 4.093964576721191
25.479389190673828 -7.4980597496032715 4.068801403045654
25.47931671142578 -4.774798393249512 3.971231698989868
25.47930145263672 -3.7172420024871826 3.9446094036102295
40.88747787475586 -23.873258590698242 6.165538311004639
42.76410675048828 -23.824560165405273 6.374671936035156
43.59733963012695 -22.03145980834961 6.361006736755371
43.59724044799805 -18.811017990112305 6.18319034576416
43.5572395324707 -16.74207305908203 6.076622009277344
43.59715270996094 -15.754823684692383 6.036590576171875
43.556968688964844 -14.753117561340332 5.988551616668701
43.597103118896484 -13.79205322265625 5.954563617706299
43.597084045410156 -12.829747200012207 5.917969703674316
43.5970344543457 -10.938282012939453 5.853201866149902
43.59699630737305 -9.084782600402832 5.7991838455200195
43.596981048583984 -8.170056343078613 5.776060581207275
43.556800842285156 -7.255544185638428 5.750164031982422
43.596946716308594 -6.36049222946167 5.737332820892334
43.55677795410156 -5.459002494812012 5.716371536254883
40.88748550415039 -23.873258590698242 5.084219932556152
42.83440017700195 -23.863718032836914 5.2652740478515625
43.556766510009766 -22.010953903198242 5.240480899810791
43.59687042236328 -19.86427116394043 5.1445512771606445
43.59684371948242 -18.810848236083984 5.098690509796143
43.5967903137207 -16.757305145263672 5.015414714813232
43.55658721923828 -14.752991676330566 4.93818473815918
43.59672164916992 -13.7919282913208 4.910162448883057
43.5966796875 -11.878705978393555 4.852145195007324
43.59666442871094 -10.938188552856445 4.8265790939331055
43.596641540527344 -10.00715160369873 4.803223133087158
43.59662628173828 -9.084705352783203 4.782039642333984
43.59661102294922 -8.169987678527832 4.762968063354492
43.556434631347656 -7.255481243133545 4.741608619689941
43.55641174316406 -5.458958148956299 4.713754177093506
27.061391830444336 -16.542001724243164 2.6849162578582764
40.887489318847656 -23.873260498046875 4.008032321929932
42.01679611206055 -23.40821075439453 4.071574687957764
42.04445266723633 -22.323486328125 4.02974796295166
42.452205657958984 -21.45275115966797 4.026491641998291
42.45218276977539 -20.38747215270996 3.9866228103637695
42.4521369934082 -18.316913604736328 3.9139373302459717
42.452117919921875 -17.30886459350586 3.880913496017456
43.059165954589844 -16.550634384155273 3.9050676822662354
43.55622100830078 -15.74002742767334 3.920518636703491
43.55620574951172 -14.752861022949219 3.8929052352905273
43.55617904663086 -13.77910041809082 3.867250919342041
43.55614471435547 -11.867660522460938 3.821556806564331
43.55612564086914 -10.928017616271973 3.801426410675049
43.55609893798828 -9.07625961303711 3.7663414478302
43.61203384399414 -5.465912818908691 3.7207603454589844
27.061126708984375 -16.54184341430664 1.9667500257492065
42.09674072265625 -24.579315185546875 3.0228216648101807
42.096717834472656 -23.452741622924805 2.988206624984741
42.04444122314453 -22.323486328125 2.951897621154785
42.451744079589844 -17.308706283569336 2.842851400375366
42.096336364746094 -24.57908058166504 1.9221280813217163
42.09632110595703 -23.452518463134766 1.9001237154006958
42.04444885253906 -22.323488235473633 1.8770484924316406
42.4514045715332 -20.387102127075195 1.8569233417510986
42.451385498046875 -19.342315673828125 1.83946692943573
42.451377868652344 -18.31658172607422 1.8230723142623901
42.45136260986328 -17.30855941772461 1.807687759399414
26.944358825683594 -16.470462799072266 0.5334391593933105
42.01561737060547 -24.531949996948242 0.8218376040458679
42.01560974121094 -23.407550811767578 0.8124333024024963
42.45103073120117 -21.45215606689453 0.8034366965293884
42.451011657714844 -19.342144012451172 0.7880042791366577
26.94437026977539 -16.470462799072266 -0.1777632087469101
42.044437408447266 -22.323490142822266 -0.2680128514766693
42.45062255859375 -19.34197235107422 -0.26263976097106934
42.450618743896484 -18.31625747680664 -0.2602987587451935
42.45061111450195 -17.308252334594727 -0.2581036388874054
42.85022735595703 -16.47032928466797 -0.2584577798843384
42.64371109008789 -24.898672103881836 -1.3904485702514648
42.45024490356445 -19.3417911529541 -1.3135356903076172
42.45023727416992 -18.316091537475586 -1.301827073097229
42.85023880004883 -16.47032928466797 -1.29262375831604
38.63261795043945 -22.556703567504883 -2.2687289714813232
39.08292770385742 -21.773710250854492 -2.268894672393799
39.93548583984375 -20.180944442749023 -2.2692086696624756
41.09157180786133 -17.7298583984375 -2.269634962081909
41.44350051879883 -16.897621154785156 -2.2697649002075195
42.32404327392578 -14.33549976348877 -2.2662103176116943
46.87917709350586 -8.785120010375977 -2.418822765350342
47.04806900024414 -7.837086200714111 -2.4188852310180664
47.19793701171875 -6.885831832885742 -2.418941020965576
47.32814407348633 -5.931652069091797 -2.418989419937134
27.5087833404541 -13.901265144348145 -2.2599191665649414
29.38517951965332 -13.388911247253418 -2.367694616317749
30.952592849731445 -11.184576988220215 -2.413010597229004
31.57405662536621 -9.291596412658691 -2.413239002227783
32.08106994628906 -7.363854885101318 -2.413426160812378
32.22391891479492 -6.714837074279785 -2.4134788513183594
32.46997833251953 -5.408717632293701 -2.413569927215576
21.4140567779541 -13.089916229248047 -2.409528970718384
21.674808502197266 -12.655434608459473 -2.4096245765686035
22.169734954833984 -11.771016120910645 -2.4098060131073
22.403636932373047 -11.321430206298828 -2.4098918437957764
23.246957778930664 -9.478408813476562 -2.41020131111145
23.6119384765625 -8.532699584960938 -2.4103355407714844
24.086923599243164 -7.088281631469727 -2.410510301589966
24.22559928894043 -6.600690841674805 -2.4105615615844727
24.354413986206055 -6.110395908355713 -2.410609006881714
24.473451614379883 -5.617558002471924 -2.4106528759002686
24.68083381652832 -4.62516975402832 -2.4107296466827393
24.769535064697266 -4.126011371612549 -2.410762310028076
17.296464920043945 -10.572933197021484 -2.408029556274414
17.5069522857666 -10.221914291381836 -2.408106803894043
18.09521484375 -9.144225120544434 -2.40832257270813
18.276649475097656 -8.777283668518066 -2.408389091491699
18.7758731842041 -7.655426025390625 -2.4085724353790283
18.92705535888672 -7.274985313415527 -2.408627986907959
19.206117630004883 -6.505270004272461 -2.4087305068969727
19.56576156616211 -5.331039905548096 -2.408863067626953
19.669702529907227 -4.935021877288818 -2.4089012145996094
19.7656192779541 -4.536981582641602 -2.4089367389678955
19.853456497192383 -4.137070655822754 -2.4089691638946533
19.933162689208984 -3.7354586124420166 -2.408998727798462
20.004751205444336 -3.3323140144348145 -2.409025192260742
20.068140029907227 -2.92779278755188 -2.4090487957000732
14.494433403015137 -8.860111236572266 -2.4070088863372803
14.670737266540527 -8.565908432006836 -2.407073736190796
15.1635103225708 -7.662711143493652 -2.407254695892334
15.315463066101074 -7.355186462402344 -2.4073104858398438
15.461191177368164 -7.044650077819824 -2.4073638916015625
15.860234260559082 -6.09619140625 -2.40751051902771
15.980365753173828 -5.7748637199401855 -2.4075546264648438
16.39518928527832 -4.467160701751709 -2.4077072143554688
16.562597274780273 -3.80176043510437 -2.407769203186035
16.702924728393555 -3.130112886428833 -2.4078209400177
16.762861251831055 -2.792292833328247 -2.4078433513641357
16.815956115722656 -2.4533255100250244 -2.407862901687622
16.862173080444336 -2.1133432388305664 -2.4078803062438965
12.61407470703125 -7.365069389343262 -2.406315326690674
12.760485649108887 -7.109066486358643 -2.40636944770813
12.901691436767578 -6.850150108337402 -2.406421661376953
13.03762435913086 -6.588419437408447 -2.4064722061157227
13.413305282592773 -5.787459373474121 -2.406611680984497
13.527666091918945 -5.515593528747559 -2.406654119491577
13.636479377746582 -5.241386413574219 -2.4066946506500244
13.9293794631958 -4.406587600708008 -2.4068033695220947
14.240151405334473 -3.268679141998291 -2.406919240951538
14.303393363952637 -2.9805564880371094 -2.406942844390869
14.4122896194458 -2.400747299194336 -2.4069838523864746
14.457939147949219 -2.109312057495117 -2.407000780105591
14.497651100158691 -1.8169958591461182 -2.407015800476074
10.920272827148438 -6.675307273864746 -2.405693769454956
11.18129825592041 -6.229211330413818 -2.405789375305176
11.30499267578125 -6.002330780029297 -2.405834674835205
11.424077033996582 -5.773082256317139 -2.4058783054351807
11.753180503845215 -5.071168899536133 -2.4059998989105225
11.853346824645996 -4.832926273345947 -2.4060373306274414
11.948671340942383 -4.592705726623535 -2.4060726165771484
12.205245971679688 -3.8611528873443604 -2.406167984008789
12.477479934692383 -2.864068031311035 -2.4062695503234863
12.668256759643555 -1.8482216596603394 -2.406341075897217
12.703048706054688 -1.5920687913894653 -2.4063539505004883
9.708622932434082 -5.93465518951416 -2.4052531719207764
9.826635360717773 -5.737544536590576 -2.4052963256835938
10.050585746765137 -5.336358070373535 -2.4053783416748047
10.156435012817383 -5.132441997528076 -2.4054172039031982
10.25814437866211 -4.926429748535156 -2.405454397201538
10.355669021606445 -4.718399524688721 -2.4054901599884033
10.70312213897705 -3.8678104877471924 -2.4056177139282227
10.850781440734863 -3.432664155960083 -2.405672073364258
10.917978286743164 -3.2129364013671875 -2.4056968688964844
10.980722427368164 -2.991892099380493 -2.405719757080078
11.092741012573242 -2.546204090118408 -2.405761241912842
11.141974449157715 -2.3217761516571045 -2.4057793617248535
11.262296676635742 -1.643087387084961 -2.4058239459991455
8.7306489944458 -5.336843967437744 -2.404897451400757
8.939260482788086 -4.9802021980285645 -2.4049737453460693
9.03812026977539 -4.798786640167236 -2.4050099849700928
9.224743843078613 -4.430142402648926 -2.405078411102295
9.312423706054688 -4.243057727813721 -2.4051105976104736
9.396307945251465 -4.054244518280029 -2.4051413536071777
9.476359367370605 -3.863764524459839 -2.4051706790924072
9.552541732788086 -3.671705961227417 -2.405198812484741
9.624826431274414 -3.4781455993652344 -2.4052252769470215
9.757587432861328 -3.0868284702301025 -2.405273914337158
9.874418258666992 -2.6904594898223877 -2.4053170680999756
9.926801681518555 -2.4905810356140137 -2.405336380004883
10.019396781921387 -2.0878472328186035 -2.4053704738616943
10.127575874328613 -1.4775384664535522 -2.4054105281829834
7.923957347869873 -4.8437299728393555 -2.404603958129883
8.020246505737305 -4.68283748626709 -2.40463924407959
8.113273620605469 -4.520029544830322 -2.4046733379364014
8.28934097290039 -4.18892765045166 -2.404737710952759
8.372336387634277 -4.020777702331543 -2.404768228530884
8.669806480407715 -3.332409620285034 -2.4048774242401123
8.735403060913086 -3.156730890274048 -2.4049015045166016
8.797430992126465 -2.9797613620758057 -2.404924154281616
8.855878829956055 -2.8015737533569336 -2.4049458503723145
8.961898803710938 -2.4418294429779053 -2.404984951019287
9.053297996520996 -2.07808518409729 -2.4050185680389404
9.093457221984863 -1.8948992490768433 -2.4050333499908447
9.162638664245605 -1.5262762308120728 -2.4050590991973877
7.334587097167969 -4.282496452331543 -2.4043898582458496
7.501681804656982 -3.9830143451690674 -2.4044511318206787
7.580651760101318 -3.8307981491088867 -2.40447998046875
7.729296684265137 -3.5217320919036865 -2.404534339904785
7.798903465270996 -3.3650078773498535 -2.404560089111328
8.045246124267578 -2.7249903678894043 -2.4046504497528076
8.0986909866333 -2.562034845352173 -2.404670000076294
8.279204368591309 -1.9004000425338745 -2.4047365188598633
8.315930366516113 -1.7328768968582153 -2.404750108718872
8.349262237548828 -1.5646450519561768 -2.4047625064849854
8.428764343261719 -1.056380033493042 -2.404792070388794
6.669081687927246 -4.076654434204102 -2.4041476249694824
6.828376293182373 -3.804194927215576 -2.404205799102783
6.90386962890625 -3.665607452392578 -2.404233455657959
6.976542949676514 -3.5255186557769775 -2.4042601585388184
7.046367168426514 -3.3839879035949707 -2.4042859077453613
7.296679496765137 -2.8046209812164307 -2.4043774604797363
7.351877212524414 -2.6567633152008057 -2.40439772605896
7.4532470703125 -2.357848644256592 -2.404435157775879
7.542453289031982 -2.0550754070281982 -2.404468059539795
7.619359970092773 -1.7489397525787354 -2.404496431350708
7.735751628875732 -1.1285887956619263 -2.4045393466949463
7.756989479064941 -0.972186267375946 -2.4045474529266357
6.245466232299805 -3.64658260345459 -2.403993606567383
6.387729167938232 -3.3915600776672363 -2.404045820236206
6.454958438873291 -3.2619426250457764 -2.4040703773498535
6.802199363708496 -2.4581267833709717 -2.4041976928710938
6.895988464355469 -2.181558847427368 -2.4042322635650635
6.938669204711914 -2.0419070720672607 -2.404247999191284
7.049667835235596 -1.6181738376617432 -2.4042887687683105
7.080935001373291 -1.4755282402038574 -2.4043004512786865
7.10930871963501 -1.3322783708572388 -2.404310941696167
7.176999568939209 -0.8994961380958557 -2.4043362140655518
5.735273361206055 -3.5058391094207764 -2.4038078784942627
5.87224817276001 -3.2715208530426025 -2.403857946395874
5.999645709991455 -3.0318548679351807 -2.403904676437378
6.05968713760376 -2.910139322280884 -2.4039268493652344
6.117255687713623 -2.787231683731079 -2.4039478302001953
6.172333717346191 -2.6631886959075928 -2.403968095779419
6.224895000457764 -2.5380547046661377 -2.403987407684326
6.274911880493164 -2.4118857383728027 -2.404005765914917
6.322372913360596 -2.284729480743408 -2.4040231704711914
6.409535884857178 -2.027667999267578 -2.404055118560791
6.449199199676514 -1.8978670835494995 -2.404069662094116
6.55236291885376 -1.5040236711502075 -2.4041078090667725
5.351667404174805 -3.271348714828491 -2.4036684036254883
5.479472637176514 -3.0527005195617676 -2.403715133666992
5.708083152770996 -2.6007983684539795 -2.403798818588257
5.899462699890137 -2.131901502609253 -2.403869390487671
5.94133996963501 -2.012378692626953 -2.4038848876953125
5.980854511260986 -1.891969919204712 -2.4038994312286377
6.017802715301514 -1.7709161043167114 -2.4039127826690674
6.084448337554932 -1.5265545845031738 -2.4039371013641357
6.141188621520996 -1.2796742916107178 -2.4039578437805176
6.187863826751709 -1.0307503938674927 -2.403975009918213
6.207434177398682 -0.9056176543235779 -2.403982400894165
5.010688304901123 -3.0629184246063232 -2.4035441875457764
5.392487525939941 -2.326709508895874 -2.403684377670288
5.523554801940918 -1.9960570335388184 -2.4037320613861084
5.599692344665527 -1.771472692489624 -2.4037599563598633
5.634347915649414 -1.6580724716186523 -2.4037728309631348
5.666696548461914 -1.5439916849136353 -2.40378475189209
5.7244553565979 -1.3139861822128296 -2.40380597114563
5.772880554199219 -1.0818325281143188 -2.4038238525390625
5.793561935424805 -0.9650686383247375 -2.4038314819335938
4.762463092803955 -2.7806921005249023 -2.403454065322876
4.817702293395996 -2.6839709281921387 -2.4034743309020996
4.870949745178223 -2.586181879043579 -2.403493642807007
4.971425533294678 -2.387505531311035 -2.4035305976867676
5.063825607299805 -2.184898853302002 -2.403564453125
5.106938362121582 -2.0822348594665527 -2.4035801887512207
5.147968769073486 -1.9787222146987915 -2.403595209121704
5.186892032623291 -1.8743994235992432 -2.40360951423645
5.223705768585205 -1.7693121433258057 -2.403623104095459
5.258393287658691 -1.6635030508041382 -2.4036357402801514
5.349521160125732 -1.3421660661697388 -2.4036693572998047
5.375546932220459 -1.23389732837677 -2.4036788940429688
5.440436840057373 -0.9062469005584717 -2.403702974319458
4.483781814575195 -2.6179749965667725 -2.403352737426758
4.535758972167969 -2.5269410610198975 -2.403371572494507
4.585883617401123 -2.4348723888397217 -2.4033901691436768
4.634140491485596 -2.341810941696167 -2.403407573699951
4.680507659912109 -2.2477922439575195 -2.4034247398376465
4.724963188171387 -2.1528563499450684 -2.4034409523010254
4.767497539520264 -2.057041645050049 -2.403456687927246
4.846706390380859 -1.8629266023635864 -2.4034857749938965
4.981301307678223 -1.465894103050232 -2.4035351276397705
5.009902000427246 -1.3650362491607666 -2.403545618057251
5.036459922790527 -1.2636202573776245 -2.403555393218994
5.060961723327637 -1.1616878509521484 -2.403564453125
5.08340311050415 -1.0592819452285767 -2.4035727977752686
5.103766918182373 -0.9564416408538818 -2.4035801887512207
5.138242244720459 -0.749631941318512 -2.403593063354492
4.230981349945068 -2.470371961593628 -2.4032607078552246
4.280026912689209 -2.384469509124756 -2.4032788276672363
4.327323913574219 -2.2975902557373047 -2.4032959938049316
4.372856140136719 -2.2097747325897217 -2.4033126831054688
4.45855712890625 -2.0314717292785645 -2.40334415435791
4.498688697814941 -1.9410592317581177 -2.4033589363098145
4.536984920501709 -1.849850058555603 -2.4033730030059814
4.573434829711914 -1.7578896284103394 -2.403386116027832
4.608012676239014 -1.6652075052261353 -2.4033989906311035
4.6407151222229 -1.5718481540679932 -2.4034109115600586
4.671525955200195 -1.477846384048462 -2.4034221172332764
4.775595664978027 -1.0961849689483643 -2.403460741043091
4.796770095825195 -0.9995532035827637 -2.403468370437622
4.815986156463623 -0.902512788772583 -2.403475522994995
4.833239555358887 -0.8051019310951233 -2.403481960296631
4.861821174621582 -0.6093341112136841 -2.4034924507141113
3.952397346496582 -2.4160079956054688 -2.4031593799591064
4.091481685638428 -2.1723718643188477 -2.403210163116455
4.134533405303955 -2.0893406867980957 -2.403225898742676
4.215559005737305 -1.9207531213760376 -2.4032557010650635
4.324174880981445 -1.6620800495147705 -2.4032955169677734
4.356867790222168 -1.5744519233703613 -2.4033076763153076
4.444240570068359 -1.3078484535217285 -2.4033396244049072
4.493452072143555 -1.1273821592330933 -2.403357744216919
4.515307426452637 -1.0364395380020142 -2.4033658504486084
4.584252834320068 -0.6688085794448853 -2.4033913612365723
4.59683084487915 -0.5761224031448364 -2.403395891189575
3.7435545921325684 -2.288347005844116 -2.403083324432373
3.789013624191284 -2.212318181991577 -2.40310001373291
3.8329296112060547 -2.135385751724243 -2.40311598777771
3.8752880096435547 -2.057582378387451 -2.4031317234039307
3.9552366733551025 -1.8994863033294678 -2.40316104888916
3.992802619934082 -1.8192580938339233 -2.403174638748169
4.063034534454346 -1.656606674194336 -2.403200387954712
4.126637935638428 -1.4912524223327637 -2.403223752975464
4.155922889709473 -1.4076430797576904 -2.4032344818115234
4.209392070770264 -1.2387374639511108 -2.403254270553589
4.233559608459473 -1.1535073518753052 -2.4032630920410156
4.255998611450195 -1.0678067207336426 -2.403271198272705
4.2767014503479 -0.9816702008247375 -2.4032788276672363
4.312868595123291 -0.8082281351089478 -2.403292417526245
3.551220655441284 -2.1707777976989746 -2.4030134677886963
3.5943431854248047 -2.0986545085906982 -2.403029203414917
3.752023935317993 -1.801892638206482 -2.4030869007110596
3.78765606880188 -1.725785732269287 -2.40310001373291
3.8217480182647705 -1.6489770412445068 -2.4031126499176025
3.8542747497558594 -1.5714913606643677 -2.4031245708465576
3.8852367401123047 -1.493366003036499 -2.4031357765197754
3.91461181640625 -1.4146316051483154 -2.403146505355835
3.968559503555298 -1.2554607391357422 -2.4031665325164795
4.016035079956055 -1.0942391157150269 -2.403183937072754
4.0373215675354 -1.012941598892212 -2.4031918048858643
4.091264724731445 -0.766699492931366 -2.4032115936279297
4.118901252746582 -0.6009170413017273 -2.403221845626831
