ply
format ascii 1.0
element vertex 845
property float x
property float y
property float z
end_header
17.648773193359375 35.09189987182617 0.6635108590126038
16.774818420410156 35.09188461303711 0.6570103168487549
15.91746997833252 35.091880798339844 0.6508973836898804
15.705307006835938 43.628231048583984 0.7832581996917725
15.705283164978027 46.53919219970703 0.8296934366226196
6.786669731140137 24.98427391052246 0.4373258948326111
13.949721336364746 -21.87392807006836 -0.14606566727161407
13.94969654083252 -20.05048942565918 -0.137520894408226
13.94967269897461 -18.42613983154297 -0.13011734187602997
13.949663162231445 -17.67723274230957 -0.12678100168704987
13.949652671813965 -16.965484619140625 -0.12365402281284332
17.2460880279541 -17.138378143310547 -0.1368865966796875
17.952890396118164 -17.138368606567383 -0.13973906636238098
18.690067291259766 -17.138357162475586 -0.14277328550815582
19.46025848388672 -17.138347625732422 -0.14599746465682983
20.26639175415039 -17.138334274291992 -0.14943115413188934
20.547542572021484 -16.68031120300293 -0.14900405704975128
22.98917007446289 -16.470001220703125 -0.15921859443187714
23.985897064208984 6.9419989585876465 -0.1405850201845169
22.29949188232422 6.941981792449951 -0.13149063289165497
20.81743049621582 6.941967010498047 -0.12354888767004013
17.90835952758789 6.374115467071533 -0.10702010989189148
15.913715362548828 6.769015312194824 -0.09736480563879013
15.913710594177246 7.149580478668213 -0.0982220470905304
15.913705825805664 7.537087917327881 -0.09913604706525803
15.913705825805664 7.932027816772461 -0.10011062026023865
15.913701057434082 8.334951400756836 -0.10114288330078125
15.913691520690918 9.167116165161133 -0.10339812934398651
15.91368579864502 9.59764575958252 -0.10462997108697891
15.913676261901855 10.491098403930664 -0.10731429606676102
15.913666725158691 10.95562744140625 -0.10877319425344467
15.913666725158691 11.433158874511719 -0.11032317578792572
15.913657188415527 11.92467212677002 -0.11195998638868332
15.705488204956055 12.784440994262695 -0.1140148863196373
16.373748779296875 15.054694175720215 -0.12522917985916138
16.37374496459961 15.672762870788574 -0.12761306762695312
16.373716354370117 17.68050765991211 -0.1356724500656128
16.37370491027832 18.408342361450195 -0.13870833814144135
16.373695373535156 19.169824600219727 -0.141937717795372
16.373666763305664 21.68819236755371 -0.15299926698207855
16.373641967773438 23.601774215698242 -0.1617286652326584
16.028715133666992 24.124597549438477 -0.16307219862937927
15.705336570739746 24.699609756469727 -0.164794459939003
15.917475700378418 35.09187698364258 -0.21694564819335938
15.7208251953125 38.7189826965332 -0.23527739942073822
16.24849510192871 45.13719177246094 -0.27009153366088867
7.154408931732178 28.595314025878906 -0.16595549881458282
13.51419448852539 -23.195018768310547 -0.7558882236480713
13.94961929321289 -21.873764038085938 -0.730506420135498
13.949599266052246 -20.05034828186035 -0.6877738833427429
13.949594497680664 -19.21572494506836 -0.6686158776283264
13.9495849609375 -18.426023483276367 -0.6507519483566284
14.105917930603027 -16.470136642456055 -0.6106048226356506
15.285228729248047 -17.138410568237305 -0.6466279625892639
16.567251205444336 -17.138391494750977 -0.6711964011192322
17.246084213256836 -17.13838005065918 -0.6846189498901367
18.690067291259766 -17.13835906982422 -0.7140370011329651
19.46025848388672 -17.138347625732422 -0.7301660180091858
20.266386032104492 -17.138336181640625 -0.7473533749580383
20.547441482543945 -16.680219650268555 -0.74521803855896
22.782377243041992 -17.74782943725586 -0.8131850957870483
22.782367706298828 -17.02412986755371 -0.8008224368095398
22.989179611206055 -16.47000503540039 -0.7963091731071472
33.953773498535156 -23.308324813842773 -1.1596531867980957
34.19703674316406 -19.638423919677734 -1.1104012727737427
34.17086410522461 -18.72144889831543 -1.0971266031265259
34.358882904052734 -17.06850814819336 -1.0802756547927856
24.41794776916504 6.538778305053711 -0.7117820382118225
22.29948616027832 6.941980361938477 -0.6576279997825623
17.90828514099121 6.374088764190674 -0.5352475047111511
15.913652420043945 6.3948564529418945 -0.48292145133018494
15.913641929626465 7.149549961090088 -0.49123990535736084
15.913637161254883 7.9319915771484375 -0.5006706118583679
15.913622856140137 8.746404647827148 -0.5113128423690796
15.913618087768555 9.167072296142578 -0.5171217322349548
15.913613319396973 9.597597122192383 -0.5232789516448975
15.913602828979492 10.038664817810059 -0.5297991633415222
15.913593292236328 10.955573081970215 -0.544012725353241
15.70541000366211 12.268542289733887 -0.5611671209335327
15.705405235290527 12.784372329711914 -0.5702230930328369
16.373682022094727 13.884042739868164 -0.6044849753379822
16.373676300048828 14.458951950073242 -0.6150783896446228
16.3736515045166 15.672679901123047 -0.6382158994674683
16.373632431030273 16.983476638793945 -0.6642729043960571
16.373573303222656 20.80599021911621 -0.7455098032951355
16.3735294342041 23.60161018371582 -0.8088358640670776
16.02872085571289 24.124597549438477 -0.8155649900436401
16.37322235107422 28.188663482666016 -0.9179118275642395
15.70516586303711 28.333209991455078 -0.9121732711791992
18.54059600830078 35.0919075012207 -1.1175484657287598
17.648784637451172 35.091896057128906 -1.1060410737991333
16.774824142456055 35.09188461303711 -1.0952045917510986
15.917465209960938 35.09187698364258 -1.0850131511688232
16.24846076965332 37.82197570800781 -1.159101963043213
16.248310089111328 45.13663864135742 -1.3507888317108154
7.313764572143555 24.934839248657227 -0.7316921949386597
7.154438495635986 28.595394134521484 -0.8300039768218994
13.9495210647583 -21.873613357543945 -1.31568443775177
13.949511528015137 -20.93444061279297 -1.2757818698883057
13.949506759643555 -20.050209045410156 -1.2387135028839111
13.949501991271973 -19.215604782104492 -1.204211711883545
13.949491500854492 -18.4259033203125 -1.1720408201217651
13.949481964111328 -16.96527862548828 -1.1138761043548584
15.285228729248047 -17.138410568237305 -1.1646217107772827
15.914301872253418 -17.13840103149414 -1.1860945224761963
16.5672550201416 -17.138391494750977 -1.2088712453842163
17.2460880279541 -17.13838005065918 -1.2330436706542969
17.952884674072266 -17.138368606567383 -1.258724331855774
18.6900577545166 -17.13835906982422 -1.2860277891159058
22.782264709472656 -17.747743606567383 -1.4645904302597046
22.782255172729492 -17.024051666259766 -1.442325234413147
34.05807113647461 -22.38750648498535 -2.066967010498047
33.975345611572266 -21.36895751953125 -2.035503625869751
34.12053298950195 -20.516124725341797 -2.0191140174865723
33.778987884521484 -19.398359298706055 -1.9754562377929688
33.77219009399414 -18.50303840637207 -1.9529372453689575
34.236656188964844 -17.007795333862305 -1.9387234449386597
43.36054992675781 -19.41110610961914 -2.4092860221862793
45.09307098388672 -14.970172882080078 -2.4095911979675293
45.65628433227539 -13.147714614868164 -2.4095184803009033
45.90959548950195 -12.22817325592041 -2.4094433784484863
46.73594284057617 -8.504965782165527 -2.4091055393218994
46.895423889160156 -7.564767837524414 -2.4090118408203125
47.26000213623047 -4.72786808013916 -2.4087138175964355
47.47256088256836 -1.8752535581588745 -2.409409284591675
47.50056838989258 -0.9219478964805603 -2.409402847290039
47.509281158447266 0.03175598010420799 -2.4093940258026123
47.36555862426758 3.843567371368408 -2.410005569458008
47.27864456176758 4.793614864349365 -2.409991502761841
47.04734802246094 6.687366008758545 -2.4099533557891846
46.90329360961914 7.6303911209106445 -2.4099295139312744
34.28066635131836 6.285732746124268 -1.7674952745437622
24.417850494384766 6.538753032684326 -1.2819668054580688
15.913583755493164 6.394833087921143 -0.8697687983512878
15.913583755493164 6.768954277038574 -0.8770197629928589
15.913569450378418 7.5370192527771 -0.8929862976074219
15.91356372833252 7.931957244873047 -0.9017396569252014
15.913558959960938 8.334877014160156 -0.9110380411148071
15.913549423217773 8.746363639831543 -0.9209063649177551
15.913549423217773 9.167031288146973 -0.9313690066337585
15.913524627685547 10.49100112915039 -0.9666370749473572
15.913515090942383 10.955519676208496 -0.9798001050949097
15.913500785827637 11.92455768585205 -1.008477807044983
15.705331802368164 12.268478393554688 -1.010692834854126
15.705327033996582 12.784311294555664 -1.0270049571990967
16.37358856201172 14.458881378173828 -1.1077935695648193
16.373579025268555 15.054533004760742 -1.1280149221420288
16.37350082397461 19.16958236694336 -1.2785241603851318
16.373485565185547 19.967695236206055 -1.3095662593841553
16.37346649169922 20.80586051940918 -1.3427066802978516
16.373416900634766 23.601442337036133 -1.456758737564087
16.02872085571289 24.12459373474121 -1.4688894748687744
17.13908576965332 28.188671112060547 -1.6730692386627197
16.37323760986328 28.188661575317383 -1.6532243490219116
15.705039024353027 28.332983016967773 -1.6428648233413696
15.917465209960938 35.09187698364258 -1.9541780948638916
16.248300552368164 37.82157516479492 -2.0875978469848633
9.176527976989746 25.491756439208984 -1.3740381002426147
9.172558784484863 27.180892944335938 -1.4548299312591553
7.154452800750732 28.595468521118164 -1.4948986768722534
6.745497703552246 29.46052360534668 -1.5327367782592773
6.128627777099609 29.4739990234375 -1.5267199277877808
4.629638671875 24.747602462768555 -1.2768276929855347
4.991674900054932 34.23500061035156 -1.7545523643493652
13.949413299560547 -20.93428611755371 -1.84450101852417
13.949403762817383 -18.42578125 -1.6945122480392456
13.949394226074219 -17.676898956298828 -1.6510655879974365
14.10592269897461 -16.470136642456055 -1.5899978876113892
15.285234451293945 -17.138410568237305 -1.6837981939315796
15.914301872253418 -17.13840103149414 -1.7148451805114746
16.567251205444336 -17.138391494750977 -1.747776746749878
17.2460880279541 -17.13838005065918 -1.7827258110046387
17.95289421081543 -17.138370513916016 -1.8198527097702026
18.690073013305664 -17.13835906982422 -1.859323501586914
19.46025276184082 -17.138349533081055 -1.901328444480896
20.266395568847656 -17.138336181640625 -1.9460748434066772
22.78215217590332 -17.747648239135742 -2.1174826622009277
22.782148361206055 -17.023963928222656 -2.0852925777435303
25.747114181518555 -16.92445182800293 -2.259167432785034
26.08106803894043 -16.403839111328125 -2.2591207027435303
26.69731903076172 -15.33155345916748 -2.257327079772949
26.98873519897461 -14.786530494689941 -2.256411552429199
27.268911361694336 -14.23592472076416 -2.255483865737915
27.537748336791992 -13.679976463317871 -2.254544734954834
28.14512062072754 -13.284114837646484 -2.281975746154785
30.943607330322266 -10.9671630859375 -2.4071414470672607
31.889095306396484 -7.811727046966553 -2.40730881690979
32.17763137817383 -6.525547504425049 -2.407360076904297
32.30244445800781 -5.878353595733643 -2.4073824882507324
32.512855529785156 -4.577080726623535 -2.4074203968048096
32.72993469238281 -2.6118929386138916 -2.4074602127075195
32.80860900878906 -1.2960201501846313 -2.407475233078003
32.834232330322266 0.02194824256002903 -2.4074809551239014
32.80690002441406 1.3398821353912354 -2.407477617263794
32.58787536621094 2.6444036960601807 -2.397266387939453
30.54659652709961 3.7180066108703613 -2.256273031234741
30.4804630279541 4.332528114318848 -2.2573554515838623
30.31084442138672 5.55780553817749 -2.259507179260254
30.005414962768555 6.756956100463867 -2.2551522254943848
22.299482345581055 6.94197940826416 -1.712441325187683
20.817420959472656 6.941963195800781 -1.6090105772018433
17.90812873840332 6.7820563316345215 -1.404070258140564
15.913515090942383 6.394807815551758 -1.2574974298477173
15.913505554199219 7.1494879722595215 -1.279163122177124
15.913500785827637 7.536987781524658 -1.2910642623901367
15.913456916809082 10.03857421875 -1.379570484161377
15.9134521484375 10.490954399108887 -1.3975472450256348
15.913436889648438 11.432995796203613 -1.4367245435714722
15.705253601074219 12.268417358398438 -1.461245059967041
15.705248832702637 12.784250259399414 -1.4848257303237915
16.373504638671875 14.45880126953125 -1.6016303300857544
16.37348175048828 15.672507286071777 -1.6618728637695312
16.37346649169922 16.314769744873047 -1.6947760581970215
16.373416900634766 18.40801429748535 -1.8063830137252808
16.373363494873047 20.80573272705078 -1.9412587881088257
16.37330436706543 23.60128402709961 -2.1061532497406006
15.432035446166992 26.568315505981445 -2.252823829650879
14.352099418640137 27.164306640625 -2.252652645111084
13.249091148376465 27.71630859375 -2.2524755001068115
8.683798789978027 21.387414932250977 -1.6924092769622803
7.963778972625732 23.598920822143555 -1.8261959552764893
6.273935317993164 21.389719009399414 -1.6344860792160034
5.557631492614746 24.27263641357422 -1.8257793188095093
4.623842716217041 22.23727035522461 -1.6653590202331543
4.429955959320068 30.382476806640625 -2.25126314163208
11.8336763381958 -20.31067657470703 -2.2567477226257324
12.239389419555664 -20.06966209411621 -2.2568185329437256
12.640214920043945 -19.820539474487305 -2.2568886280059814
13.035942077636719 -19.56341552734375 -2.256957769393921
13.42641544342041 -19.298370361328125 -2.257025957107544
14.191079139709473 -18.74502182006836 -2.25715970993042
13.949311256408691 -17.676786422729492 -2.1618223190307617
14.10592269897461 -16.470136642456055 -2.081876277923584
15.285228729248047 -17.138410568237305 -2.2046942710876465
17.006113052368164 -16.23454475402832 -2.2571752071380615
18.234804153442383 -14.80284595489502 -2.2548539638519287
18.523265838623047 -14.42990493774414 -2.2542433738708496
18.80400276184082 -14.051297187805176 -2.2536215782165527
19.076889038085938 -13.667153358459473 -2.252988338470459
19.419902801513672 -13.331222534179688 -2.261427402496338
21.135507583618164 -13.293295860290527 -2.3970906734466553
21.97490692138672 -12.039566040039062 -2.4055845737457275
22.21255874633789 -11.596220016479492 -2.4056262969970703
22.441190719604492 -11.148154258728027 -2.4056663513183594
22.871322631835938 -10.238718032836914 -2.4057421684265137
23.447113037109375 -8.843921661376953 -2.405843496322632
23.620214462280273 -8.371574401855469 -2.405874013900757
23.783803939819336 -7.895838260650635 -2.405902862548828
24.08211326599121 -6.934965133666992 -2.4059555530548096
24.21670913696289 -6.450204372406006 -2.4059793949127197
24.4565372467041 -5.473054885864258 -2.406022071838379
24.5616455078125 -4.981045246124268 -2.406040906906128
24.656835556030273 -4.4870219230651855 -2.406057834625244
24.742128372192383 -3.9911887645721436 -2.4060733318328857
24.882640838623047 -2.994861364364624 -2.4060986042022705
24.9378662109375 -2.49477219581604 -2.406108856201172
24.983016967773438 -1.9936782121658325 -2.4061169624328613
25.062557220458984 0.016752928495407104 -2.4061331748962402
25.05717658996582 0.5198510885238647 -2.406132698059082
25.04169464111328 1.0227398872375488 -2.40613055229187
24.9345703125 2.528115749359131 -2.406113624572754
23.300806045532227 2.8360791206359863 -2.2535037994384766
23.03170394897461 4.7028398513793945 -2.2567803859710693
22.840654373168945 5.6275506019592285 -2.2583937644958496
20.817426681518555 6.941963195800781 -2.10676908493042
17.908056259155273 6.782021999359131 -1.8384225368499756
15.9134521484375 6.394778251647949 -1.6465096473693848
15.913447380065918 6.768894672393799 -1.6602333784103394
15.913436889648438 7.1494574546813965 -1.6748725175857544
15.913432121276855 7.536953449249268 -1.690458059310913
15.913427352905273 7.931882858276367 -1.707028865814209
15.91341781616211 8.334802627563477 -1.7246344089508057
15.913393020629883 9.597463607788086 -1.784111499786377
15.913378715515137 10.4909029006958 -1.829880952835083
15.913363456726074 10.955411911010742 -1.854796051979065
15.705175399780273 12.268354415893555 -1.9132848978042603
16.37342643737793 13.883828163146973 -2.060978651046753
16.373388290405273 15.67241382598877 -2.175971508026123
16.37337303161621 16.31468391418457 -2.2190561294555664
16.285078048706055 16.89161491394043 -2.2526018619537354
15.593256950378418 17.530908584594727 -2.252502202987671
15.237841606140137 17.83998680114746 -2.2524502277374268
14.13539981842041 18.72344398498535 -2.252286195755005
13.756361961364746 19.00294303894043 -2.2522287368774414
13.371782302856445 19.274747848510742 -2.2521700859069824
12.981816291809082 19.538740158081055 -2.252110242843628
12.586640357971191 19.794870376586914 -2.252048969268799
10.538148880004883 20.95349884033203 -2.251725435256958
9.68801212310791 21.358318328857422 -2.2515881061553955
8.679052352905273 21.375709533691406 -2.214881658554077
8.187641143798828 21.387407302856445 -2.198608875274658
6.273847579956055 21.389432907104492 -2.139944553375244
5.809618949890137 21.387374877929688 -2.1276957988739014
5.351015567779541 21.387367248535156 -2.116574764251709
4.910664081573486 21.447050094604492 -2.1123077869415283
4.623852252960205 22.237268447875977 -2.180551290512085
4.311215877532959 23.043954849243164 -2.2506954669952393
3.8473386764526367 23.124967575073242 -2.2506258487701416
10.209956169128418 -16.0097599029541 -2.2555441856384277
10.52779769897461 -15.799372673034668 -2.25522780418396
11.45449161529541 -15.130221366882324 -2.254206657409668
11.753959655761719 -14.894821166992188 -2.253842830657959
12.33816909790039 -14.406145095825195 -2.253080129623413
13.175761222839355 -13.62996768951416 -2.2518527507781982
13.977426528930664 -13.343273162841797 -2.2954018115997314
15.456186294555664 -13.070573806762695 -2.4044528007507324
15.715726852416992 -12.757909774780273 -2.404498338699341
17.13665008544922 -10.778190612792969 -2.4047467708587646
17.755130767822266 -9.727645874023438 -2.404855251312256
17.94707489013672 -9.369391441345215 -2.404888868331909
18.131776809692383 -9.007354736328125 -2.404921293258667
18.30916404724121 -8.641676902770996 -2.4049525260925293
18.47917938232422 -8.272505760192871 -2.404982328414917
18.796762466430664 -7.524259090423584 -2.405038356781006
19.084062576293945 -6.763851165771484 -2.4050889015197754
19.340551376342773 -5.992493152618408 -2.4051342010498047
19.565814971923828 -5.211421489715576 -2.4051740169525146
19.666635513305664 -4.81765079498291 -2.4051921367645264
19.759502410888672 -4.421921253204346 -2.4052085876464844
19.990169525146484 -3.224644184112549 -2.405249834060669
20.050981521606445 -2.8227298259735107 -2.4052608013153076
20.10368537902832 -2.4196689128875732 -2.4052703380584717
20.14827537536621 -2.0156188011169434 -2.4052786827087402
20.213056564331055 -1.2052620649337769 -2.4052906036376953
20.23320770263672 -0.7992611527442932 -2.40529465675354
20.23210906982422 0.8263098001480103 -2.4052960872650146
20.18257713317871 1.6377520561218262 -2.4052882194519043
20.14559555053711 2.0425610542297363 -2.405282497406006
18.77518081665039 2.6687262058258057 -2.252645254135132
18.66230010986328 3.421924352645874 -2.253777503967285
18.520658493041992 4.170689582824707 -2.2550864219665527
18.438501358032227 4.542934894561768 -2.255734920501709
18.348827362060547 4.9135565757751465 -2.2563793659210205
18.003192901611328 6.0035014152526855 -2.254298210144043
17.879589080810547 6.3638739585876465 -2.2543652057647705
15.9133882522583 6.39475154876709 -2.0372002124786377
15.913378715515137 6.768866539001465 -2.054185628890991
15.913369178771973 7.1494293212890625 -2.072295904159546
15.913358688354492 7.536921977996826 -2.0915794372558594
15.91335391998291 7.931852340698242 -2.1120851039886475
15.913344383239746 8.334768295288086 -2.133862257003784
15.913334846496582 8.746249198913574 -2.1569747924804688
15.913330078125 9.16690731048584 -2.181481122970581
15.91331958770752 9.597419738769531 -2.207451820373535
15.830253601074219 10.436102867126465 -2.2522695064544678
15.617382049560547 10.751643180847168 -2.2522435188293457
15.398232460021973 11.062846183776855 -2.252216100692749
14.70388126373291 11.969125747680664 -2.252126455307007
14.46041488647461 12.26169204711914 -2.252094030380249
14.211166381835938 12.549323081970215 -2.2520601749420166
13.695556640625 13.109230995178223 -2.2519891262054443
12.311894416809082 14.414379119873047 -2.251790761947632
12.019828796386719 14.658342361450195 -2.2517476081848145
11.115082740783691 15.35429859161377 -2.2516119480133057
10.804399490356445 15.573996543884277 -2.2515645027160645
10.489364624023438 15.787402153015137 -2.251516103744507
10.170122146606445 15.994433403015137 -2.251466751098633
9.846776962280273 16.19500160217285 -2.2514164447784424
9.188359260559082 16.57644271850586 -2.251312732696533
8.515155792236328 16.931081771850586 -2.2512054443359375
7.828305721282959 17.258392333984375 -2.2510945796966553
6.774824142456055 17.69690704345703 -2.2509219646453857
6.418041706085205 17.82889175415039 -2.2508628368377686
6.058705806732178 17.953664779663086 -2.250802993774414
5.3328857421875 18.181400299072266 -2.250681161880493
4.966699123382568 18.284271240234375 -2.250619411468506
4.598530292510986 18.37979507446289 -2.2505569458007812
3.8568358421325684 18.548498153686523 -2.25042986869812
3.1090283393859863 18.68731117248535 -2.250300884246826
2.7331836223602295 18.745397567749023 -2.2502353191375732
7.99807596206665 -13.72745418548584 -2.2510876655578613
8.27114200592041 -13.562678337097168 -2.2508444786071777
8.908251762390137 -13.368877410888672 -2.2762370109558105
10.50875473022461 -13.31684684753418 -2.403594493865967
10.774149894714355 -13.103466033935547 -2.4036407470703125
11.291708946228027 -12.660893440246582 -2.403731107711792
11.791391372680664 -12.197895050048828 -2.403818130493164
12.27193832397461 -11.715167999267578 -2.403902053833008
12.504843711853027 -11.466657638549805 -2.403942584991455
12.732719421386719 -11.213513374328613 -2.403982400894165
13.385009765625 -10.42730712890625 -2.4040963649749756
13.989164352416992 -9.603166580200195 -2.4042019844055176
14.363744735717773 -9.034159660339355 -2.4042677879333496
14.542387008666992 -8.744114875793457 -2.404299020767212
14.71517562866211 -8.450531005859375 -2.404329299926758
14.882025718688965 -8.153532981872559 -2.404358386993408
15.488774299621582 -6.933799743652344 -2.4044651985168457
15.754936218261719 -6.306629657745361 -2.4045119285583496
15.995673179626465 -5.669248580932617 -2.4045543670654297
16.106382369995117 -5.34705924987793 -2.404573917388916
16.39937400817871 -4.3680315017700195 -2.40462589263916
16.561674118041992 -3.706287384033203 -2.4046547412872314
16.697275161743164 -3.038550615310669 -2.4046788215637207
16.754955291748047 -2.702775716781616 -2.404689311981201
16.8874454498291 -1.689412236213684 -2.4047131538391113
16.917987823486328 -1.350077748298645 -2.4047188758850098
16.941722869873047 -1.010198950767517 -2.4047234058380127
16.958593368530273 -0.6699066162109375 -2.40472674369812
16.97185516357422 0.011344604194164276 -2.4047296047210693
16.96820831298828 0.35203245282173157 -2.4047293663024902
16.916196823120117 1.3726959228515625 -2.40472149848938
15.635297775268555 2.8668932914733887 -2.252288818359375
15.515165328979492 3.4938812255859375 -2.2533843517303467
15.445639610290527 3.805544853210449 -2.253927230834961
15.369794845581055 4.115812301635742 -2.2544667720794678
15.287699699401855 4.424568176269531 -2.255002498626709
15.199413299560547 4.731672763824463 -2.2555339336395264
14.8973970413208 5.64185094833374 -2.257103443145752
14.639745712280273 6.227120876312256 -2.254148244857788
14.224374771118164 7.090000629425049 -2.2519288063049316
13.927997589111328 7.6550750732421875 -2.2518773078918457
13.771376609802246 7.933027744293213 -2.251849889755249
13.609169960021973 8.207771301269531 -2.251821517944336
13.089945793151855 9.0116548538208 -2.2517309188842773
12.906220436096191 9.272462844848633 -2.2516982555389404
12.717368125915527 9.52957534790039 -2.2516744136810303
12.324320793151855 10.03213882446289 -2.2516229152679443
12.120292663574219 10.277389526367188 -2.251595973968506
11.479287147521973 10.987838745117188 -2.2515082359313965
11.028676986694336 11.439440727233887 -2.2514445781707764
10.79666519165039 11.658344268798828 -2.251411199569702
10.319682121276855 12.081957817077637 -2.2513418197631836
10.074902534484863 12.286477088928223 -2.2513058185577393
9.573290824890137 12.68056869506836 -2.2512309551239014
8.792236328125 13.233076095581055 -2.2511117458343506
8.524672508239746 13.406660079956055 -2.251070261001587
8.253671646118164 13.574838638305664 -2.251028060913086
7.97936487197876 13.737524032592773 -2.2509851455688477
7.701835632324219 13.8946533203125 -2.250941276550293
7.421205997467041 14.04617691040039 -2.250896453857422
6.851137638092041 14.332162857055664 -2.250805139541626
5.078691482543945 15.049604415893555 -2.250514030456543
4.775449275970459 15.148173332214355 -2.2504632472991943
4.470312595367432 15.240633964538574 -2.2504119873046875
4.163383483886719 15.32696533203125 -2.2503600120544434
3.544633626937866 15.480993270874023 -2.2502548694610596
2.920234203338623 15.610055923461914 -2.250147581100464
2.291186571121216 15.713939666748047 -2.2500381469726562
7.343373775482178 -12.603754997253418 -2.403046131134033
8.331303596496582 -11.974943161010742 -2.4032182693481445
8.570160865783691 -11.80550765991211 -2.403259754180908
9.927607536315918 -10.691224098205566 -2.403496503829956
10.140360832214355 -10.489950180053711 -2.403533458709717
10.7538423538208 -9.861031532287598 -2.4036407470703125
10.949774742126465 -9.643305778503418 -2.403674840927124
11.141313552856445 -9.421690940856934 -2.4037082195281982
11.861786842346191 -8.498077392578125 -2.403834342956543
12.352216720581055 -7.76899528503418 -2.4039201736450195
12.505810737609863 -7.519554138183594 -2.403947114944458
12.7978515625 -7.011658668518066 -2.4039981365203857
12.9361572265625 -6.753411293029785 -2.404022455215454
13.069232940673828 -6.492433547973633 -2.404045820236206
13.197065353393555 -6.2288384437561035 -2.4040684700012207
13.319560050964355 -5.962716102600098 -2.40408992767334
13.436689376831055 -5.694188594818115 -2.4041104316711426
13.755375862121582 -4.875237464904785 -2.4041666984558105
14.024145126342773 -4.038557529449463 -2.4042141437530518
14.242035865783691 -3.1871776580810547 -2.404252767562866
14.303202629089355 -2.9006526470184326 -2.404263734817505
14.40822696685791 -2.3242039680480957 -2.404282569885254
14.45201587677002 -2.034522771835327 -2.4042904376983643
14.548388481140137 -1.160980463027954 -2.4043080806732178
14.567543983459473 0.8881847858428955 -2.404313564300537
14.546831130981445 1.1804291009902954 -2.404310464859009
14.520185470581055 1.4722002744674683 -2.404305934906006
14.487650871276855 1.763379454612732 -2.4043006896972656
14.449320793151855 2.0538432598114014 -2.404294490814209
14.02383804321289 2.5714147090911865 -2.348792552947998
13.392172813415527 2.7345128059387207 -2.25171160697937
13.140185356140137 3.8030290603637695 -2.2535409927368164
12.982196807861328 4.329150199890137 -2.254450559616089
12.89522933959961 4.5897932052612305 -2.2548999786376953
12.602988243103027 5.360766887664795 -2.256223201751709
12.120532035827637 6.348247528076172 -2.2540266513824463
11.977235794067383 6.582986354827881 -2.2515335083007812
11.559057235717773 7.291726589202881 -2.2514591217041016
11.410229682922363 7.522211074829102 -2.2514331340789795
10.9364013671875 8.195039749145508 -2.2513504028320312
10.598379135131836 8.627187728881836 -2.251291036605835
10.422895431518555 8.838089942932129 -2.25126051902771
10.0594482421875 9.24907398223877 -2.25119686126709
9.871655464172363 9.449005126953125 -2.251163959503174
9.484135627746582 9.837373733520508 -2.2511045932769775
9.081396102905273 10.209871292114258 -2.2510464191436768
8.664008140563965 10.565878868103027 -2.2509851455688477
8.450043678283691 10.73752212524414 -2.250953435897827
7.788100242614746 11.226154327392578 -2.2508533000946045
7.561054706573486 11.380045890808105 -2.2508182525634766
7.097944259643555 11.6740083694458 -2.250746488571167
6.862060546875 11.813942909240723 -2.250709295272827
6.6234130859375 11.949115753173828 -2.250671625137329
6.138222694396973 12.204916954040527 -2.2505943775177
5.891884803771973 12.325478553771973 -2.2505545616149902
4.883862018585205 12.757438659667969 -2.25039005279541
4.626698970794678 12.852665901184082 -2.25034761428833
4.106914043426514 13.027511596679688 -2.250260829925537
3.8445019721984863 13.107077598571777 -2.2502167224884033
3.3151562213897705 13.250300407409668 -2.250126838684082
3.0484423637390137 13.31390380859375 -2.2500815391540527
2.511469602584839 13.4249849319458 -2.2499890327453613
2.2414257526397705 13.472418785095215 -2.2499425411224365
6.435639381408691 -11.045910835266113 -2.40289044380188
6.874115943908691 -10.779024124145508 -2.4029667377471924
7.301474571228027 -10.494730949401855 -2.403041124343872
7.510800838470459 -10.346205711364746 -2.4030776023864746
7.717080116271973 -10.193500518798828 -2.403113603591919
7.920258522033691 -10.036688804626465 -2.403149127960205
8.120244026184082 -9.87582015991211 -2.403183937072754
8.510380744934082 -9.54217529296875 -2.403251886367798
8.700331687927246 -9.369547843933105 -2.403285026550293
8.886772155761719 -9.19313907623291 -2.403317451477051
9.069653511047363 -9.013015747070312 -2.4033493995666504
9.424365043640137 -8.641921997070312 -2.403411388397217
9.763891220092773 -8.256866455078125 -2.403470754623413
9.927797317504883 -8.059295654296875 -2.4034993648529053
10.087685585021973 -7.858470439910889 -2.40352725982666
10.39522933959961 -7.447394371032715 -2.403581142425537
10.542743682861328 -7.237300872802734 -2.40360689163208
10.686015129089355 -7.024281978607178 -2.4036319255828857
11.08975601196289 -6.3685479164123535 -2.403702735900879
11.215463638305664 -6.144708156585693 -2.4037246704101562
11.336640357971191 -5.918378829956055 -2.4037458896636963
11.453275680541992 -5.689667701721191 -2.403766393661499
11.565253257751465 -5.458649635314941 -2.4037861824035645
11.775238990783691 -4.990102291107178 -2.403823137283325
11.873120307922363 -4.752756118774414 -2.4038403034210205
12.054511070251465 -4.272397518157959 -2.40387225151062
12.137885093688965 -4.029587268829346 -2.4038870334625244
12.21642017364502 -3.7851412296295166 -2.4039008617401123
12.290009498596191 -3.539158821105957 -2.403913736343384
12.422269821166992 -3.0430259704589844 -2.403937339782715
12.698168754577637 -1.5283455848693848 -2.403986692428589
12.749345779418945 -1.0174145698547363 -2.403996229171753
12.767226219177246 -0.7612826228141785 -2.4039995670318604
12.77994155883789 -0.5048391819000244 -2.4040019512176514
12.78994083404541 0.008547973819077015 -2.4040043354034424
12.787158012390137 0.2652905285358429 -2.4040040969848633
12.779253005981445 0.521923840045929 -2.404003143310547
12.724623680114746 1.290149450302124 -2.40399432182312
12.5136079788208 2.555152416229248 -2.4006004333496094
11.63137149810791 2.865774393081665 -2.2516233921051025
11.573583602905273 3.099241256713867 -2.2520291805267334
11.51109790802002 3.33154034614563 -2.252432107925415
11.295673370361328 4.0204644203186035 -2.253622055053711
10.944242477416992 4.916937828063965 -2.2551589012145996
10.6336669921875 5.569485187530518 -2.256268262863159
10.508291244506836 5.775538921356201 -2.253814697265625
10.390395164489746 5.985415458679199 -2.2538511753082275
10.268320083618164 6.1928911209106445 -2.2538869380950928
10.141958236694336 6.397856712341309 -2.2539215087890625
9.999433517456055 6.592146396636963 -2.25118350982666
9.726572036743164 6.9880547523498535 -2.2511355876922607
9.584257125854492 7.181821823120117 -2.251110792160034
9.438055992126465 7.372682094573975 -2.251085042953491
9.288056373596191 7.56056547164917 -2.25105881690979
9.134267807006836 7.745397090911865 -2.2510321140289307
8.97684097290039 7.927101135253906 -2.251004457473755
8.311615943908691 8.621188163757324 -2.2508881092071533
8.136733055114746 8.78617000579834 -2.250857353210449
7.958657264709473 8.947612762451172 -2.250826120376587
7.592870712280273 9.259601593017578 -2.2507619857788086
7.214848518371582 9.556629180908203 -2.2506957054138184
7.021464824676514 9.69938850402832 -2.250661611557007
6.424648284912109 10.10398006439209 -2.2505643367767334
6.220439434051514 10.2307710647583 -2.250532388687134
5.804599285125732 10.471908569335938 -2.25046706199646
5.593124866485596 10.586159706115723 -2.2504334449768066
4.725649356842041 11.000017166137695 -2.250293493270874
4.503808498382568 11.092487335205078 -2.2502570152282715
4.280160903930664 11.18048095703125 -2.25022029876709
3.1379785537719727 11.55211353302002 -2.2500290870666504
2.905410051345825 11.612577438354492 -2.2499897480010986
2.6716649532318115 11.668356895446777 -2.2499496936798096
2.436845541000366 11.71942138671875 -2.2499094009399414
2.2010741233825684 11.765766143798828 -2.249868869781494
1.9644091129302979 11.807365417480469 -2.2498281002044678
5.91848611831665 -9.704902648925781 -2.4028022289276123
6.112202167510986 -9.584274291992188 -2.4028358459472656
6.303447246551514 -9.4597749710083 -2.40286922454834
6.492162704467773 -9.331466674804688 -2.402902126312256
6.861664772033691 -9.06359577178955 -2.4029664993286133
7.042324066162109 -8.924151420593262 -2.4029979705810547
7.220136642456055 -8.781095504760742 -2.403028964996338
7.39504861831665 -8.634493827819824 -2.403059482574463
7.73586893081665 -8.330904006958008 -2.403118848800659
8.06423282623291 -8.013869285583496 -2.4031763076782227
8.681459426879883 -7.34150505065918 -2.4032838344573975
8.827178001403809 -7.16582727432251 -2.4033093452453613
9.373906135559082 -6.434927940368652 -2.403404951095581
9.972002029418945 -5.463436126708984 -2.4035098552703857
10.07973575592041 -5.262198448181152 -2.4035286903381348
10.183412551879883 -5.058835983276367 -2.4035468101501465
10.378397941589355 -4.646066188812256 -2.403581142425537
10.46963882446289 -4.436830997467041 -2.403597116470337
10.717924118041992 -3.798689603805542 -2.4036407470703125
10.79207992553711 -3.582796812057495 -2.403653860092163
10.861879348754883 -3.365454912185669 -2.4036662578582764
10.98830509185791 -2.9267795085906982 -2.403688669204712
11.18783187866211 -2.0359480381011963 -2.403724193572998
11.226493835449219 -1.8109612464904785 -2.403731107711792
11.260604858398438 -1.5852407217025757 -2.4037375450134277
11.362866401672363 -0.44886139035224915 -2.4037563800811768
11.350653648376465 0.692045271396637 -2.4037554264068604
11.334452629089355 0.919755220413208 -2.4037528038024902
11.313705444335938 1.1470953226089478 -2.403749465942383
11.288373947143555 1.3739745616912842 -2.403745412826538
11.185132026672363 2.050908088684082 -2.4037280082702637
11.093725204467773 2.4982097148895264 -2.403712749481201
10.430912971496582 2.5699925422668457 -2.2708146572113037
10.287558555603027 2.7548601627349854 -2.2512035369873047
10.171923637390137 3.166585683822632 -2.2519168853759766
10.107880592346191 3.3706634044647217 -2.2522695064544678
10.039740562438965 3.573441743850708 -2.2526187896728516
9.967514038085938 3.7748358249664307 -2.252965211868286
9.891215324401855 3.9747655391693115 -2.2533082962036133
9.81094741821289 4.173149108886719 -2.253647804260254
9.726645469665527 4.369903087615967 -2.253983974456787
9.546191215515137 4.75820255279541 -2.2546446323394775
9.450112342834473 4.949589252471924 -2.254969358444214
9.246430397033691 5.326427459716797 -2.255605936050415
9.027670860290527 5.69484806060791 -2.256225347518921
8.90169906616211 5.8684515953063965 -2.2537403106689453
8.782217025756836 6.046041965484619 -2.253769874572754
8.659189224243164 6.221193313598633 -2.2537989616394043
8.391645431518555 6.555309295654297 -2.2509000301361084
8.258261680603027 6.7223687171936035 -2.2508761882781982
8.121542930603027 6.886720657348633 -2.250852346420288
7.692128658294678 7.362827777862549 -2.25077748298645
7.542690277099609 7.5156683921813965 -2.250751256942749
7.390219688415527 7.665475368499756 -2.2507245540618896
6.751195907592773 8.233166694641113 -2.250612497329712
6.415107250213623 8.49730396270752 -2.2505533695220947
6.068696022033691 8.74771785736084 -2.250492572784424
5.891782283782959 8.867653846740723 -2.2504615783691406
5.712490081787109 8.98401165008545 -2.250430107116699
5.530947208404541 9.096747398376465 -2.2503981590270996
5.347109317779541 9.20580768585205 -2.250365972518921
5.161205768585205 9.311152458190918 -2.250333309173584
4.591191291809082 9.604498863220215 -2.2502329349517822
4.397377967834473 9.694579124450684 -2.2501988410949707
4.201865196228027 9.780744552612305 -2.25016450881958
3.605341672897339 10.015454292297363 -2.2500596046447754
3.2003369331359863 10.151771545410156 -2.249986171722412
2.7901854515075684 10.271730422973633 -2.2499170303344727
2.375556468963623 10.375128746032715 -2.2498462200164795
2.1667773723602295 10.420554161071777 -2.2498106956481934
1.957128882408142 10.461779594421387 -2.24977445602417
1.535561442375183 10.531572341918945 -2.2497012615203857
5.146518230438232 -8.833206176757812 -2.4026691913604736
5.838784217834473 -8.392333030700684 -2.40278959274292
6.333549499511719 -8.025978088378906 -2.4028759002685547
6.493456840515137 -7.897313594818115 -2.4029037952423096
6.805380821228027 -7.630468368530273 -2.4029581546783447
7.252548694610596 -7.207259178161621 -2.40303635597229
7.536152362823486 -6.910483360290527 -2.403085708618164
7.673432350158691 -6.757875919342041 -2.4031097888946533
7.807626724243164 -6.602543830871582 -2.4031331539154053
8.066508293151855 -6.283939838409424 -2.4031784534454346
8.312382698059082 -5.955198764801025 -2.403221368789673
8.430327415466309 -5.7871856689453125 -2.4032418727874756
8.867685317993164 -5.092456340789795 -2.4033186435699463
8.968169212341309 -4.913464546203613 -2.4033362865448
9.158295631408691 -4.549590587615967 -2.403369426727295
9.247841835021973 -4.364850997924805 -2.4033851623535156
9.333647727966309 -4.1783623695373535 -2.403400421142578
9.705639839172363 -3.2221179008483887 -2.403465986251831
9.768403053283691 -3.026650905609131 -2.403477191925049
9.827240943908691 -2.829965114593506 -2.40348744392395
9.979867935180664 -2.233366012573242 -2.4035143852233887
10.12697696685791 -1.4256511926651 -2.403540849685669
10.176069259643555 -1.0180102586746216 -2.403549909591675
10.194467544555664 -0.8135324120521545 -2.4035532474517822
10.20876407623291 -0.6087267994880676 -2.4035561084747314
10.2189302444458 -0.40367308259010315 -2.4035580158233643
10.2249755859375 -0.19845886528491974 -2.4035592079162598
10.226903915405273 0.0068359375 -2.403559923171997
10.193387985229492 0.8271612524986267 -2.403554916381836
10.059066772460938 1.844437837600708 -2.4035327434539795
10.02001953125 2.045985698699951 -2.4035260677337646
9.546757698059082 2.5564708709716797 -2.3227484226226807
9.200140953063965 2.6627049446105957 -2.2509846687316895
9.087909698486328 3.0305352210998535 -2.251495361328125
9.026503562927246 3.212799549102783 -2.2518093585968018
8.961430549621582 3.3938164710998535 -2.2521207332611084
8.820390701293945 3.7518131732940674 -2.2527341842651367
8.744452476501465 3.928640127182007 -2.2530362606048584
8.664956092834473 4.103927135467529 -2.2533347606658936
8.49550724029541 4.449594497680664 -2.2539217472076416
8.312148094177246 4.78823184967041 -2.2544937133789062
8.11525821685791 5.119284152984619 -2.2550501823425293
7.905126571655273 5.442207336425781 -2.2555899620056152
7.556772232055664 5.90310001373291 -2.253669261932373
7.177099227905273 6.338819980621338 -2.2506916522979736
7.049448013305664 6.481594562530518 -2.2506637573242188
6.364169597625732 7.155000686645508 -2.2505431175231934
6.219164848327637 7.281233310699463 -2.2505176067352295
6.071703910827637 7.4045233726501465 -2.2504918575286865
5.92174768447876 7.5248284339904785 -2.2504653930664062
5.769433498382568 7.642090320587158 -2.250438690185547
5.614814281463623 7.756272315979004 -2.2504115104675293
5.457924842834473 7.867325782775879 -2.2503840923309326
4.809008598327637 8.279356002807617 -2.250270128250122
4.641791820526123 8.37411880493164 -2.2502405643463135
4.301811218261719 8.553465843200684 -2.250180959701538
3.7790184020996094 8.796517372131348 -2.250088930130005
3.601616144180298 8.87048053741455 -2.2500576972961426
3.422792911529541 8.94086742401123 -2.2500264644622803
2.8782958984375 9.130287170410156 -2.2499306201934814
2.323432683944702 9.286572456359863 -2.24983286857605
2.1364989280700684 9.331202507019043 -2.249799966812134
1.9487451314926147 9.372076988220215 -2.2497668266296387
1.5709375143051147 9.442462921142578 -2.2497003078460693
1.3810399770736694 9.471956253051758 -2.249666929244995
4.671401500701904 -8.01773738861084 -2.402587652206421
4.831464767456055 -7.922442436218262 -2.402615547180176
4.989584922790527 -7.823948860168457 -2.4026429653167725
5.451635837554932 -7.509702205657959 -2.402723550796509
5.60134744644165 -7.398830413818359 -2.402749538421631
5.748798847198486 -7.284975528717041 -2.402775287628174
5.893945217132568 -7.168185234069824 -2.4028005599975586
6.314902305603027 -6.800638198852539 -2.402873992919922
6.712963581085205 -6.408408164978027 -2.4029436111450195
6.84032678604126 -6.272417068481445 -2.402965545654297
7.755849361419678 -5.0981879234313965 -2.403125762939453
7.85668420791626 -4.941506385803223 -2.4031434059143066
7.954355239868164 -4.782833099365234 -2.403160572052002
8.048812866210938 -4.622220516204834 -2.40317702293396
8.227972984313965 -4.295474529266357 -2.4032084941864014
8.393866539001465 -3.9617931842803955 -2.403237819671631
8.471747398376465 -3.792518138885498 -2.4032511711120605
8.6172456741333 -3.449449300765991 -2.4032769203186035
8.684794425964355 -3.275782585144043 -2.4032888412475586
8.8663330078125 -2.747150421142578 -2.403320789337158
8.969521522521973 -2.389065742492676 -2.403339147567749
9.015707969665527 -2.208538770675659 -2.4033474922180176
9.05825138092041 -2.0271174907684326 -2.4033548831939697
9.132397651672363 -1.661901831626892 -2.4033682346343994
9.191757202148438 -1.293994426727295 -2.403378963470459
9.215898513793945 -1.1092218160629272 -2.403383255004883
9.236328125 -0.9239977598190308 -2.4033868312835693
9.253022193908691 -0.7384039163589478 -2.4033901691436768
9.265243530273438 0.564898669719696 -2.4033937454223633
9.214418411254883 1.1215417385101318 -2.4033854007720947
9.19002914428711 1.3062822818756104 -2.40338134765625
9.130126953125 1.6741076707839966 -2.4033713340759277
8.96634292602539 2.401059627532959 -2.403343677520752
8.79152774810791 2.544440269470215 -2.3697006702423096
8.300346374511719 2.5839428901672363 -2.250828266143799
8.246874809265137 2.750075101852417 -2.25085711479187
8.1910400390625 2.9154345989227295 -2.2511420249938965
8.069433212280273 3.2426817417144775 -2.251703977584839
7.93472146987915 3.5648412704467773 -2.2522547245025635
7.787070274353027 3.881394624710083 -2.252793550491333
7.708471298217773 4.0374016761779785 -2.2530579566955566
7.454082012176514 4.495600700378418 -2.253830909729004
7.269218444824219 4.792238235473633 -2.2543280124664307
7.172324180603027 4.9377241134643555 -2.254570960998535
7.072514533996582 5.081244468688965 -2.254809617996216
6.864272117614746 5.362137794494629 -2.255275011062622
6.287773132324219 6.018584251403809 -2.2536189556121826
6.041352272033691 6.266233444213867 -2.2536556720733643
5.906049728393555 6.377196311950684 -2.25046443939209
5.644980430603027 6.60896635055542 -2.250415325164795
5.096396446228027 7.0401787757873535 -2.250319242477417
4.809628963470459 7.238912582397461 -2.2502689361572266
4.663305759429932 7.3339152336120605 -2.2502434253692627
4.515082836151123 7.425962448120117 -2.2502171993255615
4.365043640136719 7.515012741088867 -2.2501907348632812
3.747992992401123 7.840559482574463 -2.250082492828369
3.106806516647339 8.115537643432617 -2.249969720840454
2.778496026992798 8.233484268188477 -2.2499120235443115
2.2778124809265137 8.385473251342773 -2.249823808670044
1.768886685371399 8.507026672363281 -2.2497341632843018
1.4259520769119263 8.570941925048828 -2.249673843383789
1.2535887956619263 8.597723960876465 -2.249643564224243
4.985912799835205 -6.868168830871582 -2.4026434421539307
5.12283182144165 -6.766767501831055 -2.402667284011841
5.257685661315918 -6.662632942199707 -2.402690887451172
5.390419960021973 -6.555811405181885 -2.4027137756347656
5.520991325378418 -6.446341514587402 -2.4027366638183594
5.775404930114746 -6.21964693069458 -2.4027810096740723
5.899155139923096 -6.10252046585083 -2.4028027057647705
6.020497798919678 -5.982918739318848 -2.4028239250183105
6.139452934265137 -5.860910415649414 -2.4028446674346924
6.255922794342041 -5.736536026000977 -2.402864933013916
6.36986780166626 -5.609846591949463 -2.4028847217559814
6.481171607971191 -5.480892181396484 -2.4029042720794678
6.696132659912109 -5.216396808624268 -2.402941942214966
6.799545764923096 -5.080968379974365 -2.4029598236083984
6.998119831085205 -4.804015636444092 -2.4029946327209473
7.093193054199219 -4.662600994110107 -2.4030113220214844
7.361117839813232 -4.227291107177734 -2.4030582904815674
7.444535732269287 -4.07869815826416 -2.4030728340148926
7.524955749511719 -3.9284582138061523 -2.4030869007110596
7.602343559265137 -3.7766308784484863 -2.4031004905700684
7.67666482925415 -3.6232829093933105 -2.403113603591919
7.747890472412109 -3.4684693813323975 -2.4031262397766113
7.815990924835205 -3.312256336212158 -2.4031381607055664
7.880951881408691 -3.154707670211792 -2.4031496047973633
7.942719459533691 -2.995884418487549 -2.403160333633423
8.001294136047363 -2.8358519077301025 -2.4031708240509033
8.056640625 -2.6746771335601807 -2.4031805992126465
8.108739852905273 -2.512418270111084 -2.4031898975372314
8.157572746276855 -2.3491504192352295 -2.4031982421875
8.319814682006836 -1.6872400045394897 -2.4032270908355713
8.352025985717773 -1.5198922157287598 -2.403233051300049
8.380868911743164 -1.3519316911697388 -2.40323805809021
8.489287376403809 0.0056738280691206455 -2.4032585620880127
8.487494468688965 0.17608337104320526 -2.4032583236694336
8.473481178283691 0.5166308283805847 -2.4032561779022217
8.445966720581055 0.8563360571861267 -2.4032516479492188
8.317543983459473 1.6983623504638672 -2.4032304286956787
8.281777381896973 1.8649840354919434 -2.403224468231201
8.242650985717773 2.0308494567871094 -2.4032177925109863
8.200175285339355 2.195894718170166 -2.4032106399536133
8.105414390563965 2.523261547088623 -2.4031944274902344
7.661669731140137 2.5548882484436035 -2.286346912384033
7.490043640136719 2.6659295558929443 -2.250688076019287
7.378344535827637 2.9649674892425537 -2.2510952949523926
7.255009651184082 3.259467601776123 -2.251598834991455
6.895561218261719 3.9722020626068115 -2.252807378768921
6.815131664276123 4.110246658325195 -2.253039598464966
6.731943130493164 4.246657848358154 -2.2532684803009033
6.466039657592773 4.645519733428955 -2.253934144973755
6.372089862823486 4.774834632873535 -2.254148483276367
6.275556564331055 4.9022440910339355 -2.254359245300293
6.176455020904541 5.0276899337768555 -2.254565954208374
5.970712661743164 5.2725019454956055 -2.254967451095581
5.755268573760986 5.508852958679199 -2.255352258682251
5.524975299835205 5.730754852294922 -2.2535154819488525
5.408862113952637 5.840546131134033 -2.2535312175750732
4.91689920425415 6.246647357940674 -2.2502939701080322
4.661015510559082 6.438754081726074 -2.2502424716949463
4.530932426452637 6.530954837799072 -2.2502188682556152
4.264955997467041 6.7074127197265625 -2.2501721382141113
4.129252910614014 6.791603088378906 -2.2501485347747803
3.992182493209839 6.873058319091797 -2.250124454498291
3.7129881381988525 7.02761173248291 -2.250075340270996
3.283149242401123 7.238108158111572 -2.249999761581421
2.841445207595825 7.422342777252197 -2.249922037124634
2.5411670207977295 7.5302348136901855 -2.2498693466186523
2.3894481658935547 7.5796427726745605 -2.249842643737793
2.083251953125 7.669257164001465 -2.249788761138916
1.7736914157867432 7.7465128898620605 -2.2497341632843018
1.6177929639816284 7.780464172363281 -2.249706745147705
