ply
format ascii 1.0
element vertex 429
property float x
property float y
property float z
end_header
2.795903205871582 6.27364444732666 1.2110934257507324
2.6482226848602295 6.273642063140869 1.2007299661636353
2.502993106842041 6.2736406326293945 1.1910048723220825
2.360048770904541 6.2736382484436035 1.1818957328796387
2.2192089557647705 6.2736382484436035 1.17338228225708
2.080332040786743 6.273634433746338 1.1654436588287354
1.280419945716858 6.273623466491699 1.1290146112442017
1.2658153772354126 6.896610736846924 1.2363717555999756
1.2658495903015137 10.316479682922363 1.8327142000198364
1.1116307973861694 13.448348999023438 2.3793928623199463
1.1120312213897705 17.72327423095703 3.131234645843506
1.5456883907318115 36.048160552978516 6.362102031707764
2.6482274532318115 6.2736430168151855 1.0432049036026
2.2192039489746094 6.273636817932129 1.0194445848464966
2.080332040786743 6.273634433746338 1.0125470161437988
1.9432713985443115 6.2736334800720215 1.0061358213424683
1.8078808784484863 6.273630619049072 1.0001956224441528
1.5415868759155273 6.273628234863281 0.9896746873855591
1.280419945716858 6.273624897003174 0.9808971881866455
1.2657958269119263 6.896500587463379 1.0741524696350098
1.2658007144927979 7.759193420410156 1.2043780088424683
1.2658056020736694 8.860377311706543 1.371140718460083
1.2658153772354126 10.316207885742188 1.592238426208496
1.244692325592041 12.126779556274414 1.8675146102905273
1.1320312023162842 13.695138931274414 2.105173349380493
1.1053760051727295 25.7795352935791 3.9529082775115967
1.0322704315185547 44.79151153564453 6.863631248474121
0.14479492604732513 44.7914924621582 6.861841201782227
-0.7425780892372131 44.79148483276367 6.8627471923828125
-1.6305272579193115 44.79146957397461 6.8663458824157715
2.6482226848602295 6.2736430168151855 0.8867620825767517
2.502993106842041 6.2736406326293945 0.8795791268348694
2.2192039489746094 6.273636817932129 0.8665640354156494
1.9432713985443115 6.2736334800720215 0.8552529811859131
1.5415819883346558 6.273628234863281 0.8412594199180603
1.4104199409484863 6.273627281188965 0.8373479843139648
1.2804248332977295 6.273624897003174 0.8337978720664978
1.2650146484375 6.8922624588012695 0.9125078916549683
1.2657763957977295 7.759054183959961 1.0237478017807007
1.2657763957977295 8.860211372375488 1.1654986143112183
1.265786051750183 10.315974235534668 1.353430151939392
1.0568749904632568 12.78588581085205 1.6706680059432983
1.112036108970642 17.72327423095703 2.312478542327881
-1.630532145500183 44.79146957397461 5.836644649505615
2.795903205871582 6.27364444732666 0.7375463843345642
1.9432713985443115 6.273632049560547 0.705251157283783
1.8078808784484863 6.273630619049072 0.7010864019393921
1.6740282773971558 6.273630619049072 0.697243332862854
1.4104199409484863 6.273627281188965 0.6904876828193665
1.2649950981140137 6.892152786254883 0.7524526715278625
1.2657519578933716 8.860015869140625 0.9610635042190552
1.2657568454742432 10.31570816040039 1.1160262823104858
1.1120312213897705 17.72327423095703 1.9068975448608398
1.0322753190994263 44.79150390625 4.811069011688232
-0.7425780892372131 44.79148483276367 4.8104448318481445
-1.6305174827575684 44.79146194458008 4.8129706382751465
2.6482274532318115 6.2736430168151855 0.5764575004577637
2.502997875213623 6.2736406326293945 0.5717889070510864
2.360044002532959 6.2736382484436035 0.5674157738685608
2.2192039489746094 6.273636817932129 0.5633285641670227
2.080332040786743 6.273634433746338 0.5595172047615051
1.9432713985443115 6.2736334800720215 0.5559744238853455
1.8078808784484863 6.273632049560547 0.5526910424232483
1.6740282773971558 6.273628234863281 0.5496609210968018
1.4104199409484863 6.27362585067749 0.5443353056907654
1.2649755477905273 6.892030715942383 0.5931747555732727
1.2649706602096558 10.30928897857666 0.8792556524276733
1.2446874380111694 12.126779556274414 1.031957983970642
1.056801676750183 12.784982681274414 1.0859737396240234
1.1053760051727295 25.77953338623047 2.184312582015991
2.795903205871582 6.27364444732666 0.42591550946235657
2.502993106842041 6.2736406326293945 0.4188503921031952
2.2192039489746094 6.273636817932129 0.4126516580581665
1.9432713985443115 6.2736334800720215 0.40726593136787415
1.8078808784484863 6.273630619049072 0.40486112236976624
1.6740282773971558 6.273629665374756 0.4026409685611725
1.4104199409484863 6.27362585067749 0.3987390100955963
1.280419945716858 6.273623466491699 0.39704984426498413
1.2649462223052979 7.753996849060059 0.48718351125717163
1.2649364471435547 10.309057235717773 0.6440621614456177
1.0567626953125 12.784521102905273 0.7954757809638977
1.056738257408142 16.84196662902832 1.04642915725708
1.0606982707977295 46.02500915527344 2.854783773422241
2.6482226848602295 6.2736430168151855 0.2685134708881378
2.2192039489746094 6.273636817932129 0.2623959183692932
1.9432713985443115 6.2736334800720215 0.2589718699455261
1.8078759908676147 6.273630619049072 0.2574426233768463
1.6740282773971558 6.273630619049072 0.2560308873653412
1.5415819883346558 6.273628234863281 0.2547347843647003
1.4104199409484863 6.27362585067749 0.25355100631713867
1.2649266719818115 7.75385046005249 0.30978453159332275
1.2649072408676147 10.30881118774414 0.4095355272293091
1.0567235946655273 12.784040451049805 0.5058059692382812
1.0566844940185547 16.841215133666992 0.6653726100921631
1.0566210746765137 24.642364501953125 0.9725683331489563
1.060707926750183 46.02500915527344 1.8153002262115479
3.2595458030700684 7.3140106201171875 0.13526000082492828
3.008867025375366 7.541589736938477 0.13715621829032898
2.3645994663238525 7.6338396072387695 0.13499419391155243
2.2054686546325684 7.6533331871032715 0.13454024493694305
2.0470213890075684 7.671485900878906 0.13411879539489746
1.5415819883346558 6.273627281188965 0.109125517308712
1.4104199409484863 6.27362585067749 0.10861846804618835
1.280419945716858 6.273622512817383 0.10815795511007309
1.2649121284484863 6.891709327697754 0.11835906654596329
1.2649023532867432 7.753721237182617 0.1327061504125595
1.2648779153823853 10.308568954467773 0.1754373162984848
1.2446874380111694 12.126776695251465 0.20592100918293
1.0566844940185547 12.783583641052246 0.21667419373989105
1.056640625 16.84041404724121 0.28502655029296875
1.0563280582427979 45.83540344238281 0.7744476199150085
2.961440324783325 7.872297763824463 -0.04735412448644638
2.6104490756988525 7.872293949127197 -0.04669555649161339
1.5415868759155273 6.273627281188965 -0.03637145832180977
1.2648779153823853 7.753571033477783 -0.04423065111041069
1.264868140220642 8.853818893432617 -0.05035385116934776
1.0566504001617432 12.78314208984375 -0.0722157284617424
1.0564745664596558 24.638986587524414 -0.13884414732456207
3.2594921588897705 7.721745014190674 -0.2360035628080368
3.140815258026123 7.872300148010254 -0.23865722119808197
2.961440324783325 7.8722968101501465 -0.23683318495750427
2.7847118377685547 7.872295379638672 -0.235126793384552
2.6104490756988525 7.872293949127197 -0.23353606462478638
2.4384570121765137 7.87229061126709 -0.23205779492855072
2.268564462661743 7.872289180755615 -0.2306872457265854
2.1006054878234863 7.872286796569824 -0.2294229120016098
1.410424828529358 6.27362585067749 -0.1810624599456787
1.2648730278015137 6.891481399536133 -0.19729049503803253
1.2648437023162842 8.853622436523438 -0.25183042883872986
1.2648192644119263 10.308063507080078 -0.2924298048019409
1.244692325592041 12.126776695251465 -0.34325698018074036
1.0566112995147705 12.782690048217773 -0.36116117238998413
1.5136816501617432 24.124601364135742 -0.6806327700614929
1.0564013719558716 24.637191772460938 -0.6943679451942444
3.259477376937866 7.313852787017822 -0.4060824513435364
3.140815258026123 7.872300148010254 -0.4298388659954071
2.961435556411743 7.8722968101501465 -0.42655226588249207
2.7847070693969727 7.872295379638672 -0.4234788417816162
2.6104490756988525 7.872292995452881 -0.4206147789955139
2.268564462661743 7.872289180755615 -0.41548338532447815
2.1006054878234863 7.872286796569824 -0.41320526599884033
1.280419945716858 6.273622512817383 -0.32472091913223267
1.264833927154541 7.7532830238342285 -0.39839935302734375
1.2647851705551147 10.307817459106445 -0.5266726613044739
1.2446874380111694 12.126776695251465 -0.6182310581207275
1.0565770864486694 12.78222370147705 -0.6504507064819336
1.5136865377426147 24.124601364135742 -1.225864291191101
1.0563280582427979 24.63548469543457 -1.2505214214324951
1.0229101181030273 44.38496398925781 -2.2515485286712646
0.14351561665534973 44.39458465576172 -2.251453161239624
-0.7358691096305847 44.386863708496094 -2.251356840133667
-2.493212938308716 44.31902313232422 -2.2511610984802246
3.140810489654541 7.872300148010254 -0.6214587092399597
2.961435556411743 7.8722968101501465 -0.6167058944702148
2.7847118377685547 7.872295379638672 -0.6122622489929199
2.6104490756988525 7.872291564941406 -0.6081211566925049
1.280419945716858 6.273623466491699 -0.46947890520095825
1.264833927154541 6.891261577606201 -0.513722836971283
1.2647558450698853 10.307562828063965 -0.7614419460296631
1.244692325592041 12.126776695251465 -0.8938316106796265
1.5136816501617432 24.124601364135742 -1.7723482847213745
0.100341796875 30.692434310913086 -2.2503955364227295
-1.1164648532867432 30.66964340209961 -2.250251531600952
2.961440324783325 7.8722968101501465 -0.8074862360954285
2.268564462661743 7.872289180755615 -0.7865334749221802
1.5415819883346558 6.273627281188965 -0.620216965675354
1.2647851705551147 7.752989768981934 -0.7541643977165222
1.004062533378601 23.416582107543945 -2.250170946121216
0.07577148079872131 23.43667221069336 -2.2500457763671875
-1.3162646293640137 23.397794723510742 -2.2498552799224854
3.259394407272339 7.7215118408203125 -0.9955752491950989
2.961430549621582 7.8722968101501465 -0.9990968108177185
2.7847118377685547 7.872293949127197 -0.9918986558914185
2.6104490756988525 7.872292995452881 -0.9851882457733154
2.268569231033325 7.872289180755615 -0.9731705784797668
2.100600481033325 7.87228536605835 -0.9678348898887634
1.5415819883346558 6.27362585067749 -0.7673869132995605
1.4104199409484863 6.273624897003174 -0.7638180255889893
1.280419945716858 6.273623466491699 -0.7605805993080139
1.2647900581359863 6.891022205352783 -0.8322309851646423
1.2647656202316284 7.752864360809326 -0.9331052899360657
1.264736294746399 8.852880477905273 -1.0622755289077759
1.244692325592041 12.126774787902832 -1.4480581283569336
1.1861572265625 18.904640197753906 -2.2500205039978027
0.4364111125469208 18.935924530029297 -2.249919891357422
-0.31395018100738525 18.93749237060547 -2.2498183250427246
-0.6889892220497131 18.927133560180664 -2.2497670650482178
-1.063759684562683 18.90934944152832 -2.2497153282165527
3.2593700885772705 7.721456527709961 -1.1875261068344116
2.7847118377685547 7.872293949127197 -1.1831481456756592
2.6104490756988525 7.872291564941406 -1.1751452684402466
2.4384570121765137 7.872289180755615 -1.1677051782608032
2.268564462661743 7.872288227081299 -1.1608084440231323
2.1006054878234863 7.87228536605835 -1.1544451713562012
1.4104199409484863 6.273624897003174 -0.911092221736908
1.264711856842041 8.852700233459473 -1.2670680284500122
1.2646631002426147 10.306811332702637 -1.4713164567947388
0.9943603277206421 15.847789764404297 -2.249875783920288
0.05133300647139549 15.87798023223877 -2.249749183654785
-0.5775976181030273 15.86693286895752 -2.2496633529663086
-0.8917773365974426 15.852082252502441 -2.249620199203491
3.259345531463623 7.7213921546936035 -1.3806970119476318
3.140810489654541 7.8722991943359375 -1.3962832689285278
2.961430549621582 7.872295379638672 -1.3856040239334106
2.6104490756988525 7.872292995452881 -1.3663166761398315
2.268564462661743 7.872288227081299 -1.3496487140655518
2.1006054878234863 7.872282981872559 -1.3422497510910034
1.5415819883346558 6.27362585067749 -1.0642584562301636
1.2804248332977295 6.273622512817383 -1.0548163652420044
1.2646825313568115 8.852527618408203 -1.4731643199920654
0.8551855087280273 13.62975788116455 -2.2497708797454834
-0.7669726610183716 13.633671760559082 -2.2495510578155518
3.25933575630188 7.313540458679199 -1.5049909353256226
3.2593212127685547 7.721334457397461 -1.575310230255127
2.961435556411743 7.872295379638672 -1.5809191465377808
2.4384617805480957 7.872289180755615 -1.549041748046875
2.268564462661743 7.872288227081299 -1.539894938468933
1.4104150533676147 6.273624897003174 -1.2086293697357178
1.2804248332977295 6.273622512817383 -1.203505039215088
1.2647265195846558 6.8907012939453125 -1.3168160915374756
1.2646044492721558 10.306320190429688 -1.9517126083374023
1.2220995426177979 11.906716346740723 -2.249753713607788
0.9859960675239563 11.928420066833496 -2.249722719192505
0.5127294659614563 11.957782745361328 -2.249659776687622
0.2757617235183716 11.96541976928711 -2.2496278285980225
0.03868652135133743 11.968366622924805 -2.2495956420898438
-0.19838866591453552 11.966606140136719 -2.249563455581665
-0.43538084626197815 11.960161209106445 -2.2495310306549072
3.2593114376068115 7.313477993011475 -1.692494511604309
3.2592968940734863 7.721282005310059 -1.7715755701065063
3.14080548286438 7.8722991943359375 -1.7915959358215332
2.6104490756988525 7.872291564941406 -1.7531465291976929
1.5415771007537842 6.27362585067749 -1.365570068359375
1.2804248332977295 6.273622512817383 -1.3534557819366455
1.2647069692611694 6.89058256149292 -1.4808614253997803
1.2645702362060547 10.30606460571289 -2.194833755493164
1.0866748094558716 10.587228775024414 -2.2496843338012695
0.24520018696784973 10.63949203491211 -2.2495720386505127
-0.17641112208366394 10.640583038330078 -2.2495150566101074
-0.38713377714157104 10.634867668151855 -2.249486207962036
3.259287118911743 7.3134307861328125 -1.8817875385284424
3.259267568588257 7.721218585968018 -1.9697142839431763
3.140810489654541 7.872297763824463 -1.9919880628585815
2.7847070693969727 7.872292995452881 -1.9625141620635986
2.4384617805480957 7.872288227081299 -1.9368963241577148
2.1006054878234863 7.872284412384033 -1.914904236793518
1.5415771007537842 6.27362585067749 -1.5183097124099731
1.2646484375 7.7521562576293945 -1.8460204601287842
1.1657665967941284 9.500795364379883 -2.249652862548828
0.7885205149650574 9.53931713104248 -2.249603271484375
0.5993847250938416 9.55295467376709 -2.2495779991149902
0.4100292921066284 9.562835693359375 -2.2495527267456055
-0.1586621105670929 9.569979667663574 -2.2494757175445557
-0.34818845987319946 9.56485366821289 -2.2494499683380127
-0.5375829935073853 9.555967330932617 -2.2494239807128906
3.2592625617980957 7.3133673667907715 -2.073092222213745
3.2592430114746094 7.72115421295166 -2.1699557304382324
3.140810489654541 7.872297763824463 -2.194514036178589
2.961435556411743 7.872295379638672 -2.177729845046997
2.7847070693969727 7.872293949127197 -2.162043333053589
2.4384520053863525 7.872288227081299 -2.1338205337524414
2.268564462661743 7.872286796569824 -2.121220827102661
1.5415819883346558 6.273624897003174 -1.6726778745651245
1.4104199409484863 6.273624897003174 -1.6648986339569092
1.2646631002426147 6.890340805053711 -1.813833236694336
1.264623999595642 7.7519965171813965 -2.033663034439087
1.058129906654358 8.623868942260742 -2.249619245529175
0.5440624952316284 8.671229362487793 -2.249551296234131
0.37217283248901367 8.680218696594238 -2.249528646469116
0.028056640177965164 8.68797492980957 -2.249483108520508
-0.14399902522563934 8.686735153198242 -2.249460458755493
-0.3160351514816284 8.682093620300293 -2.2494375705718994
-0.48799803853034973 8.674041748046875 -2.2494149208068848
2.6503124237060547 7.492367267608643 -2.249828338623047
2.3514256477355957 7.59133243560791 -2.249788999557495
1.5415819883346558 6.273624897003174 -1.8288531303405762
1.2646435499191284 6.89022159576416 -1.9831570386886597
1.2645995616912842 7.75183629989624 -2.223500967025757
1.1238524913787842 7.8667311668396 -2.249627113342285
0.9677978157997131 7.8873772621154785 -2.2496063709259033
0.4975927770137787 7.9307122230529785 -2.249544382095337
0.025703124701976776 7.946051597595215 -2.2494821548461914
-0.13170897960662842 7.944923400878906 -2.2494614124298096
-0.2890917956829071 7.940681457519531 -2.2494406700134277
2.9775047302246094 6.681329727172852 -2.2498741149902344
2.844912052154541 6.738949298858643 -2.249854326248169
2.7109570503234863 6.793923854827881 -2.249835729598999
2.575429677963257 6.846217632293701 -2.249817371368408
2.439277172088623 6.8958330154418945 -2.2497994899749756
2.0253660678863525 7.028374671936035 -2.2497453689575195
1.5415819883346558 6.273624897003174 -1.9870351552963257
1.2646191120147705 6.890108108520508 -2.154649496078491
1.0343798398971558 7.24044132232666 -2.2496144771575928
0.6025097370147705 7.288908004760742 -2.2495574951171875
0.45798826217651367 7.299351215362549 -2.2495384216308594
0.3133007884025574 7.306929111480713 -2.2495193481445312
0.023637695237994194 7.313479423522949 -2.249481201171875
-0.2660546898841858 7.308553695678711 -2.2494428157806396
-0.41078123450279236 7.301788806915283 -2.2494237422943115
2.7573680877685547 6.187199115753174 -2.2516534328460693
2.634291887283325 6.240633010864258 -2.251662492752075
2.5101611614227295 6.2916107177734375 -2.251671314239502
2.385058641433716 6.340123653411865 -2.2516796588897705
2.2589988708496094 6.386144161224365 -2.2516872882843018
1.875732421875 6.509103298187256 -2.2517073154449463
1.7463476657867432 6.544989585876465 -2.2517127990722656
1.4104199409484863 6.273623466491699 -2.1374406814575195
1.2219970226287842 6.656576156616211 -2.249641180038452
1.0898339748382568 6.679415702819824 -2.2496228218078613
0.9573534727096558 6.6996355056762695 -2.2496042251586914
0.82423335313797 6.717222213745117 -2.249586582183838
0.6909228563308716 6.732171058654785 -2.2495687007904053
0.42391112446784973 6.754157066345215 -2.2495334148406982
0.2898876965045929 6.761171340942383 -2.2495155334472656
0.15602050721645355 6.765537738800049 -2.249497890472412
-0.11226562410593033 6.766293048858643 -2.249462366104126
-0.24614256620407104 6.762691974639893 -2.2494447231292725
-0.3801220655441284 6.75643253326416 -2.249427080154419
2.448544979095459 5.800593852996826 -2.2515692710876465
2.3331592082977295 5.847977638244629 -2.251577615737915
2.216870069503784 5.893068313598633 -2.2515852451324463
1.9817333221435547 5.976289749145508 -2.251599073410034
1.8629637956619263 6.0143866539001465 -2.251605272293091
1.743471622467041 6.0501227378845215 -2.25161075592041
1.6232861280441284 6.083487033843994 -2.2516160011291504
1.136660099029541 6.192934989929199 -2.251631736755371
1.013759732246399 6.214243412017822 -2.251634359359741
0.5186865329742432 6.275007724761963 -2.2516400814056396
0.3942822217941284 6.2840471267700195 -2.2516400814056396
0.020356444641947746 6.2963690757751465 -2.2516374588012695
-0.10436522960662842 6.295526504516602 -2.2516355514526367
-0.22905272245407104 6.2922186851501465 -2.2516331672668457
-0.3536474406719208 6.286439895629883 -2.2516303062438965
2.287788152694702 5.419783115386963 -2.2544188499450684
2.180058479309082 5.464198589324951 -2.2544848918914795
2.071420907974243 5.5064592361450195 -2.254546880722046
1.7408545017242432 5.620174884796143 -2.254709005355835
1.5169140100479126 5.684939384460449 -2.2547969818115234
1.404052734375 5.713966369628906 -2.2548348903656006
1.2906005382537842 5.740744113922119 -2.254868984222412
1.1766552925109863 5.765260696411133 -2.2548985481262207
0.8309277296066284 5.816319942474365 -2.2515499591827393
0.7155419588088989 5.831639766693115 -2.251551389694214
0.4840039014816284 5.85541296005249 -2.2515530586242676
0.3679248094558716 5.863852024078369 -2.2515532970428467
0.25169432163238525 5.869988441467285 -2.2515528202056885
0.13536620140075684 5.873818874359131 -2.251552104949951
0.018989257514476776 5.875347137451172 -2.2515506744384766
-0.21373534202575684 5.87147855758667 -2.251546621322632
-0.33000487089157104 5.866085529327393 -2.2515439987182617
2.2415428161621094 5.0297393798828125 -2.2537193298339844
2.141528367996216 5.073299884796143 -2.253784656524658
1.9389989376068115 5.154415607452393 -2.2539045810699463
1.8365576267242432 5.1919403076171875 -2.2539589405059814
1.629555583000183 5.260836601257324 -2.254056215286255
1.525048851966858 5.292184352874756 -2.254099130630493
1.41995108127594 5.321449279785156 -2.254138708114624
1.1014257669448853 5.3966169357299805 -2.2542335987091064
0.6708154082298279 5.467048645019531 -2.2543065547943115
0.23593749105930328 5.503019332885742 -2.2543179988861084
0.1268896460533142 5.506596088409424 -2.2543110847473145
-0.09130859375 5.507237911224365 -2.2542855739593506
2.1045165061950684 4.7222394943237305 -2.2531557083129883
2.0105857849121094 4.763126850128174 -2.2532169818878174
1.9158984422683716 4.80214262008667 -2.253274917602539
1.6274120807647705 4.9077959060668945 -2.253427743911743
1.233911156654358 5.0215582847595215 -2.25358247756958
1.0340771675109863 5.066616535186768 -2.253638505935669
0.7313330173492432 5.119223117828369 -2.253695249557495
0.6297851204872131 5.132730007171631 -2.253706932067871
0.5279882550239563 5.1442179679870605 -2.2537150382995605
0.3238281309604645 5.161105155944824 -2.253720283508301
0.2215234339237213 5.166499614715576 -2.2537174224853516
0.11914550513029099 5.169858932495117 -2.253710985183716
0.016713866963982582 5.1711835861206055 -2.2537007331848145
-0.29045408964157104 5.16292667388916 -2.2536489963531494
1.89260733127594 4.483581066131592 -2.2527053356170654
1.6230809688568115 4.588386535644531 -2.252859115600586
1.5319286584854126 4.619729995727539 -2.252903699874878
1.3477587699890137 4.676942825317383 -2.2529830932617188
1.1614892482757568 4.726794242858887 -2.253049373626709
1.0676220655441284 4.748933792114258 -2.253077268600464
0.9733593463897705 4.769200801849365 -2.2531018257141113
0.8787011504173279 4.787593364715576 -2.2531230449676514
0.40098142623901367 4.851139545440674 -2.253178119659424
0.3048193156719208 4.858132839202881 -2.2531790733337402
0.20851561427116394 4.8632121086120605 -2.253176212310791
0.015727538615465164 4.867622375488281 -2.2531607151031494
-0.1770898401737213 4.8643622398376465 -2.253131628036499
1.8689892292022705 4.193778991699219 -2.2521870136260986
1.7014940977096558 4.264718055725098 -2.2522926330566406
1.6167187690734863 4.297677993774414 -2.2523410320281982
1.358681559562683 4.386359214782715 -2.252467632293701
1.271547794342041 4.412482261657715 -2.2525033950805664
1.1839061975479126 4.436866760253906 -2.2525362968444824
0.3782910108566284 4.5768046379089355 -2.2526872158050537
0.014843749813735485 4.59235954284668 -2.2526707649230957
-0.07613281160593033 4.591727256774902 -2.2526586055755615
-0.16706053912639618 4.589285850524902 -2.252643346786499
1.7668652534484863 3.9646196365356445 -2.2517669200897217
1.6085156202316284 4.031671524047852 -2.2518668174743652
1.1192138195037842 4.1943888664245605 -2.2520968914031982
0.9522216320037842 4.235527992248535 -2.252149820327759
0.6139892339706421 4.297746658325195 -2.2522194385528564
-0.07194823771715164 4.34077262878418 -2.2522127628326416
-0.1578955054283142 4.338468551635742 -2.2521982192993164
1.3709325790405273 3.875582218170166 -2.2515602111816406
1.0599169731140137 3.972174644470215 -2.251694440841675
0.8221435546875 4.0282416343688965 -2.251765489578247
0.7421972751617432 4.043769359588623 -2.2517831325531006
0.5814550518989563 4.070044040679932 -2.251810312271118
0.5007226467132568 4.080780029296875 -2.251819610595703
0.41978514194488525 4.089908123016357 -2.251826047897339
0.3386914134025574 4.0974273681640625 -2.2518296241760254
0.25746092200279236 4.103334903717041 -2.2518303394317627
-0.0681445300579071 4.110790729522705 -2.2518041133880615
1.5871044397354126 3.561249256134033 -2.2510275840759277
1.516274333000183 3.5920605659484863 -2.2510735988616943
1.3003270626068115 3.6759777069091797 -2.2511966228485107
0.9305126667022705 3.786802291870117 -2.2513489723205566
0.8553222417831421 3.804529905319214 -2.251371383666992
0.7039648294448853 3.835482597351074 -2.251408100128174
0.47492673993110657 3.870584011077881 -2.2514426708221436
0.32124510407447815 3.886375665664673 -2.2514522075653076
0.1670556664466858 3.896047353744507 -2.251450538635254
0.08985351026058197 3.8985819816589355 -2.251445770263672
0.012612304650247097 3.8995847702026367 -2.2514381408691406
-0.0646386668086052 3.899050235748291 -2.2514278888702393
-0.2190234363079071 3.893381357192993 -2.251399040222168
