ply
format ascii 1.0
element vertex 260
property float x
property float y
property float z
end_header
-45.33811569213867 5.474886417388916 -1.2858998775482178
-27.179290771484375 5.507730484008789 -1.40640127658844
-34.77981185913086 5.614747047424316 -1.7866507768630981
-46.873085021972656 2.832399845123291 -2.3814711570739746
-46.9199104309082 1.897216796875 -2.3814499378204346
-46.92180252075195 -1.8472427129745483 -2.3814451694488525
-46.627811431884766 -5.580271244049072 -2.381568193435669
-46.21417999267578 -8.358565330505371 -2.3817436695098877
-46.03990173339844 -9.27867317199707 -2.3818178176879883
-45.84724807739258 -10.195168495178223 -2.3819000720977783
-27.179588317871094 5.507788181304932 -2.033363103866577
-30.202404022216797 4.259755611419678 -2.2364249229431152
-30.27925682067871 3.656428098678589 -2.2362756729125977
-32.40133285522461 3.258648633956909 -2.3877201080322266
-32.50481033325195 1.9641796350479126 -2.38767409324646
-32.537353515625 1.315657377243042 -2.3876593112945557
-32.462154388427734 -2.5773401260375977 -2.3876876831054688
-32.404624938964844 -3.224141836166382 -2.387711763381958
-32.33436965942383 -3.869661808013916 -2.3877415657043457
-32.25125503540039 -4.513693332672119 -2.3877766132354736
-32.155357360839844 -5.155932903289795 -2.3878173828125
-32.04665756225586 -5.796258449554443 -2.3878636360168457
-31.791648864746094 -7.069593906402588 -2.387972354888916
-22.876684188842773 4.635830402374268 -2.240915298461914
-22.95232391357422 4.176544189453125 -2.2397208213806152
-24.725727081298828 2.9857921600341797 -2.3910341262817383
-24.78006935119629 2.492177724838257 -2.39100980758667
-24.89929962158203 0.5098357796669006 -2.390956401824951
-24.904483795166016 0.013256835751235485 -2.390953540802002
-24.86093521118164 -1.475706696510315 -2.3909709453582764
-24.78263282775879 -2.4657716751098633 -2.3910036087036133
-24.728763580322266 -2.9594578742980957 -2.391026258468628
-24.591747283935547 -3.9431540966033936 -2.3910844326019287
-24.50859832763672 -4.432775020599365 -2.3911197185516357
-24.41570281982422 -4.920637607574463 -2.3911595344543457
-19.948848724365234 2.8135900497436523 -2.3930962085723877
-20.000804901123047 2.4152324199676514 -2.393073558807373
-20.0447998046875 2.0159380435943604 -2.3930540084838867
-20.1413516998291 0.41241270303726196 -2.3930106163024902
-20.14555549621582 0.010722655802965164 -2.3930084705352783
-20.1300048828125 -0.7924883961677551 -2.393014430999756
-20.0032958984375 -2.3939247131347656 -2.3930673599243164
-19.8923282623291 -3.1896257400512695 -2.3931143283843994
-19.825029373168945 -3.5856707096099854 -2.3931429386138916
-10.922459602355957 -2.201263666152954 -1.3235235214233398
-10.003353118896484 -2.224473714828491 -1.2172811031341553
-16.626832962036133 3.0255186557769775 -2.394530773162842
-16.733915328979492 2.360149383544922 -2.394484043121338
-16.777528762817383 2.025995969772339 -2.3944647312164307
-16.86835479736328 1.0193078517913818 -2.3944244384765625
-16.899024963378906 0.008994140662252903 -2.3944101333618164
-16.895856857299805 -0.32795774936676025 -2.394411087036133
-16.885961532592773 -0.6647793650627136 -2.3944151401519775
-16.846155166625977 -1.3375060558319092 -2.3944315910339355
-16.779640197753906 -2.008134603500366 -2.3944597244262695
-16.73638153076172 -2.342325448989868 -2.3944778442382812
-16.686504364013672 -2.6755874156951904 -2.3944990634918213
-16.630008697509766 -3.007807493209839 -2.3945231437683105
-10.39706802368164 -2.0953829288482666 -1.5027730464935303
-9.639335632324219 -2.1435203552246094 -1.399152159690857
-14.251826286315918 2.8880486488342285 -2.3955562114715576
-14.306425094604492 2.6032867431640625 -2.3955323696136475
-14.39861011505127 2.0307817459106445 -2.3954918384552
-14.436144828796387 1.743264079093933 -2.395475387573242
-14.494013786315918 1.1662871837615967 -2.3954498767852783
-14.514338493347168 0.877061128616333 -2.3954408168792725
-14.528886795043945 0.587479829788208 -2.3954341411590576
-14.54073715209961 0.0077386475168168545 -2.395428419113159
-14.515239715576172 -0.8616064190864563 -2.3954384326934814
-12.623762130737305 1.7804583311080933 -2.3962581157684326
-12.6566743850708 1.5283819437026978 -2.3962435722351074
-12.684579849243164 1.275712251663208 -2.396231174468994
-12.725260734558105 0.7689532041549683 -2.3962130546569824
-12.738028526306152 0.5150665044784546 -2.396207332611084
-12.745749473571777 0.2609814405441284 -2.3962037563323975
-12.748414993286133 0.006784667726606131 -2.396202325820923
-12.746015548706055 -0.2474084347486496 -2.39620304107666
-12.738561630249023 -0.5014984011650085 -2.3962059020996094
-12.72608757019043 -0.755397617816925 -2.3962111473083496
-12.68591022491455 -1.2622017860412598 -2.396228075027466
-12.587960243225098 -2.0184121131896973 -2.3962695598602295
-12.545323371887207 -2.269023895263672 -2.396287679672241
-10.148306846618652 -2.045245409011841 -1.9458367824554443
-9.251108169555664 -2.0571916103363037 -1.7813198566436768
-11.156062126159668 2.0300254821777344 -2.3968920707702637
-11.257264137268066 1.3593920469284058 -2.396847724914551
-11.282084465026855 1.1346588134765625 -2.396836757659912
-11.31827163696289 0.6839324831962585 -2.396820545196533
-11.329635620117188 0.45811766386032104 -2.396815538406372
-11.33651065826416 0.23212279379367828 -2.3968122005462646
-11.336750984191895 -0.22005492448806763 -2.3968117237091064
-11.330118179321289 -0.44604796171188354 -2.3968141078948975
-11.318982124328613 -0.6718786358833313 -2.3968188762664795
-11.30336856842041 -0.897438645362854 -2.3968253135681152
-11.158185958862305 -2.018136501312256 -2.3968868255615234
-10.471753120422363 -2.1104302406311035 -2.258023262023926
-9.268401145935059 -2.0610368251800537 -2.0070102214813232
-10.035789489746094 1.8261748552322388 -2.3973753452301025
-10.070152282714844 1.6256945133209229 -2.3973605632781982
-10.149187088012695 1.0207208395004272 -2.3973257541656494
-10.167484283447266 0.8181487917900085 -2.39731764793396
-10.181750297546387 0.6152557134628296 -2.397311210632324
-10.192408561706543 -0.4012615978717804 -2.397305488586426
-10.182395935058594 -0.6044137477874756 -2.3973097801208496
-10.168335914611816 -0.8073214292526245 -2.397315502166748
-10.150251388549805 -1.009912371635437 -2.3973231315612793
-10.071860313415527 -1.614967942237854 -2.3973562717437744
-10.037712097167969 -1.8154821395874023 -2.3973708152770996
-9.999590873718262 -2.015277862548828 -2.3973870277404785
-9.111135482788086 1.6579192876815796 -2.3977746963500977
-9.16989803314209 1.2933226823806763 -2.3977487087249756
-9.214096069335938 0.9266790747642517 -2.3977293968200684
-9.243664741516113 0.5585693120956421 -2.3977160453796387
-9.258562088012695 0.1895776391029358 -2.397709369659424
-9.258759498596191 -0.17971862852573395 -2.3977088928222656
-9.253335952758789 -0.3642932176589966 -2.3977110385894775
-9.244246482849121 -0.5487252473831177 -2.397714853286743
-9.171249389648438 -1.2835546731948853 -2.397745370864868
-9.143885612487793 -1.4661728143692017 -2.397757053375244
-9.040042877197266 -2.010258674621582 -2.397801399230957
-8.30239486694336 1.6824334859848022 -2.3981237411499023
-8.362780570983887 1.3500597476959229 -2.398097276687622
-8.409891128540039 1.0155524015426636 -2.3980767726898193
-8.44363784790039 0.6794354319572449 -2.398061752319336
-8.455485343933105 0.5109429955482483 -2.3980565071105957
-8.463985443115234 0.3422430455684662 -2.39805269241333
-8.469112396240234 0.17341308295726776 -2.39805006980896
-8.47088623046875 0.004508666694164276 -2.3980493545532227
-8.444353103637695 -0.6704452633857727 -2.398059844970703
-8.429327011108398 -0.8386858701705933 -2.398066282272339
-8.364200592041016 -1.3411550521850586 -2.3980937004089355
-8.335838317871094 -1.5076720714569092 -2.3981058597564697
-8.304170608520508 -1.6735891103744507 -2.3981194496154785
-8.269194602966309 -1.8388417959213257 -2.398134469985962
-7.642371654510498 1.548684000968933 -2.3984086513519287
-7.67168664932251 1.3959887027740479 -2.3983957767486572
-7.741331577301025 0.9348162412643433 -2.3983652591705322
-7.772402286529541 0.6254235506057739 -2.3983514308929443
-7.795859336853027 0.15962828695774078 -2.398340940475464
-7.797488689422607 0.004150390625 -2.3983399868011475
-7.796022891998291 -0.1513262838125229 -2.3983404636383057
-7.79145622253418 -0.3067395091056824 -2.3983421325683594
-7.773056507110596 -0.6171466112136841 -2.3983497619628906
-7.742312908172607 -0.9265758991241455 -2.398362874984741
-7.722330093383789 -1.080772042274475 -2.3983712196350098
-7.69927453994751 -1.2345364093780518 -2.398381233215332
-7.611810207366943 -1.6926580667495728 -2.398418426513672
-7.099433422088623 1.2918548583984375 -2.3986427783966064
-7.123751163482666 1.150037169456482 -2.398632049560547
-7.179686069488525 0.7220733761787415 -2.3986074924468994
-7.192641258239746 0.578770101070404 -2.398601770401001
-7.209970474243164 0.29153746366500854 -2.3985939025878906
-7.214346885681152 0.14772094786167145 -2.3985917568206787
-7.215857982635498 0.0038409424014389515 -2.3985910415649414
-7.193246841430664 -0.5711111426353455 -2.3986003398895264
-7.1007981300354 -1.284291386604309 -2.398639440536499
-7.044014930725098 -1.5663952827453613 -2.3986635208129883
-6.574477195739746 1.3322808742523193 -2.398869514465332
-6.599705696105957 1.2009228467941284 -2.3988585472106934
-6.622313022613525 1.069085717201233 -2.398848533630371
-6.642287254333496 0.9368279576301575 -2.3988397121429443
-6.674318790435791 0.6712475419044495 -2.3988256454467773
-6.695748329162598 0.40460631251335144 -2.3988161087036133
-6.706540584564209 0.13732238113880157 -2.398811101913452
-6.707945346832275 0.003570556640625 -2.398810386657715
-6.706684589385986 -0.13018065690994263 -2.398810863494873
-6.702754974365234 -0.26387694478034973 -2.3988122940063477
-6.675024032592773 -0.6641412377357483 -2.3988239765167236
-6.66047477722168 -0.7971038818359375 -2.398829936981201
-6.643274784088135 -0.9297518730163574 -2.3988373279571533
-6.623437404632568 -1.0620334148406982 -2.398845672607422
-6.548184871673584 -1.456136703491211 -2.3988778591156006
-6.180229187011719 0.9977160692214966 -2.3990395069122314
-6.228764533996582 0.6264379620552063 -2.3990180492401123
-6.260147571563721 0.0033319091890007257 -2.399003744125366
-6.25897216796875 -0.121490478515625 -2.3990042209625244
-6.240530967712402 -0.4954696595668793 -2.3990118503570557
-6.215843200683594 -0.7438912987709045 -2.399022102355957
-6.199790954589844 -0.8676870465278625 -2.399028778076172
-6.136895656585693 -1.2368050813674927 -2.3990557193756104
-6.111042499542236 -1.3589282035827637 -2.399066686630249
-5.767405986785889 1.049472689628601 -2.3992176055908203
-5.851349830627441 0.3535815477371216 -2.3991806507110596
-5.860782146453857 0.12000487744808197 -2.3991763591766357
-5.862010478973389 0.003119506873190403 -2.3991756439208984
-5.860908031463623 -0.11376464366912842 -2.3991758823394775
-5.851719856262207 -0.34735107421875 -2.399179697036743
-5.843639850616455 -0.463957816362381 -2.3991830348968506
-5.805488109588623 -0.8125021457672119 -2.3991992473602295
-5.746589183807373 -1.158144235610962 -2.399224281311035
-5.722375392913818 -1.2724993228912354 -2.3992345333099365
-5.477756023406982 0.5509088039398193 -2.3993420600891113
-5.500868797302246 0.2224298119544983 -2.39933180809021
-5.504207611083984 0.1127038523554802 -2.3993301391601562
-5.505358695983887 0.002930297749117017 -2.399329662322998
-5.501103401184082 -0.2165704369544983 -2.3993313312530518
-5.495694637298584 -0.32621702551841736 -2.3993334770202637
-5.488105297088623 -0.43573179841041565 -2.399336576461792
-5.466387748718262 -0.6541988849639893 -2.399345874786377
-5.452273845672607 -0.7630673050880432 -2.3993518352508545
-5.435988426208496 -0.8716317415237427 -2.3993587493896484
-5.417544841766357 -0.9798504710197449 -2.399366617202759
-5.39695405960083 -1.0876797437667847 -2.3993752002716064
-5.132969856262207 0.7239556908607483 -2.399491310119629
-5.146371841430664 0.6214605569839478 -2.3994853496551514
-5.157729148864746 0.5187225341796875 -2.3994803428649902
-5.167038440704346 0.41577696800231934 -2.3994762897491455
-5.182637691497803 0.10611937940120697 -2.3994691371917725
-5.183724403381348 0.0027581786271184683 -2.399468421936035
-5.182747840881348 -0.10059936344623566 -2.3994688987731934
-5.179714202880859 -0.20391845703125 -2.399470090866089
-5.167476654052734 -0.41027435660362244 -2.39947509765625
-5.158273696899414 -0.5132299661636353 -2.3994789123535156
-5.147028923034668 -0.6159808039665222 -2.3994836807250977
-5.118400573730469 -0.8207095265388489 -2.399495840072632
-5.060233116149902 -1.1252557039260864 -2.3995206356048584
-4.81294059753418 0.875791609287262 -2.399629592895508
-4.844006061553955 0.6831982135772705 -2.399616003036499
-4.856652736663818 0.5864770412445068 -2.3996102809906006
-4.876157283782959 0.3923724293708801 -2.399601936340332
-4.883005142211914 0.29506590962409973 -2.3995985984802246
-4.88331413269043 -0.28986692428588867 -2.3995981216430664
-4.857272624969482 -0.5813024640083313 -2.399608850479126
-4.830257415771484 -0.774505615234375 -2.399620294570923
-4.795567512512207 -0.9664791822433472 -2.399635076522827
-4.533610820770264 0.9187108874320984 -2.399750232696533
-4.551012992858887 0.828129231929779 -2.399742603302002
-4.566608905792236 0.7372198104858398 -2.399735927581787
-4.592348575592041 0.5545556545257568 -2.3997244834899902
-4.602482795715332 0.46287962794303894 -2.3997199535369873
-4.61079216003418 0.37101683020591736 -2.399716377258301
-4.624712944030762 0.094696044921875 -2.399709939956665
-4.625682353973389 0.0024609374813735485 -2.399709463119507
-4.624812126159668 -0.08977050334215164 -2.399709701538086
-4.622103214263916 -0.1819659322500229 -2.3997108936309814
-4.611182689666748 -0.36610716581344604 -2.3997154235839844
-4.567386150360107 -0.7323556542396545 -2.399733781814575
-4.534582614898682 -0.9138818383216858 -2.399747848510742
-4.310860633850098 0.7845001220703125 -2.399846315383911
-4.325632095336914 0.6983166337013245 -2.3998396396636963
-4.350017070770264 0.5252960324287415 -2.399829149246216
-4.378017425537109 0.1770220845937729 -2.3998167514801025
-4.38076639175415 -0.0850360095500946 -2.399815082550049
-4.378200531005859 -0.1723645031452179 -2.3998162746429443
-4.373897552490234 -0.2596319615840912 -2.399817943572998
-4.350568771362305 -0.5206625461578369 -2.399827718734741
-4.295295238494873 -0.8656561374664307 -2.399851083755493
-4.277195930480957 -0.951131284236908 -2.3998589515686035
-4.103676795959473 0.6625036597251892 -2.399935483932495
-2.239603281021118 0.3158734142780304 -1.3058321475982666
-2.2301597595214844 0.17945373058319092 -1.2917453050613403
-2.223708391189575 0.08991637825965881 -1.2849072217941284
-2.217902898788452 0.04541381821036339 -1.2807748317718506
-2.210411310195923 0.0011761474888771772 -1.2761811017990112
-2.2175450325012207 -0.043043822050094604 -1.2805410623550415
-2.223442316055298 -0.08753357082605362 -1.284698486328125
-2.2300779819488525 -0.17705810070037842 -1.2915880680084229
-2.22698974609375 -0.266519159078598 -1.2949285507202148
-2.2382397651672363 -0.31325072050094604 -1.3048418760299683
-4.104377269744873 -0.6581438779830933 -2.3999338150024414
