ply
format ascii 1.0
element vertex 273
property float x
property float y
property float z
end_header
15.407333374023438 -16.669158935546875 4.002460479736328
16.01538848876953 -16.631532669067383 4.0712127685546875
33.08326721191406 -35.79270553588867 7.466742992401123
28.87141227722168 -29.98215103149414 6.376431941986084
28.87145233154297 -40.152381896972656 6.440041542053223
28.89961051940918 -35.393333435058594 5.950214862823486
28.87097930908203 -32.54594802856445 5.665388107299805
29.08172607421875 -38.748077392578125 5.202376365661621
28.899606704711914 -35.39333724975586 4.906622886657715
28.870441436767578 -33.917701721191406 4.782907485961914
29.081369400024414 -31.46306037902832 4.600712299346924
29.081310272216797 -30.20012855529785 4.502058506011963
28.344083786010742 -36.19926834106445 3.8919765949249268
28.279523849487305 -34.6339225769043 3.7850661277770996
28.337188720703125 -33.29120635986328 3.7008814811706543
28.340988159179688 -31.9484920501709 3.6152901649475098
28.263507843017578 -29.350858688354492 3.4493227005004883
28.34349250793457 -37.764503479003906 2.9279818534851074
28.337169647216797 -33.29121017456055 2.7109875679016113
28.34098243713379 -31.948495864868164 2.648296356201172
28.342844009399414 -37.76361846923828 1.8618013858795166
28.342819213867188 -36.19764709472656 1.8127928972244263
28.262428283691406 -31.85995101928711 1.6793267726898193
28.261842727661133 -31.859289169311523 0.7193887233734131
28.26183319091797 -30.576417922973633 0.7033309936523438
28.261823654174805 -29.349117279052734 0.6882498264312744
28.802974700927734 -38.376708984375 -0.2701510488986969
28.261247634887695 -34.611534118652344 -0.2515818774700165
28.613922119140625 -32.25617980957031 -0.24276641011238098
28.613927841186523 -29.714757919311523 -0.23225601017475128
29.229068756103516 -37.32952880859375 -1.3349995613098145
28.613346099853516 -30.95670509338379 -1.1869877576828003
28.613361358642578 -29.714174270629883 -1.1615393161773682
16.64470672607422 -44.54753494262695 -2.4117372035980225
18.460500717163086 -43.84988021850586 -2.4128456115722656
19.357589721679688 -43.47312927246094 -2.413393020629883
20.24694061279297 -43.077919006347656 -2.413936138153076
22.001020431518555 -42.23299789428711 -2.4150068759918213
24.564571380615234 -40.83114242553711 -2.416572093963623
24.979450225830078 -37.91958236694336 -2.3028204441070557
25.322589874267578 -36.780818939208984 -2.264638662338257
26.074623107910156 -36.26276397705078 -2.2650980949401855
27.601009368896484 -35.250267028808594 -2.2705013751983643
28.332252502441406 -34.698509216308594 -2.2718114852905273
28.612701416015625 -33.614906311035156 -2.2387001514434814
28.61276626586914 -30.95608901977539 -2.1378087997436523
28.612794876098633 -29.713592529296875 -2.091975212097168
11.497599601745605 -30.771913528442383 -2.4086122512817383
13.368727684020996 -30.023387908935547 -2.4097542762756348
16.375585556030273 -28.523929595947266 -2.411590099334717
17.533214569091797 -27.838775634765625 -2.412296772003174
18.66203498840332 -27.10641860961914 -2.4129862785339355
19.215023040771484 -26.722900390625 -2.4133238792419434
20.29701042175293 -25.922054290771484 -2.413984775543213
20.825599670410156 -25.505104064941406 -2.4143078327178955
22.358633041381836 -24.189754486083984 -2.4152443408966064
22.851409912109375 -23.730548858642578 -2.4155452251434326
8.2196626663208 -21.998926162719727 -2.2546138763427734
9.730241775512695 -23.112594604492188 -2.4075422286987305
10.669587135314941 -22.700891494750977 -2.4081156253814697
11.132804870605469 -22.480609893798828 -2.408398389816284
12.494333267211914 -21.763347625732422 -2.4092297554016113
12.9381685256958 -21.505773544311523 -2.4095005989074707
13.809618949890137 -20.963430404663086 -2.4100329875946045
15.073615074157715 -20.083879470825195 -2.4108047485351562
16.28146743774414 -19.12786865234375 -2.4115426540374756
16.67080307006836 -18.792789459228516 -2.411780595779419
17.42852210998535 -18.099035263061523 -2.412243366241455
9.729802131652832 -17.77989387512207 -2.4075474739074707
10.450273513793945 -17.370405197143555 -2.407987356185913
10.804069519042969 -17.154647827148438 -2.408203601837158
11.49855899810791 -16.70154571533203 -2.40862774848938
12.17372989654541 -16.220252990722656 -2.4090399742126465
12.503981590270996 -15.969291687011719 -2.4092419147491455
13.148500442504883 -15.44725227355957 -2.4096362590789795
14.074311256408691 -14.615605354309082 -2.4102046489715576
5.868323802947998 -14.777055740356445 -2.2528090476989746
6.468610763549805 -14.527131080627441 -2.253173828125
7.423693656921387 -14.250458717346191 -2.2766897678375244
8.153627395629883 -14.899965286254883 -2.406592607498169
8.457194328308105 -14.731268882751465 -2.40677809715271
9.053915977478027 -14.375375747680664 -2.407144546508789
9.920217514038086 -13.796347618103027 -2.407674789428711
10.47745132446289 -13.381134986877441 -2.408015012741089
11.280356407165527 -12.716235160827637 -2.4085052013397217
11.792336463928223 -12.246015548706055 -2.408817768096924
4.784929275512695 -12.806279182434082 -2.2521517276763916
5.436883449554443 -12.914421081542969 -2.308359384536743
6.210944652557373 -13.21456527709961 -2.405421018600464
6.480277061462402 -13.08570384979248 -2.405585289001465
7.010801792144775 -12.81155776977539 -2.4059081077575684
7.271753787994385 -12.666359901428223 -2.4060661792755127
7.529699325561523 -12.515839576721191 -2.406222105026245
7.784516334533691 -12.360053062438965 -2.406376361846924
8.28438949584961 -12.032995223999023 -2.4066812992095947
8.52920913696289 -11.861828804016113 -2.4068307876586914
8.770492553710938 -11.685681343078613 -2.406977891921997
9.008124351501465 -11.504609107971191 -2.407122850418091
9.47206974029541 -11.12801742553711 -2.4074060916900635
10.138144493103027 -10.528182029724121 -2.4078128337860107
4.47721529006958 -11.9827241897583 -2.404365062713623
5.442557334899902 -11.579734802246094 -2.404954433441162
5.678521633148193 -11.466693878173828 -2.4050984382629395
6.143301963806152 -11.22628402709961 -2.405381917953491
6.371918678283691 -11.098978996276855 -2.4055213928222656
6.821141242980957 -10.830419540405273 -2.405795097351074
7.259022235870361 -10.543655395507812 -2.4060606956481934
7.892995357513428 -10.080429077148438 -2.406444787979126
8.2993745803833 -9.750313758850098 -2.4066927433013916
8.691935539245605 -9.40378475189209 -2.4069323539733887
8.8828125 -9.224555015563965 -2.4070489406585693
4.197909832000732 -10.570775985717773 -2.40419602394104
4.41340446472168 -10.483312606811523 -2.404327630996704
4.838830471038818 -10.295220375061035 -2.4045872688293457
5.461735725402832 -9.980817794799805 -2.4049675464630127
6.260167121887207 -9.503118515014648 -2.4054551124572754
6.453481197357178 -9.373628616333008 -2.4055731296539307
6.83195686340332 -9.102785110473633 -2.4058034420013428
7.199070930480957 -8.816781997680664 -2.4060263633728027
7.378165245056152 -8.668065071105957 -2.406134843826294
7.554189205169678 -8.515630722045898 -2.4062411785125732
7.727055549621582 -8.3597412109375 -2.4063453674316406
7.896703720092773 -8.200501441955566 -2.4064488410949707
3.5798656940460205 -9.581073760986328 -2.403820037841797
3.775200128555298 -9.50634479522705 -2.4039394855499268
4.726840496063232 -9.073601722717285 -2.404520273208618
5.094329833984375 -8.87360668182373 -2.4047446250915527
5.453354358673096 -8.65870189666748 -2.404963970184326
6.309946060180664 -8.058664321899414 -2.405487060546875
6.473666667938232 -7.928293228149414 -2.4055869579315186
6.792943000793457 -7.657603740692139 -2.4057812690734863
6.948366641998291 -7.517338275909424 -2.4058756828308105
7.100883483886719 -7.374069690704346 -2.405968427658081
3.776719808578491 -8.481730461120605 -2.4039413928985596
4.120686054229736 -8.320958137512207 -2.404151439666748
4.290137767791748 -8.23531723022461 -2.404254913330078
4.457812309265137 -8.146224021911621 -2.4043571949005127
4.949446678161621 -7.858599662780762 -2.4046573638916016
5.109296798706055 -7.756095886230469 -2.404755115509033
5.267024040222168 -7.650297164916992 -2.4048514366149902
5.575823783874512 -7.4291510581970215 -2.4050400257110596
5.875338077545166 -7.1955180168151855 -2.4052228927612305
6.306099891662598 -6.822553634643555 -2.4054858684539795
2.9715380668640137 -7.952960014343262 -2.4034509658813477
3.1336522102355957 -7.890866756439209 -2.4035496711730957
3.294466495513916 -7.825463771820068 -2.4036478996276855
3.45391583442688 -7.756782054901123 -2.403745174407959
3.6119372844696045 -7.684854507446289 -2.403841733932495
4.228371620178223 -7.365230083465576 -2.4042181968688965
4.378246784210205 -7.27750825881958 -2.4043097496032715
4.67246675491333 -7.092963695526123 -2.404489278793335
4.816687107086182 -6.99614953994751 -2.4045774936676025
4.958903789520264 -6.896487712860107 -2.4046642780303955
5.099052429199219 -6.793936729431152 -2.404749870300293
5.237077713012695 -6.688503742218018 -2.404834032058716
5.506528377532959 -6.469208717346191 -2.404998779296875
2.734819173812866 -7.319410800933838 -2.4033071994781494
3.468195676803589 -7.0033793449401855 -2.403754711151123
4.029350280761719 -6.697568893432617 -2.404097318649292
4.16558837890625 -6.614012718200684 -2.4041805267333984
4.563681602478027 -6.34683895111084 -2.404423713684082
4.819659233093262 -6.155257225036621 -2.4045801162719727
4.944664001464844 -6.055702209472656 -2.404656410217285
5.188435077667236 -5.848896503448486 -2.4048054218292236
5.307094573974609 -5.741734504699707 -2.4048779010772705
2.530426025390625 -6.772376537322998 -2.4031829833984375
2.668459415435791 -6.7194647789001465 -2.4032673835754395
2.9411461353302 -6.605203628540039 -2.4034337997436523
3.6005163192749023 -6.271589279174805 -2.403836250305176
4.341773509979248 -5.784933567047119 -2.4042887687683105
4.574921607971191 -5.602907657623291 -2.4044313430786133
4.910220623016357 -5.312356948852539 -2.4046361446380615
2.3519933223724365 -6.294828414916992 -2.4030745029449463
2.6075427532196045 -6.193813800811768 -2.403230667114258
2.7337303161621094 -6.139395236968994 -2.4033076763153076
2.9826366901397705 -6.022879123687744 -2.4034595489501953
3.346564769744873 -5.829237937927246 -2.403681993484497
3.4651501178741455 -5.759777069091797 -2.403754234313965
3.582298517227173 -5.687886714935303 -2.4038257598876953
3.6979565620422363 -5.613615989685059 -2.4038963317871094
4.035480976104736 -5.376820087432861 -2.4041025638580322
4.144690036773682 -5.293334007263184 -2.4041693210601807
4.2521653175354 -5.2076263427734375 -2.4042348861694336
4.357872009277344 -5.119735240936279 -2.40429949760437
4.461761474609375 -5.029696464538574 -2.404362916946411
1.332769751548767 -3.567000150680542 -1.4592394828796387
1.4955248832702637 -3.552372455596924 -1.477053165435791
1.6741564273834229 -3.5619773864746094 -1.508268117904663
1.7744383811950684 -3.5831475257873535 -1.5322768688201904
1.8862451314926147 -3.620821952819824 -1.5645569562911987
2.0183775424957275 -3.688389539718628 -1.6112512350082397
3.5570764541625977 -5.166619300842285 -2.403810977935791
3.6620640754699707 -5.092944145202637 -2.4038751125335693
4.066330432891846 -4.777225494384766 -2.4041218757629395
4.163260459899902 -4.693197727203369 -2.4041812419891357
4.258450984954834 -4.607208728790283 -2.4042394161224365
4.351860046386719 -4.519285678863525 -2.404296398162842
1.1702466011047363 -3.132024049758911 -1.3684136867523193
1.375313639640808 -3.2668304443359375 -1.450685739517212
1.6014294624328613 -3.23378586769104 -1.4769073724746704
1.779913306236267 -3.252619504928589 -1.5175014734268188
3.129706859588623 -4.969261169433594 -2.403550624847412
3.230738401412964 -4.904361248016357 -2.4036121368408203
3.7148594856262207 -4.549586772918701 -2.4039077758789062
3.807194709777832 -4.472785949707031 -2.4039642810821533
3.9870567321777344 -4.313589572906494 -2.404074192047119
4.074509143829346 -4.231263160705566 -2.404127597808838
1.1489940881729126 -2.893287181854248 -1.3567349910736084
1.2334545850753784 -2.929865598678589 -1.3854262828826904
1.3209874629974365 -2.9666640758514404 -1.4153051376342773
1.4067662954330444 -2.993072032928467 -1.44132661819458
1.5506725311279297 -2.9766576290130615 -1.4627528190612793
1.699831485748291 -2.960864305496216 -1.4879260063171387
1.7860082387924194 -2.968696117401123 -1.5099014043807983
1.9733178615570068 -2.9955577850341797 -1.56332266330719
2.1066503524780273 -3.0598881244659424 -1.6190398931503296
3.3106870651245117 -4.411111831665039 -2.4036614894866943
3.660329580307007 -4.126253128051758 -2.4038751125335693
3.744008779525757 -4.050635814666748 -2.403926134109497
0.9917346239089966 -2.6542587280273438 -1.311576247215271
1.155526041984558 -2.7447640895843506 -1.3785089254379272
1.2358471155166626 -2.775455951690674 -1.4063225984573364
1.3188891410827637 -2.806105852127075 -1.4352190494537354
1.7341259717941284 -2.75339937210083 -1.506218671798706
1.8125377893447876 -2.7514891624450684 -1.5251327753067017
1.9955663681030273 -2.775294065475464 -1.5822629928588867
2.106473445892334 -2.8066368103027344 -1.6243520975112915
2.3354332447052 -2.9826691150665283 -1.7535059452056885
3.2842564582824707 -4.022228240966797 -2.4036457538604736
3.365877628326416 -3.954319477081299 -2.403695583343506
3.6021788120269775 -3.7407634258270264 -2.4038400650024414
1.234743595123291 -2.6270718574523926 -1.423878788948059
1.3099011182785034 -2.6451001167297363 -1.447865605354309
1.616058349609375 -2.5659332275390625 -1.48747980594635
2.12274169921875 -2.599720001220703 -1.6463303565979004
3.3261022567749023 -3.5985021591186523 -2.4036717414855957
0.9413000345230103 -2.3702940940856934 -1.3230745792388916
1.0809093713760376 -2.427500009536743 -1.3785400390625
1.1546496152877808 -2.4566640853881836 -1.4082170724868774
1.464874267578125 -2.4349071979522705 -1.4741573333740234
1.644835114479065 -2.389106035232544 -1.5047560930252075
1.776613712310791 -2.3671350479125977 -1.5354186296463013
1.8451684713363647 -2.356532573699951 -1.552693247795105
2.004150390625 -2.3545241355895996 -1.6040606498718262
2.148308038711548 -2.4217660427093506 -1.6794490814208984
3.144796133041382 -3.402346611022949 -2.4035613536834717
3.2137584686279297 -3.3373982906341553 -2.4036035537719727
0.8903259038925171 -2.2419333457946777 -1.321197509765625
0.9512792825698853 -2.2596070766448975 -1.3427963256835938
1.0166491270065308 -2.283182382583618 -1.3688753843307495
1.0841223001480103 -2.306605100631714 -1.3959182500839233
1.2767077684402466 -2.3330600261688232 -1.4566394090652466
1.3302953243255615 -2.3171849250793457 -1.463407278060913
1.437188744544983 -2.281930446624756 -1.4770452976226807
1.8047070503234863 -2.2102246284484863 -1.5628327131271362
1.8755675554275513 -2.203463315963745 -1.5848422050476074
1.968178629875183 -2.2187066078186035 -1.6244170665740967
2.1257688999176025 -2.2998650074005127 -1.7153066396713257
0.8197863698005676 -2.194058895111084 -1.352275013923645
0.8731152415275574 -2.1985983848571777 -1.3657926321029663
0.9826830625534058 -2.2069015502929688 -1.3947616815567017
1.0390222072601318 -2.210651159286499 -1.4102659225463867
1.3242651224136353 -2.201186418533325 -1.483115792274475
1.3814746141433716 -2.1934685707092285 -1.4966377019882202
1.4347131252288818 -2.1779401302337646 -1.505746841430664
1.4874303340911865 -2.1604788303375244 -1.5143886804580688
1.5403002500534058 -2.1421422958374023 -1.5232964754104614
1.598574161529541 -2.129915952682495 -1.53752863407135
1.6616796255111694 -2.122190237045288 -1.5561555624008179
1.7295055389404297 -2.1181247234344482 -1.5787795782089233
1.7990539073944092 -2.1135733127593994 -1.6024755239486694
1.8809765577316284 -2.120406150817871 -1.6364797353744507
1.9886267185211182 -2.1514904499053955 -1.691502332687378
