ply
format ascii 1.0
element vertex 351
property float x
property float y
property float z
end_header
-14.026689529418945 -16.550806045532227 3.8254284858703613
-12.943700790405273 -16.55078887939453 3.704829692840576
-10.910024642944336 -16.47044563293457 3.483536958694458
-9.60964298248291 -16.550739288330078 3.3745853900909424
-9.134740829467773 -16.47041893005371 3.3209354877471924
-7.544804573059082 -16.55070686340332 3.207261800765991
-6.772021293640137 -16.550695419311523 3.1531763076782227
-12.943700790405273 -16.550790786743164 3.218789577484131
-12.366708755493164 -16.470468521118164 3.155251979827881
-9.609633445739746 -16.550739288330078 2.9318687915802
-8.71573257446289 -16.47041130065918 2.8546741008758545
-7.544809341430664 -16.55070686340332 2.786494731903076
-14.595521926879883 -16.55081558227539 2.873602867126465
-14.026694297790527 -16.55080795288086 2.82515549659729
-12.366718292236328 -16.470468521118164 2.68206787109375
-11.925371170043945 -16.5507755279541 2.656449556350708
-11.437763214111328 -16.550765991210938 2.6198370456695557
-10.910024642944336 -16.47044563293457 2.572657346725464
-9.134750366210938 -16.47041893005371 2.4525740146636963
-8.715727806091309 -16.47041130065918 2.426578998565674
-8.345829963684082 -16.55072021484375 2.413759231567383
-7.921581745147705 -16.509122848510742 2.384510040283203
-7.544809341430664 -16.55070686340332 2.3686249256134033
-6.395029067993164 -16.550689697265625 2.3105356693267822
-14.595526695251465 -16.550817489624023 2.369605302810669
-14.026694297790527 -16.55080795288086 2.3296549320220947
-13.47652816772461 -16.550798416137695 2.291902542114258
-10.049945831298828 -16.55074691772461 2.0792417526245117
-9.609647750854492 -16.550739288330078 2.0550966262817383
-8.71572208404541 -16.47041130065918 2.0009946823120117
-7.155131816864014 -16.550703048706055 1.9362128973007202
-6.772016525268555 -16.550695419311523 1.9202582836151123
-14.026683807373047 -16.55080795288086 1.836549162864685
-12.943705558776855 -16.550790786743164 1.7786524295806885
-12.366718292236328 -16.470470428466797 1.7435389757156372
-10.910024642944336 -16.470449447631836 1.672409176826477
-10.001172065734863 -16.470434188842773 1.6311814785003662
-9.56301212310791 -16.470426559448242 1.6122400760650635
-7.903002738952637 -16.470401763916016 1.5464634895324707
-7.508198261260986 -16.470396041870117 1.5323011875152588
-7.120409965515137 -16.47039031982422 1.5189775228500366
-13.411137580871582 -16.47048568725586 1.3170979022979736
-12.880878448486328 -16.47047996520996 1.2965848445892334
-12.366713523864746 -16.470470428466797 1.277204990386963
-10.948783874511719 -15.195387840270996 1.1613917350769043
-10.910024642944336 -16.470449447631836 1.2250953912734985
-10.449926376342773 -16.470441818237305 1.2095603942871094
-10.001172065734863 -16.470434188842773 1.194884181022644
-8.715727806091309 -16.470415115356445 1.1555198431015015
-7.902997970581055 -16.470401763916016 1.132825493812561
-7.120405197143555 -16.47039031982422 1.1126915216445923
-6.363998889923096 -16.470375061035156 1.0949232578277588
-14.524711608886719 -16.470504760742188 0.8659095764160156
-13.958632469177246 -16.470495223999023 0.8513105511665344
-12.366718292236328 -16.470470428466797 0.8121351599693298
-11.867514610290527 -16.470462799072266 0.8004728555679321
-10.00118637084961 -16.470434188842773 0.7598011493682861
-7.120400428771973 -16.47039031982422 0.7075346112251282
-6.364003658294678 -16.470378875732422 0.6962376236915588
-13.4111328125 -16.47048568725586 0.3587815761566162
-12.880898475646973 -16.47047996520996 0.3531959354877472
-12.366708755493164 -16.470470428466797 0.3479103147983551
-10.9100341796875 -16.470449447631836 0.3337174952030182
-10.449931144714355 -16.470443725585938 0.32948896288871765
-10.00118637084961 -16.470434188842773 0.32548993825912476
-9.56302261352539 -16.470428466796875 0.32171371579170227
-9.134750366210938 -16.470422744750977 0.3181404173374176
-8.715727806091309 -16.470415115356445 0.31477004289627075
-7.903007507324219 -16.470401763916016 0.30858686566352844
-6.739160060882568 -16.47038459777832 0.30060499906539917
-14.10586929321289 -16.644237518310547 -0.12283477187156677
-13.403549194335938 -17.138778686523438 -0.12249954044818878
-12.868505477905273 -17.138771057128906 -0.12066420912742615
-12.349047660827637 -17.138761520385742 -0.11893173307180405
-11.84410572052002 -17.13875389099121 -0.11729354411363602
-11.352709770202637 -17.13874626159668 -0.1157449334859848
-10.873940467834473 -17.13874053955078 -0.11427642405033112
-10.406977653503418 -17.13873291015625 -0.11288787424564362
-8.642329216003418 -17.13870620727539 -0.10806778073310852
-7.903007507324219 -16.470401763916016 -0.1028500348329544
-7.393280982971191 -18.069047927856445 -0.10991820693016052
-6.981713771820068 -18.069040298461914 -0.10906066745519638
-14.10594654083252 -16.644325256347656 -0.6143469214439392
-12.868500709533691 -17.138771057128906 -0.6034826636314392
-12.349047660827637 -17.138763427734375 -0.5948130488395691
-11.352709770202637 -17.13874626159668 -0.5788632035255432
-10.406977653503418 -17.13873291015625 -0.5645923018455505
-9.951034545898438 -17.13872528076172 -0.5580378770828247
-9.505399703979492 -17.13871955871582 -0.5518435835838318
-9.069365501403809 -17.138713836669922 -0.5459945797920227
-6.981703758239746 -18.069042205810547 -0.54544597864151
-33.28920364379883 -33.53634262084961 -2.396406412124634
-14.106024742126465 -16.64441680908203 -1.1064670085906982
-13.403534889221191 -17.138778686523438 -1.1034202575683594
-12.3490571975708 -17.138763427734375 -1.0713016986846924
-11.844100952148438 -17.138757705688477 -1.0565365552902222
-10.406987190246582 -17.13873291015625 -1.0168675184249878
-9.951029777526855 -17.13872718811035 -1.0050593614578247
-7.393285751342773 -18.069047927856445 -0.990096390247345
-21.585147857666016 -21.745405197143555 -2.2465600967407227
-20.721942901611328 -22.586627960205078 -2.247480630874634
-12.349047660827637 -17.138763427734375 -1.54887855052948
-11.844100952148438 -17.138757705688477 -1.5275323390960693
-10.873945236206055 -17.138742446899414 -1.4882405996322632
-9.06937026977539 -17.138713836669922 -1.4217488765716553
-8.642324447631836 -17.13870620727539 -1.4073764085769653
-7.596366882324219 -16.66380500793457 -1.3427886962890625
-7.596362113952637 -17.571340560913086 -1.4036102294921875
-7.393280982971191 -18.069049835205078 -1.4314767122268677
-16.525672912597656 -16.64836883544922 -2.2520596981048584
-16.195463180541992 -16.970483779907227 -2.2521116733551025
-15.859013557434082 -17.28610610961914 -2.2521650791168213
-14.5247163772583 -16.47050666809082 -2.1082711219787598
-12.349052429199219 -17.138763427734375 -2.0280373096466064
-11.84410572052002 -17.138757705688477 -2.0000839233398438
-11.352714538574219 -17.138750076293945 -1.9736433029174805
-10.873929977416992 -17.138742446899414 -1.9486383199691772
-10.406982421875 -17.138734817504883 -1.9249895811080933
-9.50539493560791 -17.13871955871582 -1.8815195560455322
-7.903012752532959 -16.47040557861328 -1.753847599029541
-7.59643030166626 -17.571500778198242 -1.8378418684005737
-6.981709003448486 -18.069042205810547 -1.8597064018249512
-13.360234260559082 -13.459293365478516 -2.2526919841766357
-13.062148094177246 -13.687226295471191 -2.247410535812378
-12.793330192565918 -13.944550514221191 -2.247912883758545
-12.519404411315918 -14.196555137634277 -2.2484068870544434
-12.240453720092773 -14.443120002746582 -2.248891592025757
-11.956591606140137 -14.68413257598877 -2.2493677139282227
-11.374629020690918 -15.149158477783203 -2.2502918243408203
-10.774374961853027 -15.590822219848633 -2.2511775493621826
-10.467690467834473 -15.8026704788208 -2.251605272293091
-10.15682601928711 -16.008440017700195 -2.252023220062256
-7.903002738952637 -16.47040557861328 -2.1700246334075928
-7.596498966217041 -16.664104461669922 -2.1754345893859863
-6.83791971206665 -17.69690704345703 -2.2536096572875977
-11.693769454956055 -12.253358840942383 -2.399904489517212
-10.951455116271973 -12.922184944152832 -2.400022506713867
-10.435175895690918 -13.343265533447266 -2.4001047611236572
-10.071889877319336 -13.414030075073242 -2.376739501953125
-9.275957107543945 -13.422592163085938 -2.3117921352386475
-8.893789291381836 -13.42646598815918 -2.281890630722046
-8.524165153503418 -13.436838150024414 -2.2547216415405273
-8.234911918640137 -13.56167984008789 -2.2480571269989014
-7.967665672302246 -13.722658157348633 -2.2483294010162354
-7.697358131408691 -13.878676414489746 -2.2486519813537598
-7.147661209106445 -14.174516677856445 -2.24927020072937
-6.868398189544678 -14.31419849395752 -2.2495651245117188
-6.301801681518555 -14.576845169067383 -2.250127077102661
-6.014662742614746 -14.699685096740723 -2.2503936290740967
-5.725121974945068 -14.816825866699219 -2.250650405883789
-9.84969711303711 -10.73597526550293 -2.4002013206481934
-9.636859893798828 -10.927753448486328 -2.400235414505005
-9.42013168334961 -11.115283012390137 -2.4002699851989746
-8.97603988647461 -11.477448463439941 -2.4003405570983887
-8.518027305603027 -11.821874618530273 -2.4004135131835938
-8.047001838684082 -12.14806079864502 -2.4004886150360107
-7.563671588897705 -12.45546817779541 -2.4005658626556396
-7.06777811050415 -12.74364185333252 -2.4006450176239014
-6.561635494232178 -13.012147903442383 -2.400725841522217
-6.045019626617432 -13.260539054870605 -2.400808334350586
-5.479882717132568 -13.392719268798828 -2.3838515281677246
-5.175698280334473 -13.394770622253418 -2.365638256072998
-8.996601104736328 -9.063396453857422 -2.4003398418426514
-8.816742897033691 -9.238663673400879 -2.4003684520721436
-8.6334810256958 -9.410358428955078 -2.400397777557373
-7.668368816375732 -10.213095664978027 -2.4005513191223145
-6.842534065246582 -10.784716606140137 -2.4006831645965576
-6.194506645202637 -11.16982650756836 -2.4007866382598877
-5.975024223327637 -11.289812088012695 -2.4008216857910156
-5.529511451721191 -11.516544342041016 -2.400892734527588
-5.068813323974609 -11.72497272491455 -2.400966167449951
-4.837382793426514 -11.8225679397583 -2.401003360748291
-7.840429306030273 -8.2156343460083 -2.4005260467529297
-7.677441120147705 -8.368308067321777 -2.4005520343780518
-7.342617034912109 -8.663924217224121 -2.4006052017211914
-6.996416091918945 -8.946150779724121 -2.400660514831543
-6.819228172302246 -9.08210277557373 -2.400688648223877
-6.272084712982178 -9.468725204467773 -2.400775909423828
-6.084755897521973 -9.590350151062012 -2.400805950164795
-5.895058631896973 -9.70827579498291 -2.400836229324341
-5.703081130981445 -9.822443962097168 -2.400866746902466
-5.508915901184082 -9.932825088500977 -2.400897741317749
-4.913681507110596 -10.24073600769043 -2.4009928703308105
-4.711450099945068 -10.33553409576416 -2.4010250568389893
-4.301620960235596 -10.513117790222168 -2.401090383529663
-4.094125747680664 -10.595816612243652 -2.4011237621307373
-7.19595193862915 -7.249370574951172 -2.400630235671997
-7.052060604095459 -7.389528751373291 -2.400653123855591
-6.449838638305664 -7.921169281005859 -2.4007492065429688
-6.292885780334473 -8.04655647277832 -2.4007742404937744
-6.133515357971191 -8.168835639953613 -2.400799512863159
-5.971743106842041 -8.287945747375488 -2.400825262069702
-5.641362190246582 -8.516544342041016 -2.4008781909942627
-5.472861289978027 -8.625929832458496 -2.400904893875122
-5.129560470581055 -8.834664344787598 -2.4009597301483154
-4.954897403717041 -8.933924674987793 -2.4009876251220703
-3.8690037727355957 -9.45578384399414 -2.401160955429077
-3.682363271713257 -9.530155181884766 -2.401190996170044
-6.532148361206055 -6.580639362335205 -2.4007372856140137
-6.401528358459473 -6.707868576049805 -2.4007582664489746
-5.995038986206055 -7.07384729385376 -2.400822877883911
-5.854834079742432 -7.190432548522949 -2.4008452892303467
-5.712353229522705 -7.3042473793029785 -2.4008679389953613
-5.420825004577637 -7.523355960845947 -2.400914430618286
-5.120908260345459 -7.73084831237793 -2.4009623527526855
-4.813071250915527 -7.926393985748291 -2.4010114669799805
-4.497768402099609 -8.109686851501465 -2.401061534881592
-4.337455749511719 -8.196651458740234 -2.4010872840881348
-3.84673810005188 -8.43841552734375 -2.401165723800659
-3.6800925731658936 -8.512521743774414 -2.4011921882629395
-3.512031078338623 -8.583343505859375 -2.401219129562378
-3.342607259750366 -8.65084457397461 -2.4012460708618164
-5.733344554901123 -6.24926233291626 -2.4008657932281494
-5.60940408706665 -6.36085319519043 -2.4008853435516357
-5.355024337768555 -6.5766191482543945 -2.400926113128662
-5.224711894989014 -6.6807122230529785 -2.400946855545044
-4.958061218261719 -6.881105899810791 -2.400989294052124
-4.821830749511719 -6.977334022521973 -2.4010109901428223
-4.402167797088623 -7.249708652496338 -2.40107798576355
-3.669379711151123 -7.647223949432373 -2.4011948108673096
-3.518320322036743 -7.71798038482666 -2.401218891143799
-3.2121922969818115 -7.8505144119262695 -2.4012680053710938
-3.0572216510772705 -7.912242412567139 -2.401292562484741
-5.499042987823486 -5.53993034362793 -2.4009039402008057
-5.389150142669678 -5.647036075592041 -2.400921583175659
-5.277099609375 -5.751955509185791 -2.4009392261505127
-5.162997722625732 -5.854656219482422 -2.4009575843811035
-5.046918869018555 -5.95510721206665 -2.4009759426116943
-4.92886209487915 -6.053244113922119 -2.4009947776794434
-4.687114238739014 -6.242475509643555 -2.401033401489258
-4.4381103515625 -6.422056198120117 -2.4010729789733887
-4.310986042022705 -6.508138656616211 -2.4010934829711914
-4.182211875915527 -6.591709613800049 -2.401113748550415
-4.051821231842041 -6.672737121582031 -2.401134729385376
-3.651420831680298 -6.900214672088623 -2.401198625564575
-3.5150632858276367 -6.970751762390137 -2.4012203216552734
-2.8138818740844727 -7.282492637634277 -2.401332378387451
-5.088520526885986 -5.126298904418945 -2.400970220565796
-4.777461051940918 -5.417520523071289 -2.40101957321167
-4.449853420257568 -5.689919471740723 -2.4010720252990723
-4.337133884429932 -5.776367664337158 -2.401089906692505
-3.869926691055298 -6.099512100219727 -2.4011645317077637
-3.6271629333496094 -6.247066020965576 -2.401203155517578
-3.5036327838897705 -6.317236423492432 -2.4012229442596436
-3.3787596225738525 -6.3849663734436035 -2.401242733001709
-3.125131845474243 -6.512994289398193 -2.4012832641601562
-2.603754758834839 -6.738665580749512 -2.401366710662842
-4.730024337768555 -4.7651472091674805 -2.4010281562805176
-4.635434627532959 -4.8572678565979 -2.401042938232422
-4.539057731628418 -4.947511672973633 -2.4010584354400635
-4.440922737121582 -5.035847187042236 -2.401073932647705
-4.13623046875 -5.289045810699463 -2.401122570037842
-4.031562328338623 -5.369398593902588 -2.401139259338379
-3.9252049922943115 -5.4476728439331055 -2.401156187057495
-3.7080371379852295 -5.5978875160217285 -2.401190996170044
-3.5972704887390137 -5.669761657714844 -2.4012086391448975
-3.485117197036743 -5.739448547363281 -2.40122652053833
-3.3716015815734863 -5.806915283203125 -2.401244640350342
-3.256782054901123 -5.872138023376465 -2.4012629985809326
-2.785346508026123 -6.1100945472717285 -2.4013381004333496
-2.664677619934082 -6.163736820220947 -2.401357412338257
-2.542983293533325 -6.214995384216309 -2.401376962661743
-4.325736999511719 -4.532744884490967 -2.401093006134033
-4.235790729522705 -4.616957664489746 -2.4011073112487793
-3.859975576400757 -4.935659408569336 -2.401167154312134
-3.662968635559082 -5.083690643310547 -2.401198625564575
-3.4602928161621094 -5.223862171173096 -2.401231050491333
-3.3568456172943115 -5.290933609008789 -2.401247501373291
-3.039262533187866 -5.47977876663208 -2.4012980461120605
-2.8213915824890137 -5.595124244689941 -2.4013328552246094
-2.3730664253234863 -5.799706935882568 -2.401404619216919
-2.2585644721984863 -5.8452935218811035 -2.4014227390289307
-4.133061408996582 -4.163752555847168 -2.4011244773864746
-4.050405025482178 -4.244240760803223 -2.401137590408325
-3.966191291809082 -4.323091506958008 -2.401150941848755
-3.880424737930298 -4.4002766609191895 -2.4011645317077637
-3.7044432163238525 -4.549510955810547 -2.4011926651000977
-3.429814338684082 -4.760107517242432 -2.4012362957000732
-3.2400341033935547 -4.891351222991943 -2.401266574859619
-2.845712900161743 -5.130966663360596 -2.401329517364502
-2.641787052154541 -5.2389702796936035 -2.401362180709839
-2.433784008026123 -5.338869094848633 -2.401395320892334
-2.3282861709594727 -5.385735511779785 -2.40141224861145
-2.2219531536102295 -5.430515766143799 -2.4014291763305664
-3.8813817501068115 -3.9102447032928467 -2.401165008544922
-3.803705930709839 -3.9858410358428955 -2.401177406311035
-3.7247021198272705 -4.059876441955566 -2.4011898040771484
-3.6441650390625 -4.132357597351074 -2.40120267868042
-3.5622215270996094 -4.203243732452393 -2.4012157917022705
-3.478896379470825 -4.272503852844238 -2.4012291431427
-3.394228458404541 -4.340113639831543 -2.40124249458313
-3.2209715843200684 -4.470271110534668 -2.4012701511383057
-3.1324706077575684 -4.532774448394775 -2.4012842178344727
-3.0427489280700684 -4.593523025512695 -2.4012985229492188
-2.4809226989746094 -4.919963359832764 -2.401388168334961
-3.6544675827026367 -3.681643009185791 -2.4012014865875244
-3.506913900375366 -3.822530508041382 -2.4012250900268555
-3.4310741424560547 -3.8907744884490967 -2.4012370109558105
-3.3538818359375 -3.957519769668579 -2.401249408721924
-3.2754199504852295 -4.022731304168701 -2.401261806488037
-3.1957664489746094 -4.0863776206970215 -2.4012744426727295
-3.114824056625366 -4.148446083068848 -2.40128755569458
-3.032660961151123 -4.208918571472168 -2.4013006687164307
-2.9493212699890137 -4.267764568328857 -2.4013137817382812
-2.7792723178863525 -4.380483627319336 -2.401340961456299
-2.6049022674560547 -4.486434459686279 -2.4013688564300537
-2.516186475753784 -4.536815643310547 -2.4013829231262207
-2.335883855819702 -4.632303237915039 -2.401411771774292
-1.8698924779891968 -4.839390277862549 -2.4014861583709717
-3.3094091415405273 -3.6071877479553223 -2.401257038116455
-3.1650633811950684 -3.7345635890960693 -2.401279926300049
-3.090937376022339 -3.796112060546875 -2.401291847229004
-2.9393310546875 -3.914754629135132 -2.401315927505493
-2.861806631088257 -3.971816301345825 -2.4013283252716064
-2.7831687927246094 -4.027345657348633 -2.4013407230377197
-2.540903329849243 -4.184510231018066 -2.401379346847534
-2.204287052154541 -4.371336936950684 -2.401433229446411
-2.1179003715515137 -4.413862228393555 -2.40144681930542
-1.8539990186691284 -4.531140327453613 -2.401489019393921
-2.992670774459839 -3.531203031539917 -2.4013078212738037
-2.8515281677246094 -3.6461808681488037 -2.4013302326202393
-2.779306650161743 -3.7015655040740967 -2.401341676712036
-2.7059521675109863 -3.75553035736084 -2.401353359222412
-2.479848623275757 -3.9086034297943115 -2.4013893604278564
-2.4025049209594727 -3.956636667251587 -2.4014017581939697
-2.2450878620147705 -4.048089504241943 -2.4014270305633545
-2.0841991901397705 -4.1332855224609375 -2.4014525413513184
-1.9201122522354126 -4.21208381652832 -2.4014787673950195
-2.8998730182647705 -3.2883501052856445 -2.401322841644287
-2.83465313911438 -3.344754219055176 -2.4013333320617676
-2.7009618282318115 -3.453660726547241 -2.4013545513153076
-2.6325438022613525 -3.506122589111328 -2.4013655185699463
-2.5630955696105957 -3.557227611541748 -2.401376485824585
-2.4926609992980957 -3.606959104537964 -2.4013876914978027
-2.421269416809082 -3.6552953720092773 -2.4013991355895996
-2.348930597305298 -3.7022206783294678 -2.4014105796813965
-2.050786018371582 -3.8754289150238037 -2.401458263397217
-1.9741796255111694 -3.915031671524048 -2.401470422744751
-1.8968114852905273 -3.9531168937683105 -2.4014828205108643
-1.8187450170516968 -3.9896697998046875 -2.4014952182769775
-1.5803124904632568 -4.0900397300720215 -2.401533365249634
-2.497387647628784 -3.3261168003082275 -2.4013872146606445
-2.4315037727355957 -3.3745956420898438 -2.401397705078125
-2.296952962875366 -3.4676268100738525 -2.4014194011688232
-2.228330135345459 -3.5121428966522217 -2.401430130004883
-2.1588475704193115 -3.555297374725342 -2.4014413356781006
-1.8728221654891968 -3.714021921157837 -2.401486873626709
-1.7253466844558716 -3.7848262786865234 -2.40151047706604
-1.6505956649780273 -3.818042516708374 -2.401522397994995
-1.5752050876617432 -3.849780797958374 -2.4015345573425293
-1.499208927154541 -3.8800337314605713 -2.4015464782714844
