ply
format ascii 1.0
element vertex 269
property float x
property float y
property float z
end_header
21.362499237060547 -1.8094555139541626 3.7802734375
21.362890243530273 -1.3800506591796875 3.7747063636779785
21.363666534423828 -0.9517620801925659 3.770726203918457
21.36434555053711 0.3300744593143463 3.7675602436065674
21.36434555053711 1.1853960752487183 3.7729034423828125
21.36433982849121 2.0445282459259033 3.784318685531616
21.36433982849121 2.9102673530578613 3.801900625228882
21.36434555053711 3.785490036010742 3.8257877826690674
21.364349365234375 4.673210144042969 3.8561809062957764
21.364355087280273 5.122735500335693 3.873892068862915
42.81173324584961 0.661405622959137 6.5592942237854
42.81171417236328 3.234872341156006 6.577208042144775
42.81170654296875 4.962393760681152 6.60242223739624
42.81169891357422 6.705976486206055 6.638482570648193
42.81169891357422 7.585659027099609 6.66066837310791
42.77153778076172 8.463628768920898 6.679409027099609
42.81169891357422 9.364547729492188 6.713575839996338
42.811702728271484 10.265334129333496 6.744414329528809
42.771278381347656 -3.6228551864624023 5.589659214019775
42.81142807006836 -2.765660047531128 5.586562156677246
42.81139373779297 -0.19445617496967316 5.574992656707764
42.771209716796875 2.373124837875366 5.5782694816589355
42.81135559082031 4.962350845336914 5.612254619598389
42.81135177612305 5.831766128540039 5.626418113708496
42.81134796142578 7.585594177246094 5.6617631912231445
42.77118682861328 8.463558197021484 5.6776862144470215
42.81134033203125 9.364462852478027 5.706734657287598
42.770931243896484 -3.622828245162964 4.609263896942139
42.81108474731445 -2.7656373977661133 4.606709003448486
42.81106948852539 -1.9072811603546143 4.601682662963867
42.811058044433594 -1.0504400730133057 4.598509311676025
42.811038970947266 0.661393404006958 4.597667694091797
42.81103515625 1.5177563428878784 4.600008487701416
42.81101608276367 4.0969109535217285 4.618120193481445
42.81100845336914 4.962306976318359 4.627891540527344
42.811004638671875 5.831715106964111 4.63957405090332
42.810997009277344 7.585532188415527 4.668723106384277
42.770835876464844 8.463489532470703 4.681854724884033
26.497915267944336 6.353654861450195 2.9260411262512207
42.82657241821289 -4.491328716278076 3.645270347595215
42.826560974121094 -3.6275157928466797 3.6383655071258545
42.82655334472656 -2.7666172981262207 3.6329362392425537
42.82654571533203 -1.9079461097717285 3.6289782524108887
42.8265380859375 -1.0507965087890625 3.626471519470215
42.82652282714844 0.6616564989089966 3.6258115768432617
42.82650375366211 3.236018657684326 3.635714530944824
42.826499938964844 4.098412990570068 3.6419475078582764
42.82649230957031 4.964125633239746 3.6496527194976807
42.82648849487305 6.708321571350098 3.669588565826416
42.82648468017578 7.58829927444458 3.6818480491638184
42.82647705078125 9.367798805236816 3.7110936641693115
26.49790382385254 6.353653430938721 2.306701421737671
43.63125228881836 6.834381103515625 2.738574743270874
43.63125228881836 7.730893611907959 2.747730016708374
43.631248474121094 8.633771896362305 2.758047342300415
43.63090133666992 7.7308349609375 1.7472119331359863
43.630897521972656 9.543758392333984 1.7610894441604614
26.162954330444336 6.273338317871094 1.0608782768249512
46.05344009399414 6.273427486419678 0.7851220369338989
43.62979507446289 6.83415412902832 0.7459725737571716
43.629783630371094 8.633484840393066 0.7512780427932739
43.629783630371094 9.543514251708984 0.7544122338294983
26.1629581451416 6.273338317871094 0.4544702172279358
43.62942886352539 9.543437004089355 -0.25144773721694946
46.05342483520508 6.273425102233887 -1.308726191520691
43.62908935546875 6.834043025970459 -1.2434810400009155
43.62908172607422 7.730513572692871 -1.2476388216018677
43.62908172607422 8.633341789245605 -1.2523201704025269
43.62907791137695 9.543355941772461 -1.2575459480285645
47.642459869384766 -2.122483730316162 -2.418544292449951
47.67565155029297 -1.1697747707366943 -2.4185571670532227
44.55720520019531 3.366793155670166 -2.2661292552948
44.51197052001953 4.25970983505249 -2.267702102661133
44.44862365722656 5.152150630950928 -2.269268035888672
43.62873840332031 6.833987712860107 -2.2395777702331543
43.62872314453125 8.63327693939209 -2.2554941177368164
43.62724685668945 9.542961120605469 -2.264833688735962
32.733909606933594 -3.432887554168701 -2.4132823944091797
32.79631805419922 -2.77793025970459 -2.4133050441741943
32.845550537109375 -2.121838092803955 -2.413323163986206
32.88157272338867 -1.4648922681808472 -2.4133365154266357
32.91395568847656 -0.1494787633419037 -2.4133493900299072
32.91036605834961 0.5084545612335205 -2.413348913192749
32.89356994628906 1.1661748886108398 -2.413343667984009
30.41524887084961 5.389188289642334 -2.2648470401763916
30.284521102905273 5.992725849151611 -2.263587474822998
30.111146926879883 6.586436748504639 -2.2600014209747314
24.97160530090332 -2.6188347339630127 -2.4105441570281982
25.019149780273438 -2.119184732437134 -2.4105615615844727
25.056665420532227 -1.6186718940734863 -2.4105753898620605
25.106063842773438 0.38788023591041565 -2.410594940185547
25.037460327148438 1.8918590545654297 -2.4105722904205322
23.359516143798828 2.7076592445373535 -2.2576417922973633
23.180160522460938 4.107223987579346 -2.2600696086883545
23.013641357421875 5.033963680267334 -2.2616610527038574
22.916391372680664 5.494879245758057 -2.2624473571777344
20.16830062866211 -2.115100145339966 -2.4088499546051025
20.206668853759766 -1.7115551233291626 -2.4088640213012695
20.25910186767578 -0.9025539755821228 -2.4088833332061768
20.27312469482422 -0.49742308259010315 -2.408888578414917
20.276830673217773 0.3132708668708801 -2.408890724182129
20.266498565673828 0.7185076475143433 -2.4088876247406006
18.81818389892578 2.5634210109710693 -2.255978584289551
18.767255783081055 2.93969464302063 -2.2564697265625
18.573217391967773 4.062675476074219 -2.2584006786346436
16.93226432800293 -1.4342052936553955 -2.4077088832855225
16.97615623474121 -0.7562975883483887 -2.4077250957489014
16.987918853759766 -0.4168170094490051 -2.407729387283325
16.982362747192383 0.6020751595497131 -2.407728672027588
16.944618225097656 1.2803540229797363 -2.4077160358428955
16.915605545043945 1.6187902688980103 -2.4077060222625732
16.879745483398438 1.956573486328125 -2.407693862915039
15.8070650100708 2.4760124683380127 -2.2670018672943115
15.671796798706055 2.7768402099609375 -2.2551119327545166
15.616888999938965 3.090277671813965 -2.255650520324707
14.579843521118164 -0.9418646097183228 -2.406879186630249
14.595805168151855 -0.6502511501312256 -2.4068851470947266
14.608564376831055 0.22569458186626434 -2.406890630722046
14.601122856140137 0.5176586508750916 -2.406888246536255
14.543734550476074 1.3918097019195557 -2.4068689346313477
14.512948989868164 1.6822326183319092 -2.406858444213867
14.43394947052002 2.2609269618988037 -2.4068312644958496
13.920244216918945 2.4664862155914307 -2.3289296627044678
13.422411918640137 2.6560332775115967 -2.2540738582611084
12.731891632080078 -1.335237741470337 -2.4062204360961914
12.756095886230469 -1.0804738998413086 -2.4062294960021973
12.789140701293945 -0.5697628855705261 -2.4062418937683105
12.79799747467041 -0.3140155076980591 -2.406245231628418
12.800332069396973 0.1977502405643463 -2.4062466621398926
12.743535041809082 1.2195305824279785 -2.4062294960021973
12.684518814086914 1.727891206741333 -2.406209707260132
12.505646705627441 2.7354655265808105 -2.40614652633667
12.231996536254883 2.9329802989959717 -2.364305019378662
11.31894302368164 -1.1870452165603638 -2.4057164192199707
11.34044361114502 -0.9605636596679688 -2.405724287033081
11.369826316833496 -0.5065322518348694 -2.4057352542877197
11.377692222595215 -0.2791644334793091 -2.405738353729248
11.381010055541992 -0.051686398684978485 -2.4057397842407227
11.379762649536133 0.1758142113685608 -2.4057395458221436
11.305304527282715 1.3104254007339478 -2.405714273452759
11.066906929016113 2.6536149978637695 -2.405630350112915
10.178546905517578 -1.0674489736557007 -2.4053120613098145
10.213134765625 -0.6597821116447449 -2.405324697494507
10.224296569824219 -0.4554598927497864 -2.4053289890289307
10.231376647949219 -0.25109678506851196 -2.405331611633301
10.234354972839355 -0.046478271484375 -2.4053328037261963
10.21872329711914 0.5669823884963989 -2.4053282737731934
10.187849044799805 0.9749560356140137 -2.405317544937134
10.11098861694336 1.583781123161316 -2.4052913188934326
9.26931095123291 -0.5988021492958069 -2.40499210357666
9.287546157836914 0.14348937571048737 -2.4049994945526123
9.282821655273438 0.3291040062904358 -2.4049980640411377
9.262224197387695 0.699863851070404 -2.4049911499023438
9.22680377960205 1.069502592086792 -2.4049789905548096
9.111742973327637 1.8030370473861694 -2.4049391746520996
9.073835372924805 1.9847973585128784 -2.404925584793091
9.032297134399414 2.1657586097717285 -2.4049108028411865
8.448063850402832 -0.8859689235687256 -2.4047024250030518
8.486024856567383 -0.3780578672885895 -2.4047162532806396
8.489115715026855 0.30096372961997986 -2.4047181606292725
8.416630744934082 1.146517276763916 -2.404693603515625
8.392004013061523 1.3145190477371216 -2.4046847820281982
7.774772644042969 -0.8153588771820068 -2.4044651985168457
7.801178932189941 -0.5039596557617188 -2.4044747352600098
7.809701919555664 -0.34792661666870117 -2.404477834701538
7.81652307510376 0.12076293677091599 -2.4044809341430664
7.723178386688232 1.2097551822662354 -2.4044482707977295
7.697423934936523 1.3638848066329956 -2.4044394493103027
7.636693954467773 1.67043936252594 -2.404418468475342
7.60174036026001 1.8227410316467285 -2.4044063091278076
7.193464279174805 -0.7543966770172119 -2.4042603969573975
7.217897891998291 -0.46627897024154663 -2.404269218444824
7.225780963897705 -0.3219122290611267 -2.4042723178863525
7.230776309967041 -0.17741455137729645 -2.4042739868164062
7.232880592346191 -0.03284972906112671 -2.404275417327881
7.232175350189209 0.11181090772151947 -2.4042749404907227
7.212375164031982 0.5449749827384949 -2.4042677879333496
7.200034141540527 0.6890295147895813 -2.404263496398926
7.184802055358887 0.832808792591095 -2.4042582511901855
7.166701316833496 0.9762524366378784 -2.404252052307129
7.145737171173096 1.1193041801452637 -2.404244899749756
7.121906757354736 1.2619116306304932 -2.4042365550994873
7.095236778259277 1.4040093421936035 -2.4042272567749023
7.065722465515137 1.5455455780029297 -2.404217004776001
7.033388614654541 1.686461091041565 -2.404205799102783
6.698720455169678 -0.5673971176147461 -2.4040863513946533
6.708727836608887 -0.4333880543708801 -2.40408992767334
6.722658634185791 -0.030531005933880806 -2.404094696044922
6.692128658294678 0.640423595905304 -2.4040844440460205
6.661149978637695 0.9073858261108398 -2.40407395362854
6.594724178314209 1.3049676418304443 -2.404050827026367
6.537245750427246 1.5674974918365479 -2.4040307998657227
6.238745212554932 -0.6543084383010864 -2.403923511505127
6.250624656677246 -0.5294424295425415 -2.403927803039551
6.271132469177246 -0.15387023985385895 -2.403935432434082
6.272958755493164 -0.028489379212260246 -2.4039361476898193
6.255177974700928 0.47264769673347473 -2.403930187225342
6.244470119476318 0.5975848436355591 -2.4039266109466553
6.1767258644104 1.0944366455078125 -2.4039032459259033
6.153595924377441 1.2176764011383057 -2.403895378112793
5.861071586608887 -0.3786279261112213 -2.4037904739379883
5.867470741271973 -0.2613995373249054 -2.4037928581237793
5.871532917022705 -0.14406432211399078 -2.403794527053833
5.846569538116455 0.5595049858093262 -2.4037864208221436
5.819511413574219 0.792736828327179 -2.4037771224975586
5.802495002746582 0.9089001417160034 -2.40377140045166
5.737529277801514 1.2550182342529297 -2.4037487506866455
5.495625019073486 -0.4654931426048279 -2.4036617279052734
5.503835201263428 -0.35555052757263184 -2.4036648273468018
5.513659477233887 -0.13528381288051605 -2.4036684036254883
5.506845474243164 0.30554503202438354 -2.4036664962768555
5.499631404876709 0.415557861328125 -2.4036641120910645
5.490217208862305 0.525402843952179 -2.403660774230957
5.448828220367432 0.8535028100013733 -2.40364670753479
5.387834548950195 1.1785259246826172 -2.40362548828125
5.363178730010986 1.285980224609375 -2.4036169052124023
5.16421365737915 -0.5415835380554199 -2.4035449028015137
5.18740701675415 -0.23110167682170868 -2.4035534858703613
5.192502498626709 -0.023582153022289276 -2.403555393218994
5.191936016082764 0.08021362125873566 -2.403555154800415
5.184575080871582 0.2876648008823395 -2.403553009033203
5.177785396575928 0.39123961329460144 -2.403550624847412
5.168923377990723 0.49465635418891907 -2.403547525405884
5.157995700836182 0.5978765487670898 -2.4035439491271973
5.129958152770996 0.8035540580749512 -2.403534173965454
5.112858772277832 0.9059332013130188 -2.4035282135009766
5.093713283538818 1.0079461336135864 -2.403521776199341
5.049328327178955 1.2107244729995728 -2.403506278991699
4.873029708862305 -0.5110458135604858 -2.4034423828125
4.889572620391846 -0.3158685266971588 -2.4034483432769775
4.894911766052246 -0.21807067096233368 -2.4034502506256104
4.896694183349609 0.17360229790210724 -2.403451442718506
4.89224100112915 0.271444708108902 -2.4034500122070312
4.867163181304932 0.5641656517982483 -2.4034414291381836
4.840707778930664 0.7582458257675171 -2.4034323692321777
4.824570178985596 0.8548510670661926 -2.4034266471862793
4.806506156921387 0.951115071773529 -2.4034204483032227
4.786520957946777 1.0469964742660522 -2.4034135341644287
4.607433795928955 -0.4831927418708801 -2.403348684310913
4.616176605224609 -0.3910015821456909 -2.4033520221710205
4.62307596206665 -0.2986523509025574 -2.4033544063568115
4.628124713897705 -0.20618590712547302 -2.4033563137054443
4.632165431976318 0.07156555354595184 -2.403357982635498
4.625600337982178 0.2566503882408142 -2.4033560752868652
4.611635684967041 0.4413250684738159 -2.403351306915283
4.601887226104736 0.533416748046875 -2.403347969055176
4.590295314788818 0.6252923607826233 -2.403343915939331
4.576874732971191 0.7169201374053955 -2.403339147567749
4.525646686553955 0.9899328351020813 -2.4033215045928955
4.372241020202637 -0.370339959859848 -2.403266191482544
4.378774166107178 -0.2828710973262787 -2.403268337249756
4.383556842803955 -0.19528929889202118 -2.4032702445983887
4.386586666107178 -0.10762878507375717 -2.403271198272705
4.387861251831055 -0.019927978515625 -2.4032719135284424
4.387380123138428 0.06778381019830704 -2.4032716751098633
4.385151386260986 0.15546691417694092 -2.403271198272705
4.381166934967041 0.2430877685546875 -2.4032697677612305
4.347726821899414 0.5922497510910034 -2.4032583236694336
4.266884803771973 1.0231115818023682 -2.4032304286956787
4.139736175537109 -0.4341442883014679 -2.403183937072754
4.153789043426514 -0.2683361768722534 -2.403189182281494
4.161198616027832 -0.10209960490465164 -2.4031920433044434
4.162406921386719 -0.018903808668255806 -2.4031922817230225
4.150615215301514 0.3136254847049713 -2.403188467025757
4.143508434295654 0.39652708172798157 -2.403186321258545
4.134753227233887 0.4792693853378296 -2.4031832218170166
4.124340534210205 0.5618200302124023 -2.40317964553833
4.098574161529541 0.7262139916419983 -2.4031708240509033
4.066254615783691 0.8894457817077637 -2.4031596183776855
