ply
format ascii 1.0
element vertex 377
property float x
property float y
property float z
end_header
-4.883998870849609 -16.55038833618164 3.042694091796875
-4.525493144989014 -16.550382614135742 3.025408983230591
-3.127153158187866 -16.550357818603516 2.9699113368988037
-2.7848730087280273 -16.550352096557617 2.959298610687256
-0.10545898228883743 -16.550304412841797 2.918325185775757
0.3051708936691284 -22.323144912719727 3.936539888381958
1.2010838985443115 -22.323123931884766 3.941864490509033
1.6503221988677979 -22.3231201171875 3.9469103813171387
2.5531444549560547 -22.32309913635254 3.961825370788574
3.0074901580810547 -22.323089599609375 3.971726655960083
-4.884003639221191 -16.55038833618164 2.643519878387451
-3.8198485374450684 -16.550371170043945 2.602076292037964
-3.472050666809082 -16.550365447998047 2.5906145572662354
-2.784868001937866 -16.550352096557617 2.5710625648498535
-2.444877862930298 -16.55034637451172 2.5629332065582275
-2.1068944931030273 -16.550338745117188 2.555882692337036
-1.43582022190094 -16.550329208374023 2.5449421405792236
-1.1021630764007568 -16.550323486328125 2.541032552719116
-0.7656689286231995 -16.47000503540039 2.5258402824401855
-0.10545898228883743 -16.55030632019043 2.535465717315674
0.3051708936691284 -22.323144912719727 3.420097589492798
0.7528271079063416 -22.32313346862793 3.421724796295166
2.100878953933716 -22.323110580444336 3.4348857402801514
3.007495164871216 -22.32309341430664 3.4506676197052
-4.883998870849609 -16.550390243530273 2.2470881938934326
-4.170888423919678 -16.550376892089844 2.2225897312164307
-2.784868001937866 -16.550352096557617 2.1854987144470215
-1.7706347703933716 -16.550334930419922 2.167497396469116
-1.1021679639816284 -16.550323486328125 2.1599698066711426
1.201088786125183 -22.32312774658203 2.911139965057373
2.100883722305298 -22.323110580444336 2.919781446456909
2.553159236907959 -22.323102951049805 2.9258880615234375
-4.884003639221191 -16.550390243530273 1.8529762029647827
-4.525488376617432 -16.550384521484375 1.8424491882324219
-3.8198485374450684 -16.550371170043945 1.8239277601242065
-3.4720458984375 -16.550365447998047 1.8158942461013794
-3.127153158187866 -16.55035972595215 1.8086521625518799
-2.784868001937866 -16.55035400390625 1.802188515663147
-2.444882869720459 -16.55034828186035 1.7964903116226196
-0.7656640410423279 -16.47000503540039 1.7704883813858032
0.3051806688308716 -22.323144912719727 2.3973233699798584
2.100888729095459 -22.323110580444336 2.407684087753296
3.0074756145477295 -22.323095321655273 2.4187464714050293
-4.503525257110596 -16.470073699951172 1.4454182386398315
-3.1119775772094727 -16.470046997070312 1.4189057350158691
-2.4330127239227295 -16.470035552978516 1.4093647003173828
-1.0968164205551147 -16.470012664794922 1.397320032119751
-0.7656591534614563 -16.47000503540039 1.3957358598709106
-0.10494628548622131 -16.46999168395996 1.3942570686340332
0.7528271079063416 -22.323139190673828 1.8907890319824219
2.100893497467041 -22.323110580444336 1.8980625867843628
3.007499933242798 -22.323095321655273 1.906784176826477
-4.503530025482178 -16.470069885253906 1.0588053464889526
-4.150649547576904 -16.47006607055664 1.0532468557357788
-3.4552001953125 -16.47005271911621 1.0435450077056885
-2.771352529525757 -16.470041275024414 1.0356706380844116
-2.096674680709839 -16.470029830932617 1.0295530557632446
-1.428857445716858 -16.47001838684082 1.025147795677185
-0.10494628548622131 -16.469995498657227 1.0213297605514526
1.2010936737060547 -22.323129653930664 1.3862636089324951
1.6503221988677979 -22.3231201171875 1.3880420923233032
2.100883722305298 -22.3231143951416 1.3903788328170776
2.553159236907959 -22.323102951049805 1.393287181854248
3.007495164871216 -22.323095321655273 1.3967701196670532
-4.503530025482178 -16.47007179260254 0.6732728481292725
-3.8013181686401367 -16.470060348510742 0.6665040254592896
-2.771357297897339 -16.470043182373047 0.6585609316825867
-2.4330077171325684 -16.470035552978516 0.6564759612083435
-0.7656640410423279 -16.47000503540039 0.6501304507255554
-0.435126930475235 -16.470001220703125 0.6496561765670776
-0.10494140535593033 -16.469995498657227 0.6494413614273071
1.6503221988677979 -22.3231201171875 0.8826261758804321
2.100883722305298 -22.32311248779297 0.884113609790802
-4.860297679901123 -16.47007942199707 0.29007187485694885
-4.150644302368164 -16.47006607055664 0.28690749406814575
-3.455195188522339 -16.470054626464844 0.28426650166511536
-2.4330174922943115 -16.470035552978516 0.28123122453689575
-2.096674680709839 -16.470029830932617 0.2804560661315918
-0.1049511730670929 -16.469995498657227 0.27821457386016846
0.7528319954872131 -22.323139190673828 0.37729352712631226
1.201088786125183 -22.323129653930664 0.37762558460235596
2.100893497467041 -22.3231143951416 0.3787449598312378
-5.057514667510986 -17.13837242126465 -0.10060592740774155
-4.686264514923096 -17.13836669921875 -0.10003417730331421
-3.595405101776123 -17.138349533081055 -0.09859313815832138
-2.531733274459839 -17.138330459594727 -0.097539521753788
-2.096674680709839 -16.470029830932617 -0.09347701817750931
-1.8608300685882568 -17.393352508544922 -0.09848739206790924
-1.2032763957977295 -18.068668365478516 -0.10195602476596832
-0.4773584008216858 -18.068655014038086 -0.1017666608095169
-0.10494628548622131 -16.469995498657227 -0.09273131936788559
0.7528271079063416 -22.323139190673828 -0.12575653195381165
2.100883722305298 -22.3231143951416 -0.1262371838092804
2.553149461746216 -22.323104858398438 -0.1265023797750473
-5.057514667510986 -17.13837432861328 -0.5031539797782898
-3.2382519245147705 -17.138341903686523 -0.49111679196357727
-2.53173828125 -17.138330459594727 -0.4878164529800415
-2.096674680709839 -16.47003173828125 -0.4675050377845764
-1.8608739376068115 -17.393762588500977 -0.4925648272037506
-1.2032763957977295 -18.068668365478516 -0.5099027752876282
0.7311962842941284 -21.681743621826172 -0.6108572483062744
2.478593587875366 -21.67121124267578 -0.6141929626464844
2.919057607650757 -21.666688919067383 -0.6155985593795776
-5.057509422302246 -17.13837432861328 -0.906212568283081
-3.95556640625 -17.138355255126953 -0.8920084834098816
-3.59539532661438 -17.138349533081055 -0.8880770802497864
-3.2382566928863525 -17.138343811035156 -0.8845340013504028
-1.8609179258346558 -17.394149780273438 -0.8871612548828125
-1.5675487518310547 -18.068675994873047 -0.91977858543396
-0.10494628548622131 -16.469995498657227 -0.8352792263031006
0.3051708936691284 -22.323148727416992 -1.1322075128555298
0.7066748142242432 -20.95465850830078 -1.063302755355835
1.9720946550369263 -20.954633712768555 -1.0673930644989014
2.4040820598602295 -21.019689559936523 -1.072945237159729
2.823124885559082 -20.954618453979492 -1.0722978115081787
-5.057509422302246 -17.13837432861328 -1.3101977109909058
-4.686264514923096 -17.138368606567383 -1.302754282951355
-4.319067478179932 -17.138362884521484 -1.2959105968475342
-3.955556631088257 -17.138357162475586 -1.2896559238433838
-3.595400333404541 -17.138349533081055 -1.2839775085449219
-3.2382566928863525 -17.138341903686523 -1.2788556814193726
-2.883803606033325 -17.138338088989258 -1.2742863893508911
-2.531733274459839 -17.138330459594727 -1.2702586650848389
-2.096674680709839 -16.47003173828125 -1.2173631191253662
-1.8609619140625 -17.39459228515625 -1.2826873064041138
-1.2032763957977295 -18.068668365478516 -1.327770709991455
-0.8399853110313416 -18.068662643432617 -1.3262656927108765
-0.47736814618110657 -18.068655014038086 -1.3252958059310913
-0.10494628548622131 -16.46999740600586 -1.2076399326324463
0.70667964220047 -20.95465850830078 -1.537314534187317
1.1274560689926147 -20.954647064208984 -1.538662075996399
1.5491503477096558 -20.954641342163086 -1.5406335592269897
1.9720897674560547 -20.954633712768555 -1.5432283878326416
2.4040281772613525 -21.01922607421875 -1.5512243509292603
-5.057509422302246 -17.138376235961914 -1.715514898300171
-4.319067478179932 -17.13836097717285 -1.6968108415603638
-3.955556631088257 -17.138357162475586 -1.6886217594146729
-2.883798837661743 -17.138338088989258 -1.6684948205947876
-2.096674680709839 -16.47003173828125 -1.593965768814087
-1.5675487518310547 -18.068675994873047 -1.741196870803833
-0.8399853110313416 -18.068662643432617 -1.7365537881851196
0.7080517411231995 -20.995468139648438 -2.016812801361084
1.6503221988677979 -22.323123931884766 -2.148977756500244
3.007495164871216 -22.323097229003906 -2.1624910831451416
-3.955561399459839 -17.138357162475586 -2.0893163681030273
-3.595400333404541 -17.138351440429688 -2.080110549926758
-2.53173828125 -17.138330459594727 -2.05788516998291
-2.096674680709839 -16.47003173828125 -1.972198486328125
-1.861049771308899 -17.395431518554688 -2.0781233310699463
-1.567543864250183 -18.068675994873047 -2.154367208480835
-1.2032811641693115 -18.068668365478516 -2.151057720184326
-0.47737303376197815 -18.06865692138672 -2.1470539569854736
0.25947752594947815 -18.97982406616211 -2.2547476291656494
1.7786865234375 -18.899492263793945 -2.2549164295196533
2.534677743911743 -18.81375503540039 -2.255000591278076
-4.498510837554932 -15.244037628173828 -2.2519989013671875
-3.8846678733825684 -15.414618492126465 -2.2523748874664307
-3.575248956680298 -15.490565299987793 -2.252546548843384
-3.2643260955810547 -15.560192108154297 -2.2527072429656982
-2.323867082595825 -15.731144905090332 -2.253122568130493
-2.008242130279541 -15.775360107421875 -2.2532386779785156
-1.3745946884155273 -15.84455680847168 -2.253437042236328
-1.0568163394927979 -15.869507789611816 -2.253519058227539
-0.7386034727096558 -15.887988090515137 -2.253589630126953
-0.4200732409954071 -15.9000244140625 -2.2536489963531494
-0.10135253518819809 -15.905574798583984 -2.2536966800689697
0.5361230373382568 -15.89731502532959 -2.2537577152252197
1.1727392673492432 -15.863161087036133 -2.253772497177124
1.4904052019119263 -15.836397171020508 -2.253762722015381
-3.643012523651123 -13.323033332824707 -2.2753958702087402
-3.357475519180298 -13.324423789978027 -2.263685941696167
-2.5347752571105957 -13.41519546508789 -2.2491116523742676
-1.72427237033844 -13.544447898864746 -2.2493083477020264
-1.4525146484375 -13.576817512512207 -2.2493982315063477
-0.08705078065395355 -13.655867576599121 -2.2497007846832275
0.46028319001197815 -13.648698806762695 -2.249752998352051
0.7337695360183716 -13.636794090270996 -2.2497644424438477
1.0068895816802979 -13.619362831115723 -2.2497658729553223
1.551796793937683 -13.567924499511719 -2.249739170074463
1.8233495950698853 -13.533928871154785 -2.249711036682129
-3.1221630573272705 -12.388960838317871 -2.4014475345611572
-2.120121955871582 -12.599780082702637 -2.4015583992004395
-1.8672118186950684 -12.639888763427734 -2.4015865325927734
-1.3592333793640137 -12.704852104187012 -2.4016427993774414
-1.1041942834854126 -12.729693412780762 -2.4016711711883545
-0.8490087985992432 -12.749415397644043 -2.4016995429992676
-0.5932666063308716 -12.764022827148438 -2.4017279148101807
0.43067869544029236 -12.771154403686523 -2.401841402053833
0.6866992115974426 -12.760111808776855 -2.401870012283325
0.9422411918640137 -12.743942260742188 -2.4018983840942383
1.706264615058899 -12.664746284484863 -2.4019830226898193
-3.2154736518859863 -10.896240234375 -2.4014387130737305
-2.9964892864227295 -10.958598136901855 -2.401463031768799
-2.77630352973938 -11.016557693481445 -2.401487350463867
-2.3326611518859863 -11.119186401367188 -2.401536464691162
-1.88525390625 -11.203964233398438 -2.4015860557556152
-1.208642601966858 -11.297348022460938 -2.401660919189453
-0.9820214509963989 -11.319428443908691 -2.401686191558838
-0.7549804449081421 -11.336949348449707 -2.4017114639282227
-0.527636706829071 -11.34992504119873 -2.4017364978790283
-0.3000878691673279 -11.358339309692383 -2.401761770248413
-0.07239746302366257 -11.362187385559082 -2.401787042617798
0.15531738102436066 -11.361469268798828 -2.4018123149871826
0.3829736113548279 -11.356207847595215 -2.4018378257751465
-2.8920555114746094 -9.800235748291016 -2.401475667953491
-2.6951024532318115 -9.856315612792969 -2.4014976024627686
-2.4969921112060547 -9.90842342376709 -2.401519536972046
-1.087070345878601 -10.160911560058594 -2.4016757011413574
-0.6790429353713989 -10.196502685546875 -2.4017210006713867
-0.47456052899360657 -10.208157539367676 -2.4017436504364014
0.5490673780441284 -10.20490837097168 -2.4018571376800537
1.1613085269927979 -10.153763771057129 -2.4019253253936768
-2.625170946121216 -8.895910263061523 -2.4015064239501953
-2.4463963508605957 -8.946805953979492 -2.4015262126922607
-2.0859375 -9.037802696228027 -2.4015660285949707
-1.7221288681030273 -9.114283561706543 -2.401606321334839
-1.355556607246399 -9.176127433776855 -2.4016470909118652
-0.986743152141571 -9.223235130310059 -2.4016878604888916
-0.8017187118530273 -9.24123764038086 -2.4017083644866943
-0.05909667909145355 -9.276074409484863 -2.4017906188964844
0.1268017590045929 -9.275479316711426 -2.401811361312866
0.49839353561401367 -9.263103485107422 -2.401852607727051
0.6839452981948853 -9.251336097717285 -2.4018733501434326
1.054116129875183 -9.216655731201172 -2.401914358139038
1.2386279106140137 -9.193756103515625 -2.401934862136841
-2.237495183944702 -8.182865142822266 -2.40155029296875
-2.0730810165405273 -8.226123809814453 -2.4015684127807617
-1.741796851158142 -8.302716255187988 -2.4016051292419434
-1.5750732421875 -8.336020469665527 -2.401623487472534
-1.40771484375 -8.365968704223633 -2.401642084121704
-1.239785075187683 -8.392569541931152 -2.401660680770874
-1.071352481842041 -8.415793418884277 -2.401679277420044
-0.90248042345047 -8.435640335083008 -2.401698112487793
-0.7332617044448853 -8.452096939086914 -2.401716947555542
-0.5637401938438416 -8.465161323547363 -2.401735544204712
-0.3939794898033142 -8.474822998046875 -2.40175461769104
-0.2240625023841858 -8.481087684631348 -2.40177321434021
0.4558398425579071 -8.472058296203613 -2.401848793029785
0.6255419850349426 -8.46129035949707 -2.401867628097534
0.7949804663658142 -8.447124481201172 -2.401886463165283
-2.209902286529541 -7.488677024841309 -2.4015541076660156
-2.059404134750366 -7.531513690948486 -2.4015707969665527
-1.9080663919448853 -7.571322917938232 -2.40158748626709
-1.4496923685073853 -7.67245626449585 -2.4016380310058594
-1.2956591844558716 -7.700023651123047 -2.4016551971435547
-0.8306493759155273 -7.764132976531982 -2.4017066955566406
-0.6748974323272705 -7.779271125793457 -2.401724100112915
-0.5188623070716858 -7.791290283203125 -2.4017412662506104
-0.049760740250349045 -7.808559417724609 -2.4017934799194336
0.2631933391094208 -7.804393291473389 -2.4018280506134033
0.4195507764816284 -7.797610282897949 -2.4018454551696777
0.7316845655441284 -7.774646282196045 -2.4018800258636475
-1.6248143911361694 -7.039896488189697 -2.4016194343566895
-1.0558642148971558 -7.147593975067139 -2.4016823768615723
-0.3355419933795929 -7.217602252960205 -2.4017622470855713
-0.1908300668001175 -7.222927570343018 -2.40177845954895
-0.04604491963982582 -7.225350379943848 -2.40179443359375
0.5327295064926147 -7.206024169921875 -2.4018585681915283
0.9647900462150574 -7.161137580871582 -2.401906728744507
-1.9007714986801147 -6.441118240356445 -2.4015893936157227
-1.6411473751068115 -6.512186050415039 -2.401618242263794
-1.5103222131729126 -6.5438103675842285 -2.40163254737854
-1.2468993663787842 -6.599156379699707 -2.4016618728637695
-1.1144092082977295 -6.622858047485352 -2.4016764163970947
-0.9814648032188416 -6.643903732299805 -2.401691198348999
-0.8481200933456421 -6.6622796058654785 -2.4017059803009033
-0.44627439975738525 -6.701326847076416 -2.4017505645751953
-0.3118945360183716 -6.708963871002197 -2.4017655849456787
-0.17738281190395355 -6.7139105796813965 -2.401780366897583
-0.04279785230755806 -6.716157913208008 -2.4017953872680664
0.22637206315994263 -6.712562084197998 -2.401825189590454
0.495185524225235 -6.69818115234375 -2.401854991912842
0.6293310523033142 -6.686954975128174 -2.401870012283325
0.7632128596305847 -6.673041820526123 -2.4018847942352295
-1.6529443264007568 -6.045055866241455 -2.4016172885894775
-1.5314794778823853 -6.077004909515381 -2.4016308784484863
-1.0399316549301147 -6.1802659034729 -2.4016852378845215
-0.666699230670929 -6.231696605682373 -2.401726722717285
-0.5416796803474426 -6.243842601776123 -2.401740550994873
-0.416450172662735 -6.253479957580566 -2.401754379272461
-0.2910449206829071 -6.260603904724121 -2.401768207550049
-0.039936523884534836 -6.267311096191406 -2.4017961025238037
0.0856640636920929 -6.266890525817871 -2.4018101692199707
0.712207019329071 -6.227060317993164 -2.4018797874450684
0.8368554711341858 -6.211574554443359 -2.4018936157226562
-1.660830020904541 -5.6280388832092285 -2.4016168117523193
-1.5477148294448853 -5.66022253036499 -2.4016294479370117
-1.4339795112609863 -5.690130710601807 -2.401642084121704
-1.319667935371399 -5.7177581787109375 -2.4016547203063965
-1.2048242092132568 -5.7430853843688965 -2.401667356491089
-0.9737304449081421 -5.786812782287598 -2.401693105697632
-0.38994139432907104 -5.855353355407715 -2.4017577171325684
-0.2725195288658142 -5.86202335357666 -2.401770830154419
-0.03740234300494194 -5.868297100067139 -2.401796817779541
0.08021484315395355 -5.8679022789001465 -2.4018099308013916
0.31529295444488525 -5.860038757324219 -2.4018359184265137
0.6668652296066284 -5.830597877502441 -2.4018750190734863
-1.5596630573272705 -5.285311222076416 -2.4016284942626953
-1.2393114566802979 -5.369556903839111 -2.4016640186309814
-1.0231982469558716 -5.414960861206055 -2.4016878604888916
-0.9143896102905273 -5.434406757354736 -2.401700019836426
-0.03514648228883743 -5.51091194152832 -2.4017975330352783
0.0752880871295929 -5.510537624359131 -2.4018096923828125
0.4063134789466858 -5.496140480041504 -2.401846408843994
0.5163720846176147 -5.486921310424805 -2.4018588066101074
0.7358251810073853 -5.46187686920166 -2.401883125305176
-1.3684813976287842 -5.0047173500061035 -2.4016499519348145
-1.1668310165405273 -5.055582046508789 -2.40167236328125
-1.0652978420257568 -5.077971458435059 -2.4016835689544678
-0.9633203148841858 -5.098324775695801 -2.4016947746276855
-0.6552441120147705 -5.147071838378906 -2.401729106903076
-0.5519580245018005 -5.15919303894043 -2.401740550994873
-0.4484570324420929 -5.169243812561035 -2.40175199508667
-0.24095702171325684 -5.183112144470215 -2.4017748832702637
-0.13703612983226776 -5.186925411224365 -2.4017863273620605
0.07092773169279099 -5.188300132751465 -2.4018096923828125
0.1748925745487213 -5.185861110687256 -2.4018211364746094
0.2787792980670929 -5.181338787078857 -2.4018325805664062
0.48618650436401367 -5.1660566329956055 -2.401855707168579
-1.2913818359375 -4.722743034362793 -2.401658773422241
-1.196474552154541 -4.747696876525879 -2.401669502258301
-1.0052685737609863 -4.791869163513184 -2.401690721511841
-0.9090429544448853 -4.811074256896973 -2.4017012119293213
-0.8124462962150574 -4.828346252441406 -2.401711940765381
-0.7155224680900574 -4.843679904937744 -2.4017226696014404
-0.5205321907997131 -4.868497371673584 -2.4017443656921387
-0.4231933355331421 -4.877989292144775 -2.4017550945281982
-0.22737792134284973 -4.891072750091553 -2.4017767906188965
-0.12931151688098907 -4.8946709632873535 -2.401787757873535
0.06692870706319809 -4.8959641456604 -2.4018094539642334
0.16503417491912842 -4.893661022186279 -2.401820421218872
0.26308104395866394 -4.889394760131836 -2.4018311500549316
0.36101073026657104 -4.883162021636963 -2.4018421173095703
0.4587939381599426 -4.874969482421875 -2.401853084564209
0.6537841558456421 -4.852713584899902 -2.401874542236328
-1.2210400104522705 -4.465528964996338 -2.4016668796539307
-1.0411328077316284 -4.510908603668213 -2.401686906814575
-0.7681982517242432 -4.565373420715332 -2.401717185974121
-0.676562488079071 -4.579873085021973 -2.4017271995544434
-0.4924902319908142 -4.603343486785889 -2.401747703552246
-0.4001415967941284 -4.61230993270874 -2.4017579555511475
-0.30763182044029236 -4.619421482086182 -2.401768207550049
-0.12227538973093033 -4.628077507019043 -2.4017887115478516
-0.02950195223093033 -4.629617691040039 -2.401798963546753
0.06329101324081421 -4.629300594329834 -2.4018092155456543
0.1560351550579071 -4.627121925354004 -2.4018194675445557
0.2487451136112213 -4.623085975646973 -2.401829957962036
0.3413427770137787 -4.617192268371582 -2.4018402099609375
0.4338037073612213 -4.609443187713623 -2.401850461959839
0.5260937213897705 -4.599843502044678 -2.4018607139587402
0.6181738376617432 -4.588396072387695 -2.4018709659576416
-1.2410888671875 -4.2056732177734375 -2.401664972305298
-1.1565673351287842 -4.229718208312988 -2.401674270629883
-0.9003271460533142 -4.291620254516602 -2.401702642440796
-0.814135730266571 -4.308818340301514 -2.40171217918396
-0.7276318073272705 -4.324286460876465 -2.401721954345703
-0.6408300399780273 -4.338016510009766 -2.401731491088867
-0.2036425769329071 -4.380452632904053 -2.401780128479004
-0.027944335713982582 -4.385130405426025 -2.401799440383911
0.14780272543430328 -4.3827619552612305 -2.4018189907073975
0.32331541180610657 -4.373354911804199 -2.401838541030884
0.4108935594558716 -4.36601448059082 -2.401848316192627
0.49830564856529236 -4.356921672821045 -2.401857852935791
0.585522472858429 -4.346076488494873 -2.401867628097534
-1.0971777439117432 -4.012535095214844 -2.4016811847686768
-0.9355077743530273 -4.053308486938477 -2.4016990661621094
-0.7723388671875 -4.087570667266846 -2.401717185974121
-0.6902685165405273 -4.102243900299072 -2.401726245880127
-0.6079248189926147 -4.115269184112549 -2.401735305786133
-0.5253320336341858 -4.126640319824219 -2.4017443656921387
-0.4425292909145355 -4.136355876922607 -2.4017536640167236
-0.3595507740974426 -4.144410133361816 -2.4017629623413086
-0.2764208912849426 -4.150796890258789 -2.4017720222473145
-0.19318358600139618 -4.155519485473633 -2.4017813205718994
0.3067089915275574 -4.148781776428223 -2.40183687210083
0.4727148413658142 -4.133190631866455 -2.401855230331421
0.5554589629173279 -4.122903347015381 -2.401864528656006
