ply
format ascii 1.0
element vertex 249
property float x
property float y
property float z
end_header
5.272953987121582 6.273662090301514 1.4450509548187256
5.062568187713623 6.273659706115723 1.421466588973999
4.858852386474609 6.273655891418457 1.3991879224777222
4.101977348327637 6.273647308349609 1.3216866254806519
3.9253318309783936 6.273643493652344 1.304901361465454
3.5848388671875 6.273640155792236 1.274072527885437
3.2595458030700684 6.273636341094971 1.2466100454330444
2.947499990463257 6.273632526397705 1.222217321395874
5.272953987121582 6.273660659790039 1.255473017692566
4.661357402801514 6.273653507232666 1.1973391771316528
4.469638347625732 6.273651123046875 1.1800585985183716
4.283300876617432 6.273648738861084 1.1637262105941772
4.101977348327637 6.273645877838135 1.1482919454574585
3.9253318309783936 6.273643493652344 1.1337088346481323
3.753046751022339 6.273642539978027 1.1199331283569336
3.584833860397339 6.273638725280762 1.1069244146347046
3.2595458030700684 6.273636341094971 1.0830655097961426
3.101982355117798 6.27363395690918 1.0721505880355835
5.062563419342041 6.273658275604248 1.0497798919677734
4.858857154846191 6.273655891418457 1.0333251953125
4.469638347625732 6.273651123046875 1.003092646598816
3.420414924621582 6.273637771606445 0.9304894804954529
3.101982355117798 6.27363395690918 0.9113662242889404
2.9474949836730957 6.273632526397705 0.9026299715042114
4.661357402801514 6.273653507232666 0.8392748832702637
4.469638347625732 6.273651123046875 0.8271618485450745
4.283300876617432 6.273648738861084 0.8157141208648682
4.101977348327637 6.273645877838135 0.8048956394195557
3.2595458030700684 6.273636341094971 0.7591744661331177
3.101977586746216 6.27363395690918 0.7515249252319336
4.469643592834473 6.273652076721191 0.652081310749054
3.753046751022339 6.273641109466553 0.6188564896583557
3.2595458030700684 6.273636341094971 0.598484456539154
3.101982355117798 6.273632526397705 0.5924527049064636
4.858857154846191 6.273654460906982 0.49206387996673584
4.661357402801514 6.273652076721191 0.48466184735298157
4.101977348327637 6.273645877838135 0.4648077189922333
3.9253318309783936 6.273642539978027 0.4589044153690338
3.584833860397339 6.273638725280762 0.44806334376335144
3.420414924621582 6.273636341094971 0.4430926442146301
2.9474949836730957 6.273631572723389 0.4298272728919983
5.062563419342041 6.273659706115723 0.31787413358688354
4.858852386474609 6.273654460906982 0.3128921389579773
4.283300876617432 6.273647308349609 0.29953399300575256
3.9253368377685547 6.273642539978027 0.2918078601360321
3.753046751022339 6.273641109466553 0.2882611155509949
3.2595458030700684 6.273634910583496 0.2787722647190094
2.947499990463257 6.273631572723389 0.2733178734779358
5.578945159912109 6.637719631195068 0.14646713435649872
4.487192153930664 6.862795352935791 0.13850630819797516
4.487187385559082 7.171623229980469 0.14289946854114532
4.355556488037109 7.280803203582764 0.14331282675266266
4.182358264923096 7.319334506988525 0.14239807426929474
5.601850509643555 6.941954135894775 -0.050222013145685196
4.661357402801514 6.273652076721191 -0.044005583971738815
4.487167835235596 6.298259258270264 -0.04353896901011467
4.487172603607178 6.57224702835083 -0.04480331391096115
4.487167835235596 6.862757205963135 -0.046163786202669144
4.487153053283691 7.50078821182251 -0.04920974746346474
4.487153053283691 7.852744102478027 -0.05091964453458786
4.090151309967041 7.872297286987305 -0.049947354942560196
3.6985838413238525 7.872292518615723 -0.04897003248333931
5.834653377532959 6.941957950592041 -0.25534409284591675
4.858857154846191 6.273653507232666 -0.22343748807907104
4.661357402801514 6.273652076721191 -0.2200770527124405
4.487148284912109 6.298224925994873 -0.21774917840957642
4.487148284912109 6.572211742401123 -0.22407867014408112
4.487138748168945 6.862717151641846 -0.23087890446186066
4.487128734588623 7.500738143920898 -0.24611006677150726
4.487123966217041 7.852686405181885 -0.25466734170913696
4.292016506195068 7.872299671173096 -0.252470999956131
4.090151309967041 7.872297286987305 -0.24980132281780243
3.8924365043640137 7.872293472290039 -0.247283935546875
5.601845741271973 6.94195556640625 -0.4523847997188568
4.661357402801514 6.273652076721191 -0.396371454000473
4.487123966217041 6.572179794311523 -0.4035777151584625
4.487113952636719 6.862680435180664 -0.41582807898521423
4.487109184265137 7.171502590179443 -0.4290218949317932
4.487099647521973 7.852646350860596 -0.45867156982421875
4.292016506195068 7.872299671173096 -0.4547184705734253
4.090151309967041 7.872297286987305 -0.4499078392982483
3.8924365043640137 7.872293472290039 -0.4453738331794739
3.6985838413238525 7.872292518615723 -0.4411044120788574
4.661357402801514 6.273651123046875 -0.5730714201927185
4.487099647521973 6.298159122467041 -0.567007303237915
4.487099647521973 6.5721435546875 -0.5834869146347046
4.48708963394165 6.862642765045166 -0.6011967062950134
4.487084865570068 7.17146110534668 -0.6202703714370728
4.487070083618164 7.852592468261719 -0.663138747215271
4.292016506195068 7.872298240661621 -0.657429039478302
4.090151309967041 7.872297286987305 -0.6504729986190796
3.8924365043640137 7.872293472290039 -0.643917977809906
3.6985888481140137 7.872291088104248 -0.6377453207969666
5.834653377532959 6.941956520080566 -0.870600700378418
5.601850509643555 6.941954135894775 -0.8563900589942932
4.487075328826904 6.29812479019165 -0.742411196231842
4.487075328826904 6.572107791900635 -0.7639869451522827
4.487060546875 7.171417236328125 -0.8121537566184998
3.8924314975738525 7.872293472290039 -0.8431176543235779
5.601850509643555 6.941954135894775 -1.059605360031128
4.858857154846191 6.273654460906982 -0.9425877332687378
4.487050533294678 6.572073936462402 -0.9452685117721558
4.487040996551514 6.862566947937012 -0.9739603996276855
4.487030982971191 7.171375751495361 -1.0048621892929077
4.487021446228027 7.500565052032471 -1.038216233253479
4.487016677856445 7.852494716644287 -1.0743072032928467
3.8924314975738525 7.872293472290039 -1.0431818962097168
3.6985888481140137 7.872291088104248 -1.0331820249557495
5.834643363952637 6.941957950592041 -1.284877896308899
4.661357402801514 6.273651123046875 -1.1074175834655762
4.487016677856445 6.862527847290039 -1.1617445945739746
4.486987113952637 7.852454662322998 -1.2814401388168335
4.292016506195068 7.872298240661621 -1.2704277038574219
3.6985888481140137 7.872291088104248 -1.2323919534683228
4.858852386474609 6.273653507232666 -1.307233452796936
4.487006664276123 6.298027038574219 -1.2739179134368896
4.487001895904541 6.571998119354248 -1.3109381198883057
4.486991882324219 6.862485408782959 -1.350728988647461
4.486962795257568 7.852406024932861 -1.489892840385437
4.292016506195068 7.872298240661621 -1.4770997762680054
4.090146541595459 7.87229585647583 -1.4614723920822144
3.8924365043640137 7.872292518615723 -1.4467443227767944
3.6985888481140137 7.872291088104248 -1.432875633239746
5.834648132324219 6.94195556640625 -1.7044832706451416
4.661357402801514 6.273651123046875 -1.4690663814544678
4.486977577209473 6.571962833404541 -1.4957201480865479
4.48696756362915 6.862451076507568 -1.5411187410354614
4.486933708190918 7.852353572845459 -1.6998969316482544
4.292016506195068 7.872298240661621 -1.6853127479553223
4.090146541595459 7.87229585647583 -1.6674823760986328
3.8924314975738525 7.872292518615723 -1.650676965713501
5.834648132324219 6.94195556640625 -1.9168545007705688
5.601850509643555 6.941953182220459 -1.885568618774414
4.661357402801514 6.273651123046875 -1.6521039009094238
4.4869384765625 6.86241340637207 -1.7331242561340332
4.486914157867432 7.500381946563721 -1.8474665880203247
4.292016506195068 7.872297286987305 -1.8952945470809937
5.834648132324219 6.94195556640625 -2.1312577724456787
5.601845741271973 6.941953182220459 -2.0964715480804443
4.858857154846191 6.273652076721191 -1.8649533987045288
4.486928462982178 6.571891784667969 -1.8702019453048706
4.486914157867432 6.862371444702148 -1.9269673824310303
4.486875057220459 7.852256774902344 -2.125497579574585
4.292016506195068 7.872297286987305 -2.1072869300842285
3.8924314975738525 7.872292518615723 -2.063979387283325
5.596035003662109 6.658153057098389 -2.251953125
5.457993030548096 6.763417720794678 -2.2502174377441406
4.858857154846191 6.273652076721191 -2.0545616149902344
4.486904144287109 6.571850299835205 -2.060333490371704
4.486889362335205 6.862331390380859 -2.1228690147399902
4.311489105224609 7.545303821563721 -2.250060796737671
4.159848690032959 7.629861831665039 -2.250040292739868
3.8516454696655273 7.789805889129639 -2.2499983310699463
5.117939472198486 6.0892333984375 -2.2518274784088135
4.995312213897705 6.190316200256348 -2.2518460750579834
4.486884593963623 6.297853946685791 -2.1890809535980225
4.485317230224609 6.569543361663818 -2.2519149780273438
4.353129863739014 6.657880783081055 -2.2519307136535645
4.080268383026123 6.820705413818359 -2.250028371810913
3.9432079792022705 6.90080451965332 -2.250009775161743
3.804579973220825 6.978147029876709 -2.2499911785125732
3.664321184158325 7.052706241607666 -2.249972105026245
3.522646427154541 7.124438285827637 -2.249953031539917
3.379580020904541 7.193331241607666 -2.2499334812164307
4.717333793640137 5.61259126663208 -2.255084753036499
4.604579925537109 5.706099510192871 -2.255236864089966
4.366225719451904 5.876439094543457 -2.25177001953125
4.128046989440918 6.046254634857178 -2.251800775527954
3.8832616806030273 6.206409931182861 -2.2518293857574463
3.50457501411438 6.427992820739746 -2.2518680095672607
3.245063304901123 6.562932968139648 -2.2518913745880127
3.1118457317352295 6.6251220703125 -2.251448392868042
4.259145259857178 5.278030872344971 -2.254431962966919
3.936030149459839 5.524656772613525 -2.2548303604125977
3.242666006088257 5.947619438171387 -2.2517645359039307
3.002509593963623 6.072466850280762 -2.2517857551574707
2.880615234375 6.13126802444458 -2.251795768737793
3.859208822250366 4.982913494110107 -2.253856658935547
3.75909161567688 5.059293270111084 -2.2539801597595215
3.236577033996582 5.410306453704834 -2.2545390129089355
3.127983331680298 5.474129676818848 -2.254638910293579
2.7947998046875 5.652364253997803 -2.2549142837524414
2.6814208030700684 5.707280158996582 -2.254997730255127
3.782709836959839 4.500590801239014 -2.2529890537261963
3.692275285720825 4.57551383972168 -2.2531111240386963
3.6003074645996094 4.648608684539795 -2.2532296180725098
3.412050724029541 4.789198875427246 -2.2534561157226562
3.218315362930298 4.922144889831543 -2.2536683082580566
3.1194775104522705 4.985679626464844 -2.2537689208984375
3.0193748474121094 5.047224044799805 -2.253865957260132
2.9180564880371094 5.106746673583984 -2.2539589405059814
2.6072070598602295 5.272975921630859 -2.254215717315674
3.541025400161743 4.213043212890625 -2.2524473667144775
3.370234251022339 4.351570129394531 -2.2526721954345703
3.282788038253784 4.418245315551758 -2.252779960632324
3.1939990520477295 4.483151912689209 -2.2528843879699707
3.012690305709839 4.607576847076416 -2.253082752227783
2.826406240463257 4.72463321685791 -2.253267765045166
2.7315428256988525 4.780340671539307 -2.253354787826538
2.6355810165405273 4.834136962890625 -2.253438711166382
2.440546751022339 4.935908317565918 -2.2535951137542725
3.082158088684082 4.148235321044922 -2.252274513244629
2.9988036155700684 4.209167003631592 -2.2523725032806396
2.914247989654541 4.268415451049805 -2.252467155456543
2.5645947456359863 4.488133907318115 -2.2528140544891357
2.4745166301727295 4.538634777069092 -2.2528927326202393
2.383471727371216 4.587319850921631 -2.2529678344726562
2.2914111614227295 4.634164333343506 -2.253039598464966
3.129628896713257 3.723574638366699 -2.2515249252319336
3.054760694503784 3.7855279445648193 -2.2516255378723145
2.978652238845825 3.8459653854370117 -2.251723527908325
2.9013426303863525 3.9048705101013184 -2.251818895339966
2.7432518005371094 4.017976760864258 -2.252000093460083
2.580751895904541 4.124667167663574 -2.252169609069824
2.329277276992798 4.272291660308838 -2.2524006366729736
2.1568846702575684 4.362200736999512 -2.2525389194488525
2.952768564224243 3.5131518840789795 -2.2511284351348877
2.8821191787719727 3.5715930461883545 -2.25122332572937
2.810302734375 3.6286070346832275 -2.2513158321380615
2.663320302963257 3.738269567489624 -2.251492500305176
2.588202953338623 3.790875196456909 -2.2515766620635986
2.512040853500366 3.841961622238159 -2.2516579627990723
2.434868097305298 3.891517162322998 -2.2517364025115967
2.3567187786102295 3.9395177364349365 -2.251811981201172
2.2776219844818115 3.9859416484832764 -2.251884698867798
2.1975975036621094 4.0307722091674805 -2.2519545555114746
2.116694211959839 4.073990821838379 -2.252021074295044
2.0349462032318115 4.115584850311279 -2.252084970474243
1.9523632526397705 4.155528545379639 -2.252145528793335
2.587836742401123 3.4829277992248535 -2.2510287761688232
2.517827033996582 3.534061908721924 -2.2511110305786133
2.3018455505371094 3.678914785385132 -2.2513415813446045
2.001039981842041 3.8513951301574707 -2.25161075592041
1.9237548112869263 3.8907084465026855 -2.2516708374023438
2.450795888900757 3.2984886169433594 -2.250683307647705
2.3844969272613525 3.3469078540802 -2.2507612705230713
2.1099607944488525 3.5270323753356934 -2.251047372817993
2.039130926132202 3.568584442138672 -2.251112222671509
1.9674804210662842 3.608710289001465 -2.2511746883392334
1.89504873752594 3.647394895553589 -2.251234292984009
2.3865818977355957 3.081500768661499 -2.25028920173645
2.3246190547943115 3.128671169281006 -2.2503654956817627
2.261728525161743 3.1745903491973877 -2.250439167022705
2.197929620742798 3.219243049621582 -2.2505106925964355
2.133242130279541 3.262610912322998 -2.250579833984375
2.0013084411621094 3.34541916847229 -2.2507104873657227
1.9341307878494263 3.3848278522491455 -2.25077223777771
1.7974706888198853 3.45957088470459 -2.2508881092071533
1.657900333404541 3.528778553009033 -2.250993490219116
