ply
format ascii 1.0
element vertex 843
property float x
property float y
property float z
end_header
9.457904815673828 31.403488159179688 -2.4047322273254395
8.827428817749023 31.583683013916016 -2.404534339904785
8.19350528717041 31.751211166381836 -2.4043357372283936
7.556435585021973 31.90604591369629 -2.4041359424591064
6.916432857513428 32.04808807373047 -2.403935194015503
5.628698825836182 32.29362106323242 -2.403531074523926
3.6816821098327637 32.564598083496094 -2.4029202461242676
1.722438931465149 32.7183837890625 -2.4023056030273438
1.067849040031433 32.74353790283203 -2.402100086212158
0.3867529332637787 30.67702293395996 -2.2494843006134033
-0.2266552746295929 30.676021575927734 -2.2492916584014893
-0.8398681282997131 30.662723541259766 -2.249099016189575
-1.7234851121902466 19.676544189453125 -1.4482505321502686
-3.2833092212677 30.46391487121582 -2.2466142177581787
-4.303775310516357 28.99574089050293 -2.149322271347046
-4.876497745513916 28.86756706237793 -2.146620988845825
-5.492319107055664 28.973289489746094 -2.162217855453491
-6.111343860626221 29.051849365234375 -2.176767587661743
-5.04728364944458 21.818525314331055 -1.6420284509658813
-5.074995040893555 20.099308013916016 -1.5200176239013672
-1.912392497062683 6.471889972686768 -0.49481505155563354
-2.015754461288452 6.351533889770508 -0.4885970950126648
-2.1648755073547363 6.376344680786133 -0.49373626708984375
-10.205828666687012 28.195098876953125 -2.1985890865325928
-6.738454341888428 17.513681411743164 -1.3759100437164307
-11.323052406311035 27.76008415222168 -2.198237895965576
-9.628880500793457 21.14695930480957 -1.7037092447280884
-9.637579917907715 16.552785873413086 -1.4044156074523926
-15.655428886413574 25.693092346191406 -2.206045150756836
-9.638775825500488 15.12947940826416 -1.3153234720230103
-9.623291969299316 14.458884239196777 -1.2734529972076416
-17.83551025390625 24.60489273071289 -2.22820782661438
-19.262821197509766 23.472415924072266 -2.2264015674591064
-20.175369262695312 22.67177391052246 -2.2252469062805176
-20.619426727294922 22.258249282836914 -2.224684715270996
-21.48223876953125 21.405620574951172 -2.223592758178711
-21.900705337524414 20.966821670532227 -2.2230629920959473
-22.31031608581543 20.519996643066406 -2.2225444316864014
-22.710914611816406 20.065237045288086 -2.2220373153686523
-23.102436065673828 19.60277557373047 -2.2215416431427
-23.85734748840332 18.655431747436523 -2.220585823059082
-24.574106216430664 17.679540634155273 -2.2196784019470215
13.151162147521973 21.33184242248535 -2.4058806896209717
12.721308708190918 21.58934211730957 -2.4057459831237793
10.49996566772461 22.744625091552734 -2.405050039291382
10.042533874511719 22.948673248291016 -2.404906749725342
9.581120491027832 23.14345932006836 -2.404762029647827
9.115954399108887 23.329004287719727 -2.404616117477417
8.647177696228027 23.505163192749023 -2.4044692516326904
8.17498779296875 23.671884536743164 -2.4043211936950684
7.699599266052246 23.829113006591797 -2.40417218208313
6.739948749542236 24.11488151550293 -2.4038712978363037
5.769738674163818 24.361976623535156 -2.40356707572937
5.281161785125732 24.470882415771484 -2.403413772583008
4.790551662445068 24.570024490356445 -2.403259754180908
4.298073768615723 24.659297943115234 -2.4031054973602295
3.308354377746582 24.80820655822754 -2.40279483795166
2.8115038871765137 24.86778450012207 -2.402639150619507
1.3154150247573853 24.986732482910156 -2.402169704437256
-0.17310301959514618 23.428388595581055 -2.249300718307495
-0.6414452791213989 23.418704986572266 -2.2491536140441895
-1.1094579696655273 23.399660110473633 -2.249006748199463
-1.5769140720367432 23.37023162841797 -2.2487614154815674
-1.714324951171875 19.571990966796875 -1.886199951171875
-2.972747802734375 23.21546745300293 -2.2469964027404785
-3.4354186058044434 23.145370483398438 -2.2464113235473633
-4.813036918640137 22.88002586364746 -2.244669198989868
-5.047281265258789 21.818523406982422 -2.15000319480896
-5.075142860412598 20.099891662597656 -1.9902267456054688
-2.1648521423339844 6.376275062561035 -0.646473228931427
-5.297093391418457 13.76748275756836 -1.4162036180496216
-6.263652324676514 13.756239891052246 -1.4511162042617798
-6.596956729888916 13.752363204956055 -1.4643303155899048
-9.341419219970703 18.514944076538086 -1.9909539222717285
-9.628643989562988 18.171415328979492 -1.9743200540542603
-8.360030174255371 13.720149040222168 -1.5424624681472778
-9.125689506530762 13.71124267578125 -1.5812472105026245
-13.653857231140137 18.83612060546875 -2.2334861755371094
-14.024758338928223 18.555458068847656 -2.2330169677734375
-14.749333381652832 17.972572326660156 -2.232100009918213
-16.125486373901367 16.723670959472656 -2.230358362197876
-16.774993896484375 16.05967903137207 -2.229536294937134
-17.089675903320312 15.718283653259277 -2.229137897491455
-17.397491455078125 15.37077808380127 -2.228748321533203
-18.27850341796875 14.293004989624023 -2.227632761001587
-18.55766487121582 13.922499656677246 -2.2272794246673584
-18.829425811767578 13.54659366607666 -2.226936101913452
9.92703628540039 17.644500732421875 -2.40486478805542
9.5718355178833 17.838623046875 -2.4047534465789795
9.212831497192383 18.02560043334961 -2.4046411514282227
8.850172996520996 18.20531463623047 -2.404527425765991
8.484018325805664 18.37771224975586 -2.4044127464294434
8.114494323730469 18.54281234741211 -2.404296875
7.365969181060791 18.850555419921875 -2.404062032699585
6.987270355224609 18.99312400817871 -2.4039435386657715
6.6058030128479 19.128070831298828 -2.4038238525390625
5.835231781005859 19.374940872192383 -2.4035823345184326
5.446408748626709 19.486736297607422 -2.4034602642059326
4.662519454956055 19.68687629699707 -2.403214454650879
4.267758846282959 19.775146484375 -2.403090715408325
3.871332883834839 19.855487823486328 -2.4029664993286133
3.473395824432373 19.92787742614746 -2.402841567993164
3.0741209983825684 19.992294311523438 -2.4027163982391357
1.8697826862335205 20.13747215270996 -2.4023382663726807
0.6172826886177063 18.92772102355957 -2.2495439052581787
-0.13990233838558197 18.935272216796875 -2.2493062019348145
-2.403388500213623 18.769102096557617 -2.2477097511291504
-2.77758526802063 18.713361740112305 -2.247236490249634
-3.15051007270813 18.65016746520996 -2.24676513671875
-3.891988515853882 18.50157356262207 -2.2458274364471436
-4.260234355926514 18.41624641418457 -2.245361804962158
-4.991034030914307 18.223705291748047 -2.2444374561309814
-2.1648266315460205 6.3762030601501465 -0.799863874912262
-5.297095775604248 13.76748275756836 -1.7522542476654053
-6.263649940490723 13.756239891052246 -1.7954635620117188
-6.596965312957764 13.752363204956055 -1.811816692352295
-7.552022457122803 14.968310356140137 -1.9915118217468262
-8.14365005493164 14.65307331085205 -1.9913257360458374
-7.997600078582764 13.736068725585938 -1.8880729675292969
-8.367109298706055 13.731772422790527 -1.9100924730300903
-8.745513916015625 13.727370262145996 -1.9334079027175903
-9.133424758911133 13.722858428955078 -1.9581184387207031
-9.597349166870117 13.81297779083252 -1.997961401939392
-11.051518440246582 15.246064186096191 -2.2367711067199707
-11.648259162902832 14.787070274353027 -2.236016035079956
-11.939603805541992 14.548830032348633 -2.235647201538086
-12.784210205078125 13.800297737121582 -2.2345783710479736
-13.055551528930664 13.5398530960083 -2.2342350482940674
-13.582381248474121 13.00320053100586 -2.2335689067840576
-14.087371826171875 12.446269035339355 -2.2329323291778564
-14.56975269317627 11.869885444641113 -2.232327461242676
-14.802172660827637 11.574694633483887 -2.2320339679718018
-15.249255180358887 10.970892906188965 -2.2314696311950684
7.418198108673096 15.25966739654541 -2.4040749073028564
7.111335277557373 15.404308319091797 -2.4039785861968994
6.801652908325195 15.542795181274414 -2.403881549835205
6.489284515380859 15.675041198730469 -2.4037835597991943
5.856938362121582 15.92061710357666 -2.403585433959961
5.537226676940918 16.033876419067383 -2.4034852981567383
5.215336799621582 16.140697479248047 -2.403384208679199
4.891369342803955 16.241037368774414 -2.403282642364502
4.565493106842041 16.334897994995117 -2.4031805992126465
3.908459424972534 16.502960205078125 -2.4029746055603027
3.577568292617798 16.577089309692383 -2.4028706550598145
1.2295825481414795 16.908876419067383 -2.4021339416503906
0.8912377953529358 16.929330825805664 -2.4020278453826904
0.5174950957298279 15.867915153503418 -2.249509334564209
0.20012938976287842 15.87437915802002 -2.2494096755981445
-0.11729247868061066 15.87450885772705 -2.249310255050659
-0.434638649225235 15.868300437927246 -2.2492105960845947
-1.384945034980774 15.81160831451416 -2.2489120960235596
-1.700560212135315 15.778514862060547 -2.248594045639038
-2.015329599380493 15.73857593536377 -2.2481961250305176
-2.6419920921325684 15.639904022216797 -2.247403621673584
-2.9536547660827637 15.581239700317383 -2.247009515762329
-3.264017343521118 15.516357421875 -2.246617078781128
-1.9124706983566284 6.4721503257751465 -0.9562310576438904
-5.07514762878418 14.02083683013916 -2.11273455619812
-6.969124794006348 13.812990188598633 -2.1921451091766357
-8.227407455444336 13.502497673034668 -2.2403390407562256
-9.018040657043457 12.979198455810547 -2.2393386363983154
-10.497812271118164 11.796784400939941 -2.2374725341796875
-10.958205223083496 11.36470890045166 -2.236891269683838
-11.615480422973633 10.68338394165039 -2.2360610961914062
-12.230795860290527 9.96436595916748 -2.2352850437164307
-12.426231384277344 9.716790199279785 -2.235041856765747
7.6585693359375 12.422607421875 -2.404147148132324
7.408422470092773 12.57284164428711 -2.404068946838379
7.155324459075928 12.718022346496582 -2.403989553451538
6.899389266967773 12.858112335205078 -2.40390944480896
6.640712738037109 12.993053436279297 -2.4038281440734863
5.849247932434082 13.366400718688965 -2.4035801887512207
5.580644607543945 13.480209350585938 -2.403496026992798
5.036901950836182 13.691567420959473 -2.4033255577087402
4.761987209320068 13.789045333862305 -2.4032394886016846
3.076799154281616 14.25670337677002 -2.4027109146118164
2.7910473346710205 14.314841270446777 -2.4026215076446533
1.927648901939392 14.454782485961914 -2.402350664138794
1.3481175899505615 14.519196510314941 -2.4021687507629395
0.4450781047344208 13.647567749023438 -2.2494843006134033
0.17212890088558197 13.653209686279297 -2.249398708343506
-0.37382566928863525 13.648138999938965 -2.249227285385132
-0.6465966701507568 13.63741397857666 -2.2491416931152344
-0.9190954566001892 13.62123966217041 -2.249056100845337
-1.4628149271011353 13.57259750366211 -2.2488853931427
-2.272804021835327 13.454381942749023 -2.2478673458099365
-3.073899984359741 13.28793716430664 -2.246854305267334
-3.338470458984375 13.221867561340332 -2.2465195655822754
-3.601609945297241 13.150524139404297 -2.2461867332458496
-1.9124963283538818 6.472239017486572 -1.1118050813674927
-2.0157690048217773 6.351583957672119 -1.0977836847305298
-2.164776563644409 6.37605619430542 -1.10927414894104
-4.892587661743164 12.716154098510742 -2.244554042816162
-5.395516395568848 12.50682544708252 -2.24391770362854
-5.889567852020264 12.277716636657715 -2.243293285369873
-6.13303804397583 12.155841827392578 -2.242985725402832
-6.612300872802734 11.897719383239746 -2.242382287979126
-6.847955226898193 11.761579513549805 -2.242084503173828
-7.080822467803955 11.620780944824219 -2.241790533065796
-7.31082010269165 11.4753999710083 -2.241499900817871
-7.537824630737305 11.325495719909668 -2.241213083267212
-7.761768817901611 11.171125411987305 -2.2409303188323975
-8.62525463104248 10.510175704956055 -2.239839792251587
-8.832634925842285 10.334418296813965 -2.2395780086517334
-9.236632347106934 9.9707612991333 -2.239067554473877
-9.43306827545166 9.783027648925781 -2.238821506500244
-9.625768661499023 9.591434478759766 -2.2385809421539307
-9.814597129821777 9.396072387695312 -2.238344430923462
-9.999411582946777 9.197011947631836 -2.238111734390259
-6.57585334777832 5.3573150634765625 -1.3973007202148438
6.711555004119873 10.88649845123291 -2.403848171234131
6.49237060546875 11.018198013305664 -2.4037797451019287
6.2705979347229 11.145485877990723 -2.403710126876831
5.819653034210205 11.38659381866455 -2.403568744659424
5.590659141540527 11.500319480895996 -2.4034972190856934
5.126110553741455 11.713930130004883 -2.4033515453338623
4.8907470703125 11.81371784210205 -2.40327787399292
4.173337459564209 12.084535598754883 -2.403052806854248
3.4410667419433594 12.311796188354492 -2.4028232097625732
3.1941137313842773 12.377741813659668 -2.4027457237243652
2.696535587310791 12.49472427368164 -2.402589797973633
2.194716691970825 12.591718673706055 -2.402432441711426
1.9424585103988647 12.632670402526855 -2.402353286743164
1.6894433498382568 12.668557167053223 -2.4022738933563232
1.435766577720642 12.699386596679688 -2.4021942615509033
1.1815404891967773 12.725133895874023 -2.4021143913269043
0.39009276032447815 11.961371421813965 -2.249465227127075
-0.08841796964406967 11.96660327911377 -2.249315023422241
-0.805560290813446 11.93858814239502 -2.2490899562835693
-1.0440564155578613 11.91970157623291 -2.2490150928497314
-1.7563574314117432 11.833064079284668 -2.248518228530884
-1.9923205375671387 11.794008255004883 -2.2482199668884277
-2.4616003036499023 11.701855659484863 -2.2476272583007812
-2.0157737731933594 6.351594924926758 -1.2525304555892944
-4.066340446472168 11.233864784240723 -2.2455997467041016
-4.289590835571289 11.14892578125 -2.2453176975250244
-4.948397159576416 10.867688179016113 -2.24448561668396
-5.377619743347168 10.65859317779541 -2.243943214416504
-5.588986873626709 10.547690391540527 -2.24367618560791
-5.798068523406982 10.432612419128418 -2.2434120178222656
-6.209082126617432 10.190106391906738 -2.2428929805755615
-6.61002779006958 9.931486129760742 -2.24238657951355
-7.000237941741943 9.657172203063965 -2.241896390914917
-7.19114351272583 9.514267921447754 -2.241657018661499
-7.564194202423096 9.217244148254395 -2.241187334060669
-7.746180057525635 9.063231468200684 -2.2409582138061523
-7.925032615661621 8.905646324157715 -2.2407329082489014
-5.023432731628418 5.422697067260742 -1.3893886804580688
-5.143410682678223 5.334211826324463 -1.3927946090698242
-8.607914924621582 8.240856170654297 -2.2398736476898193
-6.575870037078857 5.357332229614258 -1.5942684412002563
-9.415602684020996 7.36258602142334 -2.246591806411743
-7.269631385803223 5.453895568847656 -1.7081953287124634
-9.705562591552734 6.982550621032715 -2.247323989868164
5.772529125213623 9.796550750732422 -2.403552293777466
5.575358867645264 9.90975284576416 -2.4034905433654785
4.970864295959473 10.225360870361328 -2.403301239013672
4.765297889709473 10.32241439819336 -2.4032368659973145
3.924938917160034 10.66896915435791 -2.4029734134674072
3.4950780868530273 10.816755294799805 -2.402838706970215
3.0596678256988525 10.947206497192383 -2.4027020931243896
2.3976902961730957 11.109980583190918 -2.402494430541992
1.9514940977096558 11.196295738220215 -2.4023544788360596
1.727199673652649 11.23275089263916 -2.4022841453552246
1.50222647190094 11.264711380004883 -2.4022135734558105
0.8241503834724426 11.333500862121582 -2.402000904083252
0.5594677329063416 10.627338409423828 -2.2495169639587402
0.3468652367591858 10.636088371276855 -2.249450445175171
-0.07862304151058197 10.640820503234863 -2.249316692352295
-0.5039355158805847 10.62853717803955 -2.249183416366577
-0.71632319688797 10.6160249710083 -2.2491164207458496
-1.3513232469558716 10.553049087524414 -2.2489171028137207
-1.5619409084320068 10.523210525512695 -2.248764753341675
-1.7718102931976318 10.488652229309082 -2.248499631881714
-2.3965649604797363 10.3599214553833 -2.2477104663848877
-2.808173656463623 10.253461837768555 -2.247190237045288
-2.0157787799835205 6.3516082763671875 -1.4085924625396729
-3.61674427986145 9.991785049438477 -2.246168851852417
-3.815358877182007 9.916366577148438 -2.245918035507202
-4.207808971405029 9.753748893737793 -2.245422124862671
-4.401494026184082 9.66662311553955 -2.245178699493408
-4.593403339385986 9.575660705566406 -2.2449374198913574
-4.783434867858887 9.480897903442383 -2.2446978092193604
-4.971505165100098 9.382373809814453 -2.2444608211517334
-5.341526985168457 9.174208641052246 -2.2439944744110107
-5.702870845794678 8.951504707336426 -2.243539333343506
-5.880127906799316 8.834816932678223 -2.2433159351348877
-6.054990291595459 8.714638710021973 -2.243095636367798
-6.227413177490234 8.5910005569458 -2.2428784370422363
-6.397315502166748 8.463970184326172 -2.2426645755767822
-6.891301155090332 8.063003540039062 -2.2420425415039062
-5.143376350402832 5.334176540374756 -1.5663201808929443
-5.470077991485596 5.450570583343506 -1.6322906017303467
-5.69377326965332 5.450983047485352 -1.6661807298660278
-8.10971736907959 6.881228446960449 -2.248180389404297
-6.575888633728027 5.357348918914795 -1.7929143905639648
5.191420555114746 8.81035041809082 -2.4033689498901367
3.910883665084839 9.446855545043945 -2.402967691421509
3.721140146255493 9.52292537689209 -2.4029083251953125
3.529909610748291 9.595179557800293 -2.402848243713379
2.3558201789855957 9.94715404510498 -2.402480125427246
2.1564159393310547 9.992008209228516 -2.4024176597595215
1.9561620950698853 10.032862663269043 -2.4023547172546387
1.7551318407058716 10.069704055786133 -2.402291774749756
1.3510791063308716 10.131281852722168 -2.402164936065674
0.9449096322059631 10.176666259765625 -2.4020373821258545
0.5047582983970642 9.587989807128906 -2.2565176486968994
0.3119750916957855 9.56605052947998 -2.2494380474090576
-0.0707104504108429 9.570367813110352 -2.2493181228637695
-0.26203611493110657 9.566787719726562 -2.249258041381836
-0.4532421827316284 9.559378623962402 -2.2491979598999023
-0.8350121974945068 9.533108711242676 -2.2490782737731934
-1.0254199504852295 9.514250755310059 -2.249018430709839
-1.5937304496765137 9.434447288513184 -2.2487263679504395
-1.9692260026931763 9.361209869384766 -2.2482526302337646
-2.1557652950286865 9.318995475769043 -2.2480173110961914
-2.3414146900177 9.273066520690918 -2.2477829456329346
-1.912575602531433 6.472507953643799 -1.5862096548080444
-2.1647045612335205 6.375840187072754 -1.58247971534729
-3.432286262512207 8.920729637145996 -2.2464070320129395
-3.959721565246582 8.696345329284668 -2.245742082595825
-4.132400035858154 8.614609718322754 -2.2455241680145264
-4.805635929107666 8.253790855407715 -2.244675636291504
-4.969236850738525 8.155314445495605 -2.24446964263916
-5.130833625793457 8.053597450256348 -2.2442660331726074
-5.603066444396973 7.7294769287109375 -2.243668794631958
-5.763073444366455 7.624800205230713 -2.2462878227233887
-5.917903900146484 7.512574672698975 -2.2476401329040527
-6.214680194854736 7.27133321762085 -2.2480602264404297
-6.35943603515625 7.146333694458008 -2.248281478881836
-5.023505687713623 5.422778606414795 -1.7372992038726807
-6.913003921508789 6.618224143981934 -2.249239206314087
-7.044747352600098 6.479430198669434 -2.2494964599609375
-7.173725605010986 6.338034152984619 -2.249760627746582
-7.299893856048584 6.1940789222717285 -2.2500314712524414
-6.575908184051514 5.35736608505249 -1.9934567213058472
-7.54357385635376 5.898754119873047 -2.2505931854248047
-7.660994529724121 5.747500419616699 -2.2508838176727295
-7.775399208068848 5.593918800354004 -2.251180648803711
4.712016582489014 7.996760845184326 -2.4032175540924072
4.551095962524414 8.08920955657959 -2.403167247772217
4.223879337310791 8.264333724975586 -2.403064727783203
3.8899314403533936 8.426229476928711 -2.4029600620269775
3.7206006050109863 8.502130508422852 -2.402906894683838
2.4977245330810547 8.936612129211426 -2.4025235176086426
2.318493604660034 8.984551429748535 -2.4024674892425537
2.1383519172668457 9.028900146484375 -2.4024107456207275
0.8577001690864563 9.237377166748047 -2.4020090103149414
0.6301293969154358 8.665346145629883 -2.249537229537964
0.2831787168979645 8.683188438415527 -2.2494282722473145
-0.06418212503194809 8.687149047851562 -2.249319314956665
-0.4114159941673279 8.677218437194824 -2.2492101192474365
-0.5848070979118347 8.667044639587402 -2.2491557598114014
-1.1032519340515137 8.615777015686035 -2.248992919921875
-1.4467517137527466 8.564373016357422 -2.248885154724121
-1.6175646781921387 8.533036231994629 -2.2487006187438965
-2.1255943775177 8.418314933776855 -2.2480597496032715
-1.9126025438308716 6.472598075866699 -1.7475042343139648
-3.1160888671875 8.098910331726074 -2.2468101978302
-3.2770934104919434 8.034266471862793 -2.2466070652008057
-3.5950329303741455 7.895420551300049 -2.246206283569336
-4.064206600189209 7.669935703277588 -2.247447967529297
-4.812057971954346 7.2300543785095215 -2.248706579208374
-5.37592887878418 6.824556350708008 -2.24938702583313
-5.64542818069458 6.605299472808838 -2.2497689723968506
-5.023543357849121 5.422821521759033 -1.9139453172683716
-5.143308162689209 5.334103107452393 -1.9185487031936646
-6.157418251037598 6.135453224182129 -2.2506136894226074
-6.279488563537598 6.011721611022949 -2.250840902328491
-6.39909029006958 5.885588645935059 -2.25107479095459
-6.630707740783691 5.6262640953063965 -2.251561164855957
-6.85130500793457 5.357428550720215 -2.2518765926361084
-6.955834865570068 5.21846866607666 -2.2514843940734863
-7.05753755569458 5.077460289001465 -2.2510886192321777
4.454845905303955 7.2259979248046875 -2.4031360149383545
4.309401988983154 7.313479423522949 -2.403090476989746
4.162236213684082 7.398038864135742 -2.4030444622039795
4.013427734375 7.47963285446167 -2.4029977321624756
3.7110302448272705 7.6338067054748535 -2.4029030799865723
3.5575902462005615 7.706319808959961 -2.4028549194335938
3.4027342796325684 7.775752544403076 -2.402806282043457
3.246530771255493 7.8420729637146 -2.402757406234741
3.0890307426452637 7.905250549316406 -2.402708053588867
2.9302978515625 7.9652628898620605 -2.402658224105835
2.6094017028808594 8.07570743560791 -2.402557849884033
1.9556982517242432 8.257661819458008 -2.402352809906006
1.790163516998291 8.294934272766113 -2.4023008346557617
1.62393057346344 8.32889175415039 -2.4022486209869385
1.2895971536636353 8.386783599853516 -2.402143716812134
1.1216307878494263 8.410707473754883 -2.4020912647247314
0.7844506502151489 8.448454856872559 -2.4019851684570312
0.5763134360313416 7.925295829772949 -2.2495193481445312
0.41773679852485657 7.935057640075684 -2.249469757080078
0.2589965760707855 7.941643714904785 -2.249419927597046
-1.0090490579605103 7.880120277404785 -2.2490217685699463
-1.4795422554016113 7.8049445152282715 -2.2488739490509033
-2.0983264446258545 7.661598205566406 -2.2488174438476562
-2.0157885551452637 6.351644992828369 -1.8864866495132446
-2.1646533012390137 6.3756890296936035 -1.9061036109924316
-2.852849006652832 7.4147491455078125 -2.2490692138671875
-3.000622510910034 7.356456756591797 -2.249140739440918
-3.579332113265991 7.094328880310059 -2.2494959831237793
-3.8604724407196045 6.946230888366699 -2.2497148513793945
-3.9987902641296387 6.8680267333984375 -2.2498342990875244
-4.404109001159668 6.617122173309326 -2.2502331733703613
-4.535819053649902 6.528172016143799 -2.2503793239593506
-4.793847560882568 6.342501640319824 -2.2506911754608154
-4.920058250427246 6.245840549468994 -2.250856637954712
-5.044331073760986 6.146694660186768 -2.251028299331665
-5.166629314422607 6.0450873374938965 -2.251206398010254
-5.286891937255859 5.941068649291992 -2.2513906955718994
-5.023582458496094 5.422860622406006 -2.0926661491394043
-5.143265247344971 5.3340630531311035 -2.097665309906006
-5.635009765625 5.6149163246154785 -2.2519798278808594
-5.746684551239014 5.501633644104004 -2.252187967300415
-6.452414512634277 4.642114162445068 -2.2502400875091553
3.9661619663238525 6.730973243713379 -2.402982234954834
3.6937644481658936 6.883909225463867 -2.4028968811035156
3.2742626667022705 7.092578411102295 -2.4027652740478516
3.1317358016967773 7.156490802764893 -2.4027206897735596
2.987990617752075 7.217543125152588 -2.4026756286621094
2.843024730682373 7.275700092315674 -2.40263032913208
1.951601505279541 7.562778949737549 -2.402350664138794
1.7999706268310547 7.600137233734131 -2.4023032188415527
1.4946264028549194 7.66571569442749 -2.402207374572754
1.1869189739227295 7.71903133392334 -2.4021108150482178
1.032326579093933 7.741062641143799 -2.40206241607666
0.8773291110992432 7.759997844696045 -2.4020135402679443
0.5304321050643921 7.29433536529541 -2.249504327774048
0.38447996973991394 7.303332805633545 -2.2494585514068604
-0.34633055329322815 7.3044939041137695 -2.2492291927337646
-0.49229735136032104 7.295963764190674 -2.249183416366577
-0.783553421497345 7.27014684677124 -2.249091863632202
-0.9287316799163818 7.2528886795043945 -2.2490463256835938
-1.3617833852767944 7.183729648590088 -2.248910427093506
-1.5051110982894897 7.1549272537231445 -2.2488653659820557
-1.6478283405303955 7.123262405395508 -2.248821258544922
-1.7898839712142944 7.088761329650879 -2.248779535293579
-1.9312145709991455 7.051424026489258 -2.2487361431121826
-2.015794515609741 6.351658344268799 -2.0496580600738525
-2.164628744125366 6.375613212585449 -2.070941925048828
-2.627370595932007 6.828707695007324 -2.2504639625549316
-3.2963879108428955 6.533522129058838 -2.250857353210449
-3.4265050888061523 6.466588497161865 -2.250955104827881
-3.5552709102630615 6.397080421447754 -2.251059055328369
-3.6826465129852295 6.3250298500061035 -2.251169204711914
-3.8085594177246094 6.250460624694824 -2.2512855529785156
-4.177132606506348 6.011932849884033 -2.251671314239502
-4.296768665313721 5.927589416503906 -2.251811981201172
-4.414704322814941 5.840874671936035 -2.2519586086273193
-4.530910491943359 5.751833915710449 -2.2521111965179443
-4.757919788360596 5.566888809204102 -2.2524335384368896
-4.868641376495361 5.4710612297058105 -2.25260329246521
-4.977221488952637 5.372804641723633 -2.2526772022247314
-5.082971096038818 5.27152156829834 -2.2523796558380127
-5.48487663269043 4.845918655395508 -2.251146078109741
-5.672610759735107 4.621448040008545 -2.250505208969116
3.6697826385498047 6.227999687194824 -2.4028890132904053
3.28967022895813 6.43648099899292 -2.4027695655822754
2.8977489471435547 6.621775150299072 -2.402646780014038
2.630607843399048 6.732093811035156 -2.4025628566741943
2.4954442977905273 6.78322172164917 -2.4025206565856934
2.0841991901397705 6.92025089263916 -2.4023916721343994
1.9453856945037842 6.96041202545166 -2.402348041534424
1.8058056831359863 6.9977850914001465 -2.4023044109344482
1.665505290031433 7.032364845275879 -2.4022603034973145
1.0982543230056763 7.142416000366211 -2.4020824432373047
0.8117968440055847 7.1803460121154785 -2.4019925594329834
0.6680639386177063 7.195006370544434 -2.401947498321533
0.2205786108970642 6.763458728790283 -2.249406576156616
0.08531250059604645 6.766388416290283 -2.249364137649536
-0.1852685511112213 6.764134883880615 -2.249279022216797
-0.45552489161491394 6.751066207885742 -2.249194383621216
-0.7250390648841858 6.727205276489258 -2.2491097450256348
-0.8593713045120239 6.711240768432617 -2.249067544937134
-0.9933630228042603 6.69258975982666 -2.249025583267212
-1.1269543170928955 6.671267509460449 -2.248983860015869
-1.2600890398025513 6.647276878356934 -2.2489423751831055
-1.3927160501480103 6.620636463165283 -2.248901128768921
-1.656227946281433 6.559422016143799 -2.24881911277771
-1.7870080471038818 6.524881839752197 -2.248779058456421
-1.912685513496399 6.472877502441406 -2.2435896396636963
-2.0157995223999023 6.351670265197754 -2.215106725692749
-2.3024377822875977 6.36081600189209 -2.248623847961426
-2.429107666015625 6.313396453857422 -2.248584508895874
-2.554799795150757 6.263465881347656 -2.2485451698303223
-2.8030712604522705 6.156097888946533 -2.248467445373535
-2.925539493560791 6.098726272583008 -2.248429298400879
-3.166917562484741 5.976691246032715 -2.248353958129883
-3.40350079536438 5.84559965133667 -2.2484688758850098
-3.5229551792144775 5.781736373901367 -2.250551462173462
-3.7548093795776367 5.641554355621338 -2.2526636123657227
-4.08696174621582 5.407255172729492 -2.25305438041687
-4.193918228149414 5.324034690856934 -2.252873420715332
-4.603708267211914 4.969611167907715 -2.2518155574798584
-4.701574802398682 4.87598180770874 -2.251540184020996
-4.891530513763428 4.682945251464844 -2.2509775161743164
-4.983542442321777 4.583629608154297 -2.250690460205078
-5.073532581329346 4.482494831085205 -2.250399351119995
-5.1614670753479 4.379586696624756 -2.2501049041748047
3.5261693000793457 5.719633102416992 -2.402845621109009
3.4110546112060547 5.7889018058776855 -2.402808904647827
3.2945849895477295 5.855856418609619 -2.4027719497680664
3.1767969131469727 5.9204607009887695 -2.4027347564697266
3.057741641998291 5.982699394226074 -2.4026973247528076
2.9374730587005615 6.04254674911499 -2.4026591777801514
2.816027879714966 6.099971294403076 -2.402621030807495
2.6934618949890137 6.1549553871154785 -2.4025824069976807
2.569831371307373 6.20747709274292 -2.402543544769287
2.319526433944702 6.305047035217285 -2.4024651050567627
2.0655369758605957 6.392523765563965 -2.4023852348327637
1.8082616329193115 6.4697723388671875 -2.4023044109344482
1.41708242893219 6.5662055015563965 -2.40218186378479
1.285498023033142 6.593108177185059 -2.4021406173706055
1.1534008979797363 6.617382049560547 -2.402099132537842
1.020847201347351 6.639003276824951 -2.402057647705078
0.7545800805091858 6.6742730140686035 -2.4019739627838135
0.3306909203529358 6.281561851501465 -2.2494406700134277
0.07928466796875 6.2895402908325195 -2.249361753463745
-0.2978857457637787 6.282649517059326 -2.24924373626709
-0.7988207936286926 6.238333225250244 -2.249087333679199
-1.1713049411773682 6.1789069175720215 -2.248971462249756
-1.2945836782455444 6.154149532318115 -2.2489335536956787
-1.4173449277877808 6.126932621002197 -2.2488954067230225
-1.7820080518722534 6.030643939971924 -2.248783826828003
-1.902191162109375 5.993712425231934 -2.2487475872039795
-2.0216124057769775 5.954390048980713 -2.2487106323242188
-2.3748180866241455 5.822203636169434 -2.2486021518707275
-2.719449520111084 5.669103145599365 -2.2484967708587646
-2.8322057723999023 5.613511085510254 -2.248461961746216
-3.1634912490844727 5.433375835418701 -2.2483580112457275
-3.271440267562866 5.368960380554199 -2.248324155807495
-3.378084659576416 5.302396774291992 -2.248290777206421
-3.483370304107666 5.2337236404418945 -2.248257637023926
-3.689714193344116 5.090132236480713 -2.24819278717041
-3.99462890625 4.8675971031188965 -2.251804828643799
-4.090716361999512 4.786238193511963 -2.25156307220459
-4.27784538269043 4.61784553527832 -2.251063585281372
-4.36881685256958 4.530879497528076 -2.250807762145996
-4.458019733428955 4.44211483001709 -2.2505483627319336
-4.545408725738525 4.351583003997803 -2.2502851486206055
-4.714619159698486 4.165396213531494 -2.2497482299804688
-4.796378135681152 4.069801330566406 -2.24947452545166
-4.95402193069458 3.873833417892456 -2.248917579650879
-5.029848575592041 3.7735424041748047 -2.2486345767974854
3.290412425994873 5.337222099304199 -2.402773141860962
3.183000326156616 5.401866912841797 -2.4027392864227295
3.0743188858032227 5.464348793029785 -2.4027047157287598
2.627795457839966 5.692169666290283 -2.4025628566741943
2.398063898086548 5.7925028800964355 -2.4024901390075684
1.9274609088897705 5.965195655822754 -2.4023420810699463
1.8077807426452637 6.002443313598633 -2.4023044109344482
1.3223583698272705 6.127297878265381 -2.4021518230438232
0.9526122808456421 6.195250511169434 -2.402035713195801
0.7041454911231995 6.228182792663574 -2.4019577503204346
0.5794726610183716 6.240914821624756 -2.401918649673462
0.19132567942142487 5.866640090942383 -2.2493972778320312
-0.04335937276482582 5.86940336227417 -2.249323844909668
-0.16069823503494263 5.8672661781311035 -2.2492871284484863
-0.27796873450279236 5.8627848625183105 -2.249250650405884
-0.5121240019798279 5.846799850463867 -2.2491776943206787
-0.6289111375808716 5.835294723510742 -2.2491414546966553
-0.74543696641922 5.821460247039795 -2.249105215072632
-0.8616674542427063 5.805300712585449 -2.2490692138671875
-1.2080870866775513 5.742933750152588 -2.24896240234375
-1.3226354122161865 5.717538356781006 -2.248927116394043
-1.436669945716858 5.689866065979004 -2.248892068862915
-1.550115942955017 5.659918785095215 -2.2488574981689453
-1.6629406213760376 5.6277031898498535 -2.2488226890563965
-1.7751024961471558 5.593249797821045 -2.2487881183624268
-1.997231364250183 5.517641067504883 -2.2487199306488037
-2.431525707244873 5.340122699737549 -2.248586416244507
-2.5377697944641113 5.2903642654418945 -2.248553514480591
-2.642997980117798 5.238491535186768 -2.248520851135254
-2.850231885910034 5.1284918785095215 -2.2484560012817383
-2.952158212661743 5.070405960083008 -2.2484242916107178
-3.2506773471832275 4.8841047286987305 -2.2483301162719727
-3.3476293087005615 4.818068027496338 -2.2482995986938477
-3.4432458877563477 4.750115394592285 -2.248269557952881
-3.5374791622161865 4.680261611938477 -2.2482399940490723
-3.7216649055480957 4.53497838973999 -2.2481820583343506
-3.9042418003082275 4.387336254119873 -2.2506284713745117
-3.990770101547241 4.307957172393799 -2.250398635864258
-4.075677394866943 4.226862907409668 -2.2501626014709473
-4.158920764923096 4.1440863609313965 -2.249920606613159
-4.398414134979248 3.8860247135162354 -2.2491743564605713
-4.549218654632568 3.7062249183654785 -2.2486608028411865
3.0808398723602295 4.997284412384033 -2.402707099914551
2.980273485183716 5.05781888961792 -2.4026756286621094
2.6715917587280273 5.227171897888184 -2.4025790691375732
2.353327512741089 5.37770414352417 -2.402477979660034
2.245307683944702 5.42360258102417 -2.4024436473846436
2.1363940238952637 5.467331886291504 -2.402409076690674
1.91604483127594 5.548208713531494 -2.402339458465576
1.804714322090149 5.585325241088867 -2.402304172515869
1.692663550376892 5.620210647583008 -2.402268886566162
1.4665746688842773 5.6832170486450195 -2.4021975994110107
1.352636694908142 5.7113213539123535 -2.4021618366241455
1.2381542921066284 5.737135410308838 -2.402125597000122
1.1231884956359863 5.76065731048584 -2.4020895957946777
0.5425781011581421 5.843552589416504 -2.401907205581665
-0.15047118067741394 5.49373197555542 -2.24929141998291
-0.26027587056159973 5.489543914794922 -2.2492570877075195
-0.4795190393924713 5.474584102630615 -2.2491891384124756
-0.6979833841323853 5.450874328613281 -2.2491214275360107
-1.1311804056167603 5.3773674964904785 -2.2489876747131348
-1.2384485006332397 5.3535943031311035 -2.248955011367798
-1.451412320137024 5.299615859985352 -2.248889207839966
-1.5570958852767944 5.26949405670166 -2.248856544494629
-1.6621142625808716 5.2372331619262695 -2.24882435798645
-1.8701086044311523 5.166449546813965 -2.248760461807251
-2.075101375579834 5.087409973144531 -2.24869704246521
-2.5723254680633545 4.8545637130737305 -2.2485427856445312
-2.668835401535034 4.80210018157959 -2.2485127449035645
-2.8586108684539795 4.691439151763916 -2.24845290184021
-2.9518017768859863 4.63328742980957 -2.2484238147735596
-3.0438060760498047 4.573283672332764 -2.2483949661254883
-3.399284601211548 4.315269470214844 -2.2482831478118896
-3.5690014362335205 4.175826549530029 -2.248229742050171
-3.6517333984375 4.103583812713623 -2.2482035160064697
-3.733006477355957 4.029706954956055 -2.248178005218506
-3.812786817550659 3.9542248249053955 -2.248152732849121
-4.044320106506348 3.719777822494507 -2.2489001750946045
-4.117453575134277 3.6377923488616943 -2.248664379119873
-4.188915729522705 3.5543620586395264 -2.2484254837036133
-4.334387302398682 3.389305353164673 -2.251915454864502
2.893141984939575 4.692827224731445 -2.4026482105255127
2.79870343208313 4.7496795654296875 -2.402618408203125
2.7031469345092773 4.804623126983643 -2.4025886058807373
2.606513500213623 4.8576483726501465 -2.4025583267211914
2.5088329315185547 4.90872859954834 -2.4025278091430664
2.410163402557373 4.9578423500061035 -2.402496814727783
2.3105273246765137 5.004973411560059 -2.402465581893921
1.903176188468933 5.17329740524292 -2.4023375511169434
1.6947851181030273 5.245102882385254 -2.402271270751953
1.2702441215515137 5.363438129425049 -2.402137041091919
1.1627392768859863 5.387686252593994 -2.4021029472351074
0.6191576719284058 5.476444721221924 -2.4019317626953125
0.509533703327179 5.487651824951172 -2.4018971920013428
0.39970946311950684 5.496659278869629 -2.401862859725952
0.06947509944438934 5.510502338409424 -2.4017598628997803
-0.14407958090305328 5.2602128982543945 -2.293349027633667
-0.7576830983161926 5.104736804962158 -2.2491044998168945
-0.8595849275588989 5.088501453399658 -2.249073028564453
-1.0623022317886353 5.049925804138184 -2.2490105628967285
-1.1630382537841797 5.027609348297119 -2.248979330062866
-1.263308048248291 5.003281593322754 -2.248948574066162
-1.4622838497161865 4.948640823364258 -2.248887300491333
-1.8528698682785034 4.815736770629883 -2.2487666606903076
-1.948760986328125 4.7776665687561035 -2.24873685836792
-2.0438647270202637 4.737687110900879 -2.2487075328826904
-2.1381518840789795 4.6958160400390625 -2.248678207397461
-2.231581926345825 4.652069568634033 -2.2486491203308105
-2.3241162300109863 4.606461524963379 -2.2486205101013184
-2.5959911346435547 4.458681583404541 -2.24853515625
-2.684582471847534 4.405831813812256 -2.248507261276245
-2.772101879119873 4.351221084594727 -2.2484798431396484
-2.8585095405578613 4.294878959655762 -2.248452663421631
-3.0278539657592773 4.177065849304199 -2.248399496078491
-3.110727548599243 4.115649223327637 -2.24837327003479
-3.192354679107666 4.052585124969482 -2.248347759246826
-3.2727038860321045 3.987905740737915 -2.2483224868774414
-3.35174560546875 3.9216270446777344 -2.2482974529266357
-3.5806970596313477 3.7135229110717773 -2.248225450515747
-3.654191732406616 3.641155958175659 -2.248202323913574
-3.7262229919433594 3.567328929901123 -2.2481796741485596
-3.933260440826416 3.3374364376068115 -2.2481143474578857
-3.9991650581359863 3.2580997943878174 -2.248093605041504
-4.120492935180664 3.2220475673675537 -2.2796192169189453
-4.282083511352539 3.2125439643859863 -2.3330111503601074
2.5450220108032227 4.523571014404297 -2.402538776397705
2.454045295715332 4.573497772216797 -2.402510404586792
2.3620824813842773 4.621593475341797 -2.4024815559387207
2.080703020095825 4.754708766937256 -2.402393341064453
1.694094181060791 4.9054975509643555 -2.4022722244262695
1.4965869188308716 4.969175338745117 -2.4022104740142822
1.29669189453125 5.024899005889893 -2.402147054672241
1.1959521770477295 5.0497565269470215 -2.4021153450012207
0.788647472858429 5.1288886070251465 -2.4019863605499268
0.6859325766563416 5.14355993270874 -2.401953935623169
0.3763354420661926 5.1752190589904785 -2.4018564224243164
0.27278807759284973 5.181641101837158 -2.4018239974975586
0.06541015207767487 5.188264846801758 -2.401759386062622
-0.038334958255290985 5.1884636878967285 -2.4017271995544434
-0.24213866889476776 5.106987953186035 -2.366602659225464
-0.4297753870487213 4.906637668609619 -2.2799038887023926
-1.0950415134429932 4.733658790588379 -2.2490015029907227
-1.1894457340240479 4.710754871368408 -2.248972177505493
-1.2833752632141113 4.685972213745117 -2.248943328857422
-1.6535680294036865 4.5682268142700195 -2.248828887939453
-1.8348326683044434 4.498354434967041 -2.248772621154785
-1.9243786334991455 4.460717678070068 -2.2487449645996094
-2.3598413467407227 4.246119976043701 -2.2486090660095215
-2.5276525020599365 4.148281097412109 -2.24855637550354
-2.6100573539733887 4.096868991851807 -2.248530626296997
-2.771692991256714 3.9891533851623535 -2.2484796047210693
-3.0057530403137207 3.815700054168701 -2.248405933380127
-3.081408739089966 3.7548038959503174 -2.248382329940796
-3.1558313369750977 3.6924028396606445 -2.248358726501465
-3.371408700942993 3.4964678287506104 -2.248290777206421
-3.4406089782714844 3.4283318519592285 -2.2482690811157227
-3.5084288120269775 3.3588225841522217 -2.2482476234436035
-3.5748486518859863 3.2879796028137207 -2.2482266426086426
-3.7940075397491455 3.2192723751068115 -2.3032045364379883
-3.938100576400757 3.2083489894866943 -2.3512611389160156
-4.148219108581543 3.1121129989624023 -2.400446653366089
2.4015820026397705 4.268613338470459 -2.4024956226348877
2.315732479095459 4.3157267570495605 -2.40246844291687
2.1412792205810547 4.404756546020508 -2.4024133682250977
1.9634325504302979 4.486738204956055 -2.4023568630218506
1.782448649406433 4.561538219451904 -2.4022998809814453
1.6908715963363647 4.596208572387695 -2.402271270751953
1.5986205339431763 4.629039764404297 -2.4022421836853027
1.4122461080551147 4.6891350746154785 -2.402184009552002
1.3181958198547363 4.716377258300781 -2.4021544456481934
1.033046841621399 4.786737442016602 -2.4020650386810303
0.9371289014816284 4.8063764572143555 -2.4020349979400635
0.8408300876617432 4.824090957641602 -2.4020047187805176
0.64727783203125 4.853724956512451 -2.4019436836242676
0.452705055475235 4.8755998611450195 -2.4018819332122803
0.3551269471645355 4.883613586425781 -2.401851177215576
-0.036174315959215164 4.89612340927124 -2.401728630065918
-0.13405761122703552 4.8943610191345215 -2.401698350906372
-0.4271557629108429 4.876711845397949 -2.401298999786377
-1.0333471298217773 4.466978073120117 -2.249021291732788
-1.1243517398834229 4.452937602996826 -2.2528231143951416
-1.2110766172409058 4.421988010406494 -2.2489662170410156
-1.2992321252822876 4.3968377113342285 -2.248939275741577
-1.3868615627288818 4.369928359985352 -2.2489120960235596
-1.646273136138916 4.2787766456604 -2.2488315105438232
-1.73147451877594 4.244956970214844 -2.248805284500122
-2.064988851547241 4.092864513397217 -2.248701333999634
-2.306561231613159 3.961574077606201 -2.2486255168914795
-2.3852806091308594 3.914625883102417 -2.248600959777832
-2.5398192405700684 3.816051483154297 -2.248552083969116
-2.690295457839966 3.7113842964172363 -2.248504877090454
-2.763930559158325 3.656813383102417 -2.2484817504882812
-2.907857656478882 3.543325185775757 -2.248436450958252
-3.0471324920654297 3.4241693019866943 -2.2483925819396973
-3.1149535179138184 3.3625309467315674 -2.248371124267578
-3.50903058052063 3.2274420261383057 -2.3386011123657227
-3.634340763092041 3.210958242416382 -2.37884521484375
-3.855137825012207 3.0145514011383057 -2.400538682937622
-3.914604425430298 2.9368510246276855 -2.400519847869873
2.4303271770477295 3.9421226978302 -2.4025049209594727
2.0246336460113525 4.164783000946045 -2.4023778438568115
1.6853514909744263 4.31303596496582 -2.402270793914795
1.5987451076507568 4.345820903778076 -2.4022436141967773
1.3353124856948853 4.433693885803223 -2.40216064453125
1.0670825242996216 4.505609512329102 -2.402076005935669
0.7950268387794495 4.561312198638916 -2.4019904136657715
0.5201367139816284 4.600605487823486 -2.4019041061401367
0.4280444383621216 4.610029697418213 -2.4018752574920654
0.3357836902141571 4.617610454559326 -2.401846408843994
0.24339355528354645 4.623347759246826 -2.4018173217773438
-0.03420165926218033 4.629453659057617 -2.4017302989959717
-0.12675537168979645 4.62778902053833 -2.4017014503479004
-0.21925048530101776 4.624274730682373 -2.401672840118408
-0.4039404094219208 4.611702919006348 -2.401615619659424
-0.765789806842804 4.533259868621826 -2.385079860687256
-0.8457543849945068 4.4615583419799805 -2.3557825088500977
-1.0772716999053955 4.2664923667907715 -2.2828330993652344
-1.229669213294983 4.161422252655029 -2.25113844871521
-1.3113378286361694 4.131958961486816 -2.2489356994628906
-1.393670678138733 4.1048688888549805 -2.248910427093506
-1.5566271543502808 4.045779228210449 -2.2488596439361572
-1.7963073253631592 3.9450535774230957 -2.2487850189208984
-2.3289341926574707 3.6556060314178467 -2.2486183643341064
-2.473167657852173 3.559504270553589 -2.248572826385498
-2.5438146591186523 3.509310245513916 -2.2485506534576416
-2.613443613052368 3.4577152729034424 -2.2485287189483643
-2.685081720352173 3.4086179733276367 -2.251068115234375
-2.767913818359375 3.372798442840576 -2.2635133266448975
-2.8587279319763184 3.3447837829589844 -2.2826225757598877
-3.0507872104644775 3.2932634353637695 -2.32890248298645
-3.1533641815185547 3.2703380584716797 -2.3568115234375
-3.342694044113159 3.200157403945923 -2.4006996154785156
-3.405980110168457 3.1326611042022705 -2.400679588317871
-3.467905282974243 3.063912868499756 -2.4006600379943848
-3.756251096725464 2.702385902404785 -2.400569200515747
2.1507861614227295 3.822845935821533 -2.4024171829223633
2.073903799057007 3.8650457859039307 -2.402392864227295
1.9961888790130615 3.9056975841522217 -2.4023687839508057
1.8384130001068115 3.9822998046875 -2.4023191928863525
1.7584056854248047 4.018218517303467 -2.402294158935547
1.5963232517242432 4.08521842956543 -2.4022436141967773
1.4316942691802979 4.145679950714111 -2.4021921157836914
1.3485082387924194 4.173431873321533 -2.4021658897399902
1.0958545207977295 4.246627330780029 -2.4020867347717285
1.0107226371765137 4.267640113830566 -2.40205979347229
0.8392797708511353 4.304539680480957 -2.402005910873413
0.14293456077575684 4.382867813110352 -2.401787281036377
-0.03238281235098839 4.384977340698242 -2.4017324447631836
-0.20764891803264618 4.380074977874756 -2.4016776084899902
-0.2952050566673279 4.374999523162842 -2.4016501903533936
-0.38261228799819946 4.368171691894531 -2.401623249053955
-0.5569238066673279 4.3492865562438965 -2.401569128036499
-0.6437646150588989 4.337233066558838 -2.4015421867370605
-0.9025915265083313 4.2906975746154785 -2.4014623165130615
-1.0714917182922363 4.243597507476807 -2.3971786499023438
-1.1460925340652466 4.184712886810303 -2.3763856887817383
-1.5120190382003784 3.929835081100464 -2.306201219558716
-1.5848791599273682 3.885557174682617 -2.2983577251434326
-1.8031847476959229 3.75900936126709 -2.2834455966949463
-1.9507006406784058 3.6814165115356445 -2.2818965911865234
-2.100743293762207 3.6080760955810547 -2.2867085933685303
-2.1772069931030273 3.573146343231201 -2.29170560836792
-2.254396915435791 3.5386106967926025 -2.29801082611084
-2.495617628097534 3.442817211151123 -2.328936815261841
-2.8431944847106934 3.326608180999756 -2.396794319152832
-2.9140379428863525 3.274609327316284 -2.400834083557129
-2.9789013862609863 3.215665102005005 -2.400813579559326
-3.105027914047241 3.093951463699341 -2.4007740020751953
-3.1662437915802 3.031226634979248 -2.400754690170288
-3.4528441429138184 2.6999735832214355 -2.4006645679473877
-3.506108283996582 2.630383253097534 -2.4006476402282715
1.591530680656433 3.8443901538848877 -2.4022417068481445
1.5143383741378784 3.875401496887207 -2.4022176265716553
1.4365381002426147 3.9048643112182617 -2.402193307876587
1.039575219154358 4.028534889221191 -2.402069091796875
0.95881587266922 4.048471450805664 -2.4020438194274902
0.8776708841323853 4.066790580749512 -2.4020183086395264
0.7961767315864563 4.083481788635254 -2.4019927978515625
0.632275402545929 4.111958026885986 -2.4019415378570557
0.30171874165534973 4.149150848388672 -2.4018378257751465
0.21870116889476776 4.154308319091797 -2.4018118381500244
0.05244140326976776 4.159640312194824 -2.4017598628997803
-0.11389648169279099 4.158319473266602 -2.401707649230957
-0.28004637360572815 4.150353908538818 -2.401655673980713
-0.5283300876617432 4.1259684562683105 -2.401578664779663
-0.7747021317481995 4.086742877960205 -2.4015023708343506
-0.9374499320983887 4.052423000335693 -2.40145206451416
-1.098687767982483 4.011620998382568 -2.401401996612549
-1.4156200885772705 3.910858154296875 -2.401303768157959
-1.6474719047546387 3.81884503364563 -2.401231527328491
-1.7942309379577637 3.740347146987915 -2.395095109939575
-1.8670263290405273 3.7004973888397217 -2.393007516860962
-1.9410338401794434 3.6631712913513184 -2.393493175506592
-2.0150206089019775 3.6256768703460693 -2.394843816757202
-2.0902745723724365 3.5901005268096924 -2.3984763622283936
-2.234525203704834 3.5074193477630615 -2.401047706604004
-2.304185628890991 3.4620110988616943 -2.4010257720947266
-2.4407055377960205 3.3670654296875 -2.4009828567504883
