ply
format ascii 1.0
element vertex 338
property float x
property float y
property float z
end_header
8.689706802368164 -36.39106369018555 6.5971293449401855
8.84988784790039 -33.99452590942383 6.193943977355957
9.060810089111328 -32.118370056152344 5.884378910064697
6.137653827667236 -16.501567840576172 3.104423761367798
9.06057071685791 -32.11752700805664 5.112263202667236
8.992392539978027 -29.56742286682129 4.7344160079956055
8.243026733398438 -25.252031326293945 4.06935977935791
9.0562105178833 -46.13483428955078 6.122371673583984
8.255263328552246 -29.26289939880371 3.9593687057495117
8.323261260986328 -27.367286682128906 3.724965810775757
8.242841720581055 -25.251468658447266 3.459027051925659
8.291718482971191 -23.756731033325195 3.276637554168701
8.317187309265137 -31.948320388793945 3.5450122356414795
8.3230562210083 -27.366586685180664 3.071573495864868
8.32291030883789 -23.846126556396484 2.7121200561523438
8.317182540893555 -31.948320388793945 2.794656276702881
8.255268096923828 -29.262901306152344 2.5738704204559326
8.298745155334473 -27.286672592163086 2.414356231689453
8.24246597290039 -25.25031852722168 2.2485110759735107
8.322733879089355 -23.845609664916992 2.138014554977417
8.270087242126465 -34.633750915527344 2.208031177520752
8.32265567779541 -27.36527442932129 1.7736746072769165
8.242280006408691 -25.249765396118164 1.6470552682876587
8.303153991699219 -22.323699951171875 1.4769490957260132
8.32291030883789 -47.47372055053711 1.9004921913146973
8.242289543151855 -34.5173225402832 1.3993197679519653
8.242094993591309 -25.24919319152832 1.0473061800003052
8.2420015335083 -31.65948486328125 0.5526113510131836
8.24196720123291 -29.215787887573242 0.5127703547477722
8.241938591003418 -27.09988021850586 0.47847166657447815
8.241913795471191 -25.248626708984375 0.4486422538757324
8.241888999938965 -23.613983154296875 0.42248350381851196
8.574267387390137 -48.90757369995117 -0.2795542776584625
8.59444808959961 -33.013362884521484 -0.1920652687549591
8.594413757324219 -28.25883674621582 -0.16629378497600555
8.303153991699219 -22.323705673217773 -0.13409698009490967
8.890121459960938 -45.28880310058594 -1.299573302268982
8.594208717346191 -33.01242446899414 -0.9605414867401123
8.594208717346191 -30.46438980102539 -0.8912947177886963
8.594208717346191 -26.327865600585938 -0.7798340916633606
8.59420394897461 -24.6234073638916 -0.7343600392341614
8.3031587600708 -22.323705673217773 -0.6706579327583313
-4.259343147277832 -47.139373779296875 -2.4003729820251465
-1.385524868965149 -47.32858657836914 -2.401259660720825
-0.4254492223262787 -47.35285568237305 -2.4015557765960693
1.49554443359375 -47.34278106689453 -2.402148723602295
2.4556639194488525 -47.30854797363281 -2.402445077896118
5.158674240112305 -45.5767822265625 -2.326148271560669
5.885712623596191 -43.99615478515625 -2.2511072158813477
8.569941520690918 -43.657718658447266 -2.2563183307647705
8.238412857055664 -37.88666534423828 -1.966292381286621
8.593974113464355 -33.01150131225586 -1.7299542427062988
8.593989372253418 -30.46361541748047 -1.605237364768982
8.593998908996582 -28.257490158081055 -1.4978680610656738
8.594023704528809 -24.62289047241211 -1.3226021528244019
-2.284782648086548 -32.666046142578125 -2.4009976387023926
-0.9583740234375 -32.73746871948242 -2.40140700340271
1.0343579053878784 -32.743473052978516 -2.402022123336792
1.6983373165130615 -32.71858215332031 -2.4022269248962402
2.361745595932007 -32.68021774291992 -2.4024317264556885
3.024279832839966 -32.628353118896484 -2.4026362895965576
3.6856932640075684 -32.56306838989258 -2.4028406143188477
4.345698356628418 -32.484375 -2.4030444622039795
4.772070407867432 -30.890777587890625 -2.2918434143066406
6.53161096572876 -30.03744125366211 -2.2538790702819824
7.143125057220459 -29.914249420166016 -2.255044460296631
8.593823432922363 -26.326704025268555 -2.030571460723877
8.303153991699219 -22.323705673217773 -1.7463762760162354
-1.7450902462005615 -24.94999122619629 -2.401172637939453
-1.238867163658142 -24.981868743896484 -2.4013285636901855
0.28257322311401367 -25.01584815979004 -2.4017982482910156
0.789868175983429 -25.006610870361328 -2.4019548892974854
2.814582347869873 -24.866796493530273 -2.4025797843933105
3.821181535720825 -24.735437393188477 -2.402890682220459
4.322314262390137 -24.654409408569336 -2.403045415878296
4.982123851776123 -22.911685943603516 -2.2510361671447754
6.370934963226318 -22.58340835571289 -2.2527389526367188
6.829743385314941 -22.456527709960938 -2.253439426422119
7.286015510559082 -22.320297241210938 -2.254133462905884
7.739533424377441 -22.1746826171875 -2.2548210620880127
8.18539047241211 -22.007083892822266 -2.254199981689453
-2.226862668991089 -20.09004020690918 -2.401029109954834
-1.4104809761047363 -20.16592788696289 -2.4012808799743652
-0.18165282905101776 -20.21756362915039 -2.401660203933716
0.2284252941608429 -20.218185424804688 -2.4017865657806396
0.6384350657463074 -20.21044921875 -2.4019131660461426
1.8665038347244263 -20.137372970581055 -2.402292251586914
2.274646043777466 -20.096471786499023 -2.402418375015259
3.0880420207977295 -19.989749908447266 -2.4026694297790527
4.773806095123291 -18.337339401245117 -2.250821113586426
5.145556449890137 -18.239757537841797 -2.2511913776397705
5.880817890167236 -18.015615463256836 -2.251133441925049
6.245324611663818 -17.89354133605957 -2.251246213912964
-1.8669627904891968 -16.8433780670166 -2.4011435508728027
-1.1824681758880615 -16.906728744506836 -2.4013547897338867
-0.49596190452575684 -16.942272186279297 -2.401566505432129
0.8788134455680847 -16.929731369018555 -2.4019908905029297
2.248342275619507 -16.8057918548584 -2.402413845062256
3.2663989067077637 -16.640165328979492 -2.4027280807495117
4.930478572845459 -16.211637496948242 -2.4008967876434326
5.395126819610596 -15.457663536071777 -2.319756031036377
5.639699459075928 -15.162782669067383 -2.292198657989502
-1.3117578029632568 -14.517348289489746 -2.401319980621338
-0.13097411394119263 -14.578112602233887 -2.401683807373047
0.1647045910358429 -14.57831859588623 -2.4017748832702637
1.0509741306304932 -14.542990684509277 -2.402048349380493
1.3457080125808716 -14.519237518310547 -2.40213942527771
1.6390306949615479 -14.48949146270752 -2.4022297859191895
2.2266674041748047 -14.412172317504883 -2.402411699295044
3.0990233421325684 -14.251710891723633 -2.4026808738708496
3.3875463008880615 -14.186455726623535 -2.4027698040008545
4.526713848114014 -13.86730670928955 -2.40312123298645
4.807185173034668 -13.773141860961914 -2.403208017349243
5.085705280303955 -13.673315048217773 -2.4032938480377197
-1.1497020721435547 -12.724088668823242 -2.4013726711273193
-0.6327978372573853 -12.761083602905273 -2.4015321731567383
-0.11479248106479645 -12.777097702026367 -2.4016919136047363
0.4034692347049713 -12.772090911865234 -2.4018514156341553
0.6624364852905273 -12.76170825958252 -2.4019312858581543
0.9211401343345642 -12.74608325958252 -2.4020111560821533
1.1794872283935547 -12.72519588470459 -2.4020907878875732
1.6946606636047363 -12.667724609375 -2.402249813079834
1.9512939453125 -12.63117790222168 -2.4023287296295166
2.2071287631988525 -12.589411735534668 -2.402407646179199
2.7160253524780273 -12.490373611450195 -2.402564525604248
3.220515012741089 -12.370756149291992 -2.4027202129364014
3.4708471298217773 -12.303297996520996 -2.4027974605560303
3.967177629470825 -12.153204917907715 -2.4029507637023926
4.212966442108154 -12.070630073547363 -2.403026580810547
-0.7926928400993347 -11.333297729492188 -2.401484251022339
-0.10207275301218033 -11.361528396606445 -2.4016971588134766
0.3587670922279358 -11.357001304626465 -2.401839256286621
0.5890356302261353 -11.347719192504883 -2.4019103050231934
1.2780932188034058 -11.29190444946289 -2.402122735977173
1.7350585460662842 -11.231447219848633 -2.402263641357422
2.189223527908325 -11.152497291564941 -2.4024038314819336
2.4150171279907227 -11.10612964630127 -2.4024734497070312
2.639841318130493 -11.055182456970215 -2.40254282951355
2.863581418991089 -10.999690055847168 -2.40261173248291
3.3074755668640137 -10.875127792358398 -2.4027488231658936
3.745986223220825 -10.732669830322266 -2.402884006500244
3.9629833698272705 -10.654787063598633 -2.4029510021209717
-0.506091296672821 -10.20591926574707 -2.401573896408081
0.1154492124915123 -10.218622207641602 -2.4017655849456787
0.3226708769798279 -10.21445083618164 -2.401829481124878
0.529772937297821 -10.206080436706543 -2.401893138885498
1.1494970321655273 -10.155787467956543 -2.4020843505859375
1.5604809522628784 -10.10135555267334 -2.4022111892700195
1.9689306020736694 -10.030287742614746 -2.402337074279785
2.172001838684082 -9.98855209350586 -2.402399778366089
2.3741869926452637 -9.942705154418945 -2.4024620056152344
2.5754077434539795 -9.89277172088623 -2.40252423286438
2.775580883026123 -9.838754653930664 -2.402585983276367
3.1724438667297363 -9.71860122680664 -2.4027082920074463
3.5641260147094727 -9.582440376281738 -2.402829170227051
-1.0217993259429932 -9.21835994720459 -2.401416063308716
-0.6471630930900574 -9.25266170501709 -2.401531457901001
-0.2714208960533142 -9.271738052368164 -2.4016473293304443
0.48087888956069946 -9.26413345336914 -2.40187931060791
0.6686791777610779 -9.252694129943848 -2.4019370079040527
1.23016357421875 -9.195575714111328 -2.4021103382110596
1.4164379835128784 -9.168959617614746 -2.402167797088623
1.7871801853179932 -9.104409217834473 -2.4022819995880127
1.9715014696121216 -9.066507339477539 -2.402338981628418
2.8795628547668457 -8.821375846862793 -2.4026191234588623
3.057939291000366 -8.761358261108398 -2.4026741981506348
3.2350683212280273 -8.697735786437988 -2.402728796005249
-0.9345507621765137 -8.431243896484375 -2.4014439582824707
-0.7633910775184631 -8.448647499084473 -2.401496410369873
-0.5919018387794495 -8.462579727172852 -2.4015495777130127
-0.4201611280441284 -8.473031044006348 -2.401602268218994
-0.07621826231479645 -8.48346996307373 -2.4017083644866943
0.4398120045661926 -8.472970962524414 -2.401867389678955
1.125100016593933 -8.410201072692871 -2.402078866958618
1.465295433998108 -8.358019828796387 -2.4021835327148438
1.8031078577041626 -8.292082786560059 -2.4022879600524902
2.304145574569702 -8.167623519897461 -2.402442455291748
2.469365119934082 -8.119386672973633 -2.402493476867676
2.6335766315460205 -8.067806243896484 -2.4025440216064453
2.7967114448547363 -8.01290225982666 -2.4025943279266357
2.9586987495422363 -7.954702377319336 -2.402644395828247
-0.544787585735321 -7.788947105407715 -2.401564836502075
-0.3867163062095642 -7.798550128936768 -2.401613473892212
0.2465551644563675 -7.804873466491699 -2.401808500289917
0.40479734539985657 -7.798425674438477 -2.401857376098633
0.7207372784614563 -7.775911808013916 -2.4019546508789062
0.8783080577850342 -7.75985050201416 -2.402003526687622
1.0355199575424194 -7.740596771240234 -2.4020516872406006
1.1923143863677979 -7.718162536621094 -2.402100086212158
1.8140063285827637 -7.596758842468262 -2.402292013168335
1.96774160861969 -7.558560848236084 -2.402339458465576
2.120664119720459 -7.517244815826416 -2.4023866653442383
2.5740013122558594 -7.374810695648193 -2.402526378631592
2.723088264465332 -7.321234703063965 -2.4025726318359375
-0.7959252595901489 -7.180594444274902 -2.4014880657196045
-0.6501513719558716 -7.195394039154053 -2.4015328884124756
-0.21142089366912842 -7.222018241882324 -2.401668071746826
-0.0649096667766571 -7.22495698928833 -2.4017131328582764
0.08162597566843033 -7.224923133850098 -2.4017584323883057
0.22813963890075684 -7.221917629241943 -2.401803493499756
0.8127050399780273 -7.180215835571289 -2.4019837379455566
0.9581689238548279 -7.162393569946289 -2.4020285606384277
1.2478857040405273 -7.117908954620361 -2.402117967605591
1.5355639457702637 -7.061714172363281 -2.4022066593170166
2.1029319763183594 -6.914544582366943 -2.4023818969726562
2.2427709102630615 -6.870602130889893 -2.4024248123168945
2.3816919326782227 -6.823824882507324 -2.402467727661133
2.5196337699890137 -6.774240016937256 -2.402510404586792
-0.7398388385772705 -6.674605369567871 -2.401505708694458
-0.4685766398906708 -6.699351787567139 -2.4015893936157227
-0.3326196074485779 -6.7075934410095215 -2.4016313552856445
-0.19652099907398224 -6.713077068328857 -2.4016733169555664
-0.06033691391348839 -6.715797424316406 -2.4017152786254883
0.07587402313947678 -6.715760231018066 -2.40175724029541
0.7554247975349426 -6.674156188964844 -2.4019665718078613
0.89063960313797 -6.657581806182861 -2.402008295059204
1.0254955291748047 -6.638265132904053 -2.402050018310547
1.1599291563034058 -6.616215705871582 -2.4020915031433105
1.2938915491104126 -6.5914435386657715 -2.402132749557495
1.4273266792297363 -6.563959121704102 -2.4021737575531006
1.9546972513198853 -6.4271368980407715 -2.402336597442627
2.213798761367798 -6.3427958488464355 -2.402416706085205
-0.5639477372169495 -6.241395950317383 -2.4015605449676514
-0.3103906214237213 -6.259335041046143 -2.4016385078430176
-0.0563061498105526 -6.266975402832031 -2.401716947555542
0.07080566138029099 -6.266932964324951 -2.4017560482025146
0.4517773389816284 -6.251335144042969 -2.4018735885620117
0.7049340605735779 -6.228077411651611 -2.401951551437378
1.082399845123291 -6.173985481262207 -2.4020678997039795
1.2074072360992432 -6.150864601135254 -2.402106523513794
1.4558911323547363 -6.0970330238342285 -2.4021830558776855
1.5792675018310547 -6.066349506378174 -2.402221202850342
1.7019970417022705 -6.033167362213135 -2.402259111404419
1.8240331411361694 -5.997505187988281 -2.402296781539917
1.9453197717666626 -5.959372043609619 -2.402334213256836
2.065812826156616 -5.918787002563477 -2.402371406555176
2.1854515075683594 -5.875763893127441 -2.4024083614349365
-0.6464526057243347 -5.832062721252441 -2.4015355110168457
-0.4094287157058716 -5.85365629196167 -2.401608467102051
-0.17171141505241394 -5.865623474121094 -2.401681661605835
-0.05271728336811066 -5.867990970611572 -2.4017183780670166
0.18529053032398224 -5.865479469299316 -2.40179181098938
0.3042089641094208 -5.860607147216797 -2.4018282890319824
0.4230078160762787 -5.853321552276611 -2.401865243911743
0.7781909108161926 -5.817032337188721 -2.401974678039551
1.247109293937683 -5.7351813316345215 -2.4021191596984863
2.046281576156616 -5.5015788078308105 -2.4023659229278564
-0.6070824861526489 -5.476909637451172 -2.401547908782959
-0.3844946324825287 -5.4971795082092285 -2.4016165733337402
-0.1612573266029358 -5.508405685424805 -2.4016854763031006
0.2856811583042145 -5.503673076629639 -2.4018232822418213
0.3972485363483429 -5.496827125549316 -2.401857614517212
0.5086498856544495 -5.48771858215332 -2.4018919467926025
0.7307934165000916 -5.462733745574951 -2.4019603729248047
0.8414428234100342 -5.446866512298584 -2.401994466781616
0.9517504572868347 -5.4287590980529785 -2.4020285606384277
1.0616674423217773 -5.408414840698242 -2.40206241607666
1.1711474657058716 -5.385848045349121 -2.4020962715148926
1.2801513671875 -5.36106538772583 -2.402129888534546
1.3886327743530273 -5.334074974060059 -2.40216326713562
1.710488200187683 -5.239978313446045 -2.4022626876831055
-0.571582019329071 -5.156662464141846 -2.401559352874756
-0.4668920934200287 -5.16726016998291 -2.4015915393829346
-0.362006813287735 -5.175735950469971 -2.4016239643096924
-0.25697264075279236 -5.182085037231445 -2.40165638923645
-0.1518261730670929 -5.186299800872803 -2.401688575744629
-0.04661376774311066 -5.188383102416992 -2.401721239089966
0.05861572176218033 -5.18833065032959 -2.4017534255981445
0.3740161061286926 -5.1753740310668945 -2.401850700378418
0.7922289967536926 -5.128317832946777 -2.401979684829712
0.99957275390625 -5.092108726501465 -2.4020438194274902
1.3074194192886353 -5.022102355957031 -2.4021387100219727
1.4090161323547363 -4.994618892669678 -2.402169942855835
1.510036587715149 -4.965081214904785 -2.4022011756896973
1.6104443073272705 -4.933497428894043 -2.4022321701049805
1.7101879119873047 -4.899888038635254 -2.4022629261016846
1.8092284202575684 -4.864258766174316 -2.4022934436798096
-0.539379894733429 -4.8661298751831055 -2.401569366455078
-0.4405907988548279 -4.8761305809021 -2.401599884033203
-0.24249267578125 -4.890109539031982 -2.401660919189453
-0.14327147603034973 -4.894084453582764 -2.401691436767578
0.15459471940994263 -4.893929481506348 -2.4017834663391113
0.25382325053215027 -4.889848709106445 -2.4018139839172363
0.3529394567012787 -4.883757591247559 -2.4018445014953613
0.45191648602485657 -4.875656604766846 -2.4018750190734863
0.5507177710533142 -4.865550994873047 -2.4019055366516113
0.6492822170257568 -4.853442668914795 -2.4019360542297363
0.7475878596305847 -4.83933687210083 -2.401966094970703
0.8455908298492432 -4.823240756988525 -2.401996612548828
1.0405175685882568 -4.785103797912598 -2.4020566940307617
1.137363314628601 -4.763075828552246 -2.4020864963531494
1.329614281654358 -4.713149547576904 -2.4021458625793457
1.7072679996490479 -4.590124130249023 -2.4022624492645264
-0.5100048780441284 -4.601109504699707 -2.401578903198242
-0.4165942370891571 -4.610560417175293 -2.4016075134277344
-0.3230053782463074 -4.6181159019470215 -2.4016363620758057
-0.1354663074016571 -4.627527236938477 -2.4016942977905273
0.14617919921875 -4.627370357513428 -2.4017810821533203
0.2399951070547104 -4.623509407043457 -2.4018101692199707
0.6139184236526489 -4.589072227478027 -2.4019253253936768
0.7068700790405273 -4.575734615325928 -2.401953935623169
0.98384028673172 -4.524443626403809 -2.4020395278930664
1.0754077434539795 -4.503612041473389 -2.4020676612854004
1.1665356159210205 -4.480929374694824 -2.4020957946777344
1.4368994235992432 -4.40185546875 -2.40217924118042
1.5258935689926147 -4.371860504150391 -2.4022066593170166
1.6142627000808716 -4.340066909790039 -2.4022340774536133
-0.3945947289466858 -4.367090225219727 -2.4016146659851074
-0.30594968795776367 -4.374245643615723 -2.401641845703125
-0.21717773377895355 -4.3795976638793945 -2.401669502258301
-0.03939453139901161 -4.384904384613037 -2.401724100112915
0.1384570300579071 -4.382996082305908 -2.4017789363861084
0.2273217737674713 -4.379336357116699 -2.401806354522705
0.3160937428474426 -4.373874187469482 -2.4018337726593018
0.4932177662849426 -4.357555866241455 -2.401888370513916
0.581494152545929 -4.346705913543701 -2.4019155502319336
0.6695361137390137 -4.334069728851318 -2.401942729949951
0.7573046684265137 -4.319647789001465 -2.4019699096679688
0.9318749904632568 -4.285480976104736 -2.4020237922668457
1.0186059474945068 -4.265748023986816 -2.402050495147705
1.104921817779541 -4.244258880615234 -2.4020771980285645
1.2761547565460205 -4.196052551269531 -2.402129888534546
1.3610033988952637 -4.169353485107422 -2.402156114578247
1.528994083404541 -4.110823154449463 -2.402207851409912
-0.3743335008621216 -4.142853260040283 -2.401621103286743
-0.2060253918170929 -4.154715061187744 -2.4016730785369873
-0.037370603531599045 -4.159740924835205 -2.4017250537872314
0.21564696729183197 -4.154452800750732 -2.4018030166625977
0.2998608350753784 -4.149269104003906 -2.4018290042877197
0.38395261764526367 -4.142379283905029 -2.401854991912842
0.4678881764411926 -4.133785247802734 -2.4018807411193848
0.6351537704467773 -4.1114983558654785 -2.40193247795105
0.7184130549430847 -4.097815990447998 -2.4019579887390137
0.8013818264007568 -4.082447528839111 -2.4019837379455566
0.8840185403823853 -4.065398216247559 -2.4020092487335205
1.1296263933181763 -4.004247188568115 -2.4020848274230957
1.2911059856414795 -3.9552245140075684 -2.402134895324707
1.450466275215149 -3.899693489074707 -2.402184009552002
