ply
format ascii 1.0
element vertex 244
property float x
property float y
property float z
end_header
2.905283212661743 -18.720975875854492 2.902276039123535
9.766708374023438 -44.721126556396484 -1.2889351844787598
10.020830154418945 -41.78620910644531 -1.2099685668945312
10.314199447631836 -36.40684509277344 -1.0654810667037964
6.807880878448486 -43.86827087402344 -2.2513742446899414
7.699423789978027 -43.721981048583984 -2.2514405250549316
9.61629867553711 -40.099403381347656 -2.091315984725952
9.840194702148438 -28.074447631835938 -1.508699893951416
9.597909927368164 -22.817035675048828 -1.2553571462631226
9.802762985229492 -22.038089752197266 -1.2232218980789185
9.858193397521973 -21.001049041748047 -1.176555871963501
9.98617172241211 -18.282365798950195 -1.0564734935760498
10.26229476928711 -17.095325469970703 -1.011192798614502
5.330019474029541 -30.267147064208984 -2.253398895263672
5.944990158081055 -30.153038024902344 -2.2534468173980713
7.167363166809082 -29.887462615966797 -2.253547430038452
7.774277210235596 -29.73616600036621 -2.253600597381592
8.3779878616333 -29.57247543334961 -2.253655433654785
8.978290557861328 -29.39659881591797 -2.253711700439453
9.786239624023438 -27.920501708984375 -2.169300079345703
9.787519454956055 -26.20330810546875 -2.050933837890625
9.74160099029541 -24.544496536254883 -1.9362212419509888
9.80062484741211 -22.03329086303711 -1.7681407928466797
9.615829467773438 -19.44583511352539 -1.5906082391738892
10.210810661315918 -17.00956153869629 -1.4546377658843994
3.601064443588257 -23.20439338684082 -2.254403591156006
4.072597503662109 -23.126684188842773 -2.2544384002685547
4.542460918426514 -23.03940773010254 -2.2544748783111572
6.401328086853027 -22.595293045043945 -2.254634380340576
6.859941482543945 -22.460779190063477 -2.2546775341033936
7.315751552581787 -22.316972732543945 -2.2547218799591064
8.218134880065918 -22.00170135498047 -2.254814624786377
8.6643648147583 -21.83039093017578 -2.2548630237579346
9.107001304626465 -21.65001678466797 -2.2549123764038086
9.777040481567383 -20.82817268371582 -2.208953380584717
9.807138442993164 -19.83271026611328 -2.124112367630005
9.59952163696289 -18.45772361755371 -1.9973596334457397
2.911269426345825 -18.759490966796875 -2.255037546157837
3.29248046875 -18.696697235107422 -2.2550790309906006
3.6723241806030273 -18.6260986328125 -2.255112886428833
4.050693035125732 -18.547767639160156 -2.255143404006958
4.802177429199219 -18.36810874938965 -2.2552077770233154
5.545800685882568 -18.158039093017578 -2.255276679992676
6.280292987823486 -17.91790199279785 -2.255349636077881
6.643730163574219 -17.78669548034668 -2.255387544631958
7.004453182220459 -17.64812660217285 -2.2554266452789307
7.362246036529541 -17.502241134643555 -2.2554664611816406
8.416933059692383 -17.0213623046875 -2.2555923461914062
9.750907897949219 -16.243467330932617 -2.250453233718872
3.39336895942688 -15.538026809692383 -2.253462076187134
4.334511756896973 -15.299897193908691 -2.2531487941741943
5.259003639221191 -15.004128456115723 -2.2527313232421875
5.56286096572876 -14.892950057983398 -2.2525691986083984
5.864306449890137 -14.775501251220703 -2.2523956298828125
6.753173828125 -14.386411666870117 -2.2518081665039062
7.043857097625732 -14.244622230529785 -2.2515900135040283
7.331523418426514 -14.096893310546875 -2.251361131668091
7.61608362197876 -13.943294525146484 -2.2511215209960938
8.17529296875 -13.618732452392578 -2.250610113143921
2.094189405441284 -13.49448013305664 -2.2496793270111084
2.6415722370147705 -13.398093223571777 -2.2496817111968994
3.189833879470825 -13.30141544342041 -2.2533926963806152
3.4747068881988525 -13.29052734375 -2.2630615234375
3.7638280391693115 -13.285505294799805 -2.274777412414551
4.352636814117432 -13.277907371520996 -2.3019227981567383
6.464335918426514 -13.07267951965332 -2.402498483657837
6.72912073135376 -12.938590049743652 -2.4025275707244873
6.991005897521973 -12.79911994934082 -2.4025561809539795
2.472050666809082 -12.538229942321777 -2.402064085006714
3.2325878143310547 -12.36446475982666 -2.402147054672241
3.4835643768310547 -12.29625415802002 -2.402174711227417
4.227499961853027 -12.061196327209473 -2.4022560119628906
4.472118854522705 -11.97280502319336 -2.40228271484375
4.714882850646973 -11.8794527053833 -2.4023091793060303
4.955702781677246 -11.781164169311523 -2.4023356437683105
5.194482326507568 -11.67801284790039 -2.4023616313934326
5.431113243103027 -11.570013046264648 -2.4023876190185547
5.665507793426514 -11.45721435546875 -2.4024133682250977
1.7426073551177979 -11.228951454162598 -2.4019861221313477
2.198134660720825 -11.148969650268555 -2.402035713195801
2.650038957595825 -11.05051040649414 -2.402085065841675
2.874404191970825 -10.994412422180176 -2.4021096229553223
3.0975682735443115 -10.933747291564941 -2.4021339416503906
3.319462776184082 -10.868558883666992 -2.402158260345459
3.539990186691284 -10.798867225646973 -2.4021823406219482
3.759042978286743 -10.724700927734375 -2.4022064208984375
3.976552724838257 -10.64609146118164 -2.4022302627563477
4.406552791595459 -10.475668907165527 -2.4022772312164307
4.829277038574219 -10.287874221801758 -2.4023234844207764
5.243994235992432 -10.083032608032227 -2.4023687839508057
5.650058269500732 -9.86147689819336 -2.4024133682250977
5.849628925323486 -9.744543075561523 -2.402435064315796
1.9769823551177979 -10.027297973632812 -2.402012825012207
2.3834080696105957 -9.938726425170898 -2.40205717086792
2.585214853286743 -9.88825511932373 -2.4020793437957764
3.1838183403015137 -9.712356567382812 -2.40214467048645
3.3808300495147705 -9.645637512207031 -2.4021661281585693
3.7705955505371094 -9.500247955322266 -2.4022088050842285
4.154111385345459 -9.339110374450684 -2.4022507667541504
4.53079080581665 -9.162498474121094 -2.402292013168335
4.716347694396973 -9.068471908569336 -2.4023125171661377
4.899950981140137 -8.970694541931152 -2.4023325443267822
5.26101541519165 -8.764016151428223 -2.402372121810913
1.7945165634155273 -9.10183334350586 -2.401993989944458
2.1634373664855957 -9.021425247192383 -2.402034282684326
2.3465917110443115 -8.975605010986328 -2.4020543098449707
2.5287792682647705 -8.92606258392334 -2.4020743370056152
2.7099218368530273 -8.872825622558594 -2.4020938873291016
2.889941453933716 -8.81591796875 -2.402113676071167
3.246347665786743 -8.691157341003418 -2.4021525382995605
3.422558546066284 -8.623364448547363 -2.4021718502044678
3.597353458404541 -8.551998138427734 -2.402190923690796
3.770683526992798 -8.477086067199707 -2.402209997177124
4.280995845794678 -8.231411933898926 -2.402265787124634
4.775380611419678 -7.955039978027344 -2.402320146560669
1.3011474609375 -8.384276390075684 -2.4019410610198975
1.4715087413787842 -8.356122016906738 -2.4019596576690674
1.6412596702575684 -8.324512481689453 -2.401978015899658
1.810341715812683 -8.28945255279541 -2.401996612548828
1.9786815643310547 -8.250958442687988 -2.402014970779419
2.312822103500366 -8.163732528686523 -2.4020514488220215
2.4784862995147705 -8.11503791809082 -2.402069568634033
2.643134593963623 -8.062981605529785 -2.402087450027466
2.80669903755188 -8.007583618164062 -2.4021055698394775
3.130253791809082 -7.8868608474731445 -2.4021408557891846
3.4486327171325684 -7.753066062927246 -2.4021756649017334
3.605712890625 -7.681334018707275 -2.4021928310394287
3.915361166000366 -7.528357982635498 -2.4022269248962402
4.067782878875732 -7.447169780731201 -2.4022433757781982
1.354345679283142 -7.690879821777344 -2.401947498321533
1.5105907917022705 -7.661778926849365 -2.4019644260406494
1.6662157773971558 -7.6295037269592285 -2.4019815921783447
1.821142554283142 -7.59406852722168 -2.401998519897461
2.5832324028015137 -7.37005090713501 -2.4020817279815674
3.0281639099121094 -7.198842525482178 -2.402130365371704
3.3186426162719727 -7.069753170013428 -2.4021623134613037
3.4618358612060547 -7.000802516937256 -2.4021778106689453
3.6036131381988525 -6.928948879241943 -2.402193307876587
3.743886709213257 -6.854222774505615 -2.4022088050842285
4.019755840301514 -6.696282863616943 -2.4022390842437744
1.2532031536102295 -7.116421222686768 -2.4019370079040527
1.3977636098861694 -7.089491844177246 -2.4019529819488525
1.8277685642242432 -6.991132736206055 -2.4019999504089355
1.9696776866912842 -6.952537536621094 -2.402015209197998
2.110771417617798 -6.911056995391846 -2.4020307064056396
2.390263557434082 -6.819530963897705 -2.4020612239837646
2.8019628524780273 -6.661098957061768 -2.402106523513794
3.070742130279541 -6.541646957397461 -2.4021356105804443
3.203242063522339 -6.477842330932617 -2.4021501541137695
3.3344335556030273 -6.411353588104248 -2.4021646976470947
1.0300146341323853 -6.637177467346191 -2.4019131660461426
1.1648730039596558 -6.614880084991455 -2.401927947998047
1.43310546875 -6.562081336975098 -2.4019572734832764
1.6989550590515137 -6.498411178588867 -2.4019863605499268
1.8308544158935547 -6.462528705596924 -2.402000904083252
2.221806526184082 -6.338891506195068 -2.402043581008911
2.604482412338257 -6.191617965698242 -2.402085304260254
2.7299609184265137 -6.137373924255371 -2.402099132537842
2.85430645942688 -6.0805816650390625 -2.4021127223968506
3.0994043350219727 -5.959462642669678 -2.40213942527771
0.9611718654632568 -6.1935882568359375 -2.4019062519073486
1.5854052305221558 -6.064083576202393 -2.4019744396209717
1.952490210533142 -5.956146717071533 -2.4020144939422607
2.073300838470459 -5.915215492248535 -2.4020276069641113
2.1932616233825684 -5.871829032897949 -2.402040719985962
2.430410146713257 -5.777781963348389 -2.402066707611084
2.547490119934082 -5.727158069610596 -2.4020795822143555
2.663525342941284 -5.674161911010742 -2.402092456817627
2.8922362327575684 -5.561135768890381 -2.4021174907684326
1.1352245807647705 -5.757887840270996 -2.401925802230835
1.3685985803604126 -5.706985950469971 -2.401951313018799
1.599707007408142 -5.646625995635986 -2.4019763469696045
1.8281737565994263 -5.576914310455322 -2.40200138092041
1.9412988424301147 -5.538586139678955 -2.4020137786865234
2.053603410720825 -5.497960090637207 -2.4020259380340576
2.385380744934082 -5.36249303817749 -2.40206241607666
2.601630687713623 -5.261041641235352 -2.402086019515991
2.708144426345825 -5.207037448883057 -2.402097702026367
2.8134961128234863 -5.150873184204102 -2.402109146118164
0.9557812213897705 -5.427756309509277 -2.4019064903259277
1.2852978706359863 -5.359401702880859 -2.401942491531372
1.3941991329193115 -5.332164764404297 -2.401954412460327
1.5022753477096558 -5.302717208862305 -2.401966094970703
1.6098779439926147 -5.271073341369629 -2.401978015899658
1.8232665061950684 -5.201247215270996 -2.40200138092041
2.1370506286621094 -5.0803961753845215 -2.402035713195801
2.240000009536743 -5.035877704620361 -2.4020469188690186
2.342031240463257 -4.989273548126221 -2.4020581245422363
2.4430859088897705 -4.940602779388428 -2.402069091796875
2.5431346893310547 -4.889885902404785 -2.4020800590515137
2.740039110183716 -4.7823944091796875 -2.402101516723633
1.2100781202316284 -5.045985698699951 -2.4019346237182617
1.6164257526397705 -4.930966854095459 -2.4019789695739746
1.8157470226287842 -4.861151695251465 -2.402000904083252
2.0126171112060547 -4.783270359039307 -2.402022361755371
2.205068349838257 -4.6974897384643555 -2.402043342590332
2.3002147674560547 -4.6516642570495605 -2.4020538330078125
2.487607479095459 -4.554250240325928 -2.4020743370056152
0.7509130835533142 -4.838656425476074 -2.4018847942352295
0.8492236137390137 -4.822394847869873 -2.401895523071289
1.1418993473052979 -4.761655330657959 -2.4019274711608887
1.619726538658142 -4.621129512786865 -2.401979684829712
1.7134374380111694 -4.587230205535889 -2.4019899368286133
1.8064403533935547 -4.551432132720947 -2.4019999504089355
2.080800771713257 -4.432784557342529 -2.4020302295684814
2.170585870742798 -4.38953971862793 -2.4020400047302246
2.2594823837280273 -4.344477653503418 -2.4020495414733887
2.4344139099121094 -4.248970031738281 -2.402068853378296
2.520390510559082 -4.19856595993042 -2.40207839012146
0.7100048661231995 -4.575104236602783 -2.4018805027008057
0.8029687404632568 -4.559728145599365 -2.401890754699707
0.8956005573272705 -4.542461395263672 -2.4019007682800293
0.9878515601158142 -4.523313999176025 -2.4019110202789307
1.0797021389007568 -4.502294540405273 -2.401921033859253
1.1710985898971558 -4.479407787322998 -2.401931047439575
1.2620214223861694 -4.4546661376953125 -2.4019408226013184
1.4422607421875 -4.399659156799316 -2.401960611343384
1.6201074123382568 -4.3373613357543945 -2.40198016166687
2.219560384750366 -4.063516616821289 -2.402045726776123
2.3017969131469727 -4.017519950866699 -2.402054786682129
0.6725048422813416 -4.3334879875183105 -2.40187668800354
0.7605615258216858 -4.318919658660889 -2.401886463165283
0.8482958674430847 -4.302567005157471 -2.4018959999084473
1.0226757526397705 -4.264516830444336 -2.4019150733947754
1.1092529296875 -4.242839336395264 -2.4019246101379395
1.3660839796066284 -4.167300224304199 -2.4019525051116943
1.4506102800369263 -4.138652801513672 -2.4019618034362793
1.5345312356948853 -4.108293533325195 -2.401970863342285
1.617836833000183 -4.076229572296143 -2.40198016166687
1.7004590034484863 -4.042477607727051 -2.401988983154297
1.7823681831359863 -4.007050514221191 -2.4019980430603027
1.9439648389816284 -3.931234121322632 -2.4020156860351562
2.102343797683716 -3.8489012718200684 -2.4020330905914307
2.180244207382202 -3.8053343296051025 -2.4020416736602783
0.7215039134025574 -4.097138404846191 -2.4018824100494385
0.9701611399650574 -4.04552698135376 -2.401909589767456
1.0522948503494263 -4.024959564208984 -2.401918649673462
1.1339892148971558 -4.002727508544922 -2.4019274711608887
1.4557372331619263 -3.8973193168640137 -2.4019627571105957
1.767861247062683 -3.7660911083221436 -2.401996612548828
1.8441405296325684 -3.7293505668640137 -2.402005195617676
1.9196581840515137 -3.6910624504089355 -2.4020133018493652
2.0682811737060547 -3.6099140644073486 -2.4020297527313232
2.1413183212280273 -3.5670886039733887 -2.4020376205444336
