ply
format ascii 1.0
element vertex 845
property float x
property float y
property float z
end_header
-9.29076862335205 4.225144386291504 -2.398735284805298
-9.453169822692871 3.8475005626678467 -2.39868426322937
-9.528643608093262 3.65630841255188 -2.3986599445343018
-9.667973518371582 3.2695744037628174 -2.3986151218414307
-9.731776237487793 3.074183940887451 -2.398594379425049
-9.899418830871582 2.4808740615844727 -2.3985400199890137
-9.947311401367188 2.2809948921203613 -2.398524522781372
-10.098395347595215 1.4730663299560547 -2.398474931716919
-10.125978469848633 1.269397497177124 -2.398465871810913
-10.184072494506836 0.6556261777877808 -2.398446559906006
-10.195194244384766 0.45039427280426025 -2.3984427452087402
8.06100845336914 4.610050678253174 -2.4043474197387695
7.868627548217773 4.9307990074157715 -2.404285430908203
7.663476467132568 5.243518352508545 -2.404219388961792
7.332536220550537 5.696442127227783 -2.4041125774383545
7.096970081329346 5.986915588378906 -2.404036521911621
6.974851131439209 6.1285247802734375 -2.4039971828460693
6.591716289520264 6.538177967071533 -2.4038734436035156
6.184555530548096 6.923895835876465 -2.4037420749664307
6.043742656707764 7.046909809112549 -2.403696298599243
5.754838943481445 7.2842912673950195 -2.4036030769348145
5.456621170043945 7.509824752807617 -2.4035067558288574
5.304162502288818 7.618030071258545 -2.4034574031829834
4.992883205413818 7.8251214027404785 -2.4033567905426025
4.510966777801514 8.11180591583252 -2.40320086479187
4.012639045715332 8.3688325881958 -2.4030396938323975
3.6722021102905273 8.523239135742188 -2.4029295444488525
3.4997363090515137 8.595269203186035 -2.4028737545013428
2.617609739303589 8.902495384216309 -2.402588367462158
2.2568750381469727 9.000244140625 -2.4024715423583984
1.5251195430755615 9.151772499084473 -2.4022345542907715
1.3404736518859863 9.180397987365723 -2.402174711227417
0.22398924827575684 9.273650169372559 -2.40181303024292
-0.33637693524360657 9.269550323486328 -2.4016315937042236
-0.5229663252830505 9.260662078857422 -2.401571035385132
-0.7093481421470642 9.248018264770508 -2.401510715484619
-0.8954223394393921 9.231627464294434 -2.4014503955841064
-1.0811303853988647 9.211490631103516 -2.4013900756835938
-1.2663915157318115 9.187616348266602 -2.4013302326202393
-1.8187304735183716 9.093705177307129 -2.401151180267334
-2.3643505573272705 8.966630935668945 -2.4009742736816406
-2.723376512527466 8.863712310791016 -2.40085768699646
-3.0779614448547363 8.746439933776855 -2.400742769241333
-3.4275121688842773 8.614985466003418 -2.4006292819976807
-3.600231885910034 8.544012069702148 -2.400573253631592
-4.275732517242432 8.225829124450684 -2.4003541469573975
-4.440427303314209 8.137871742248535 -2.4003007411956787
-5.388354301452637 7.542278289794922 -2.3999929428100586
-5.687470436096191 7.3188796043396 -2.399895668029785
-6.11868143081665 6.9616827964782715 -2.3997557163238525
-6.393820762634277 6.709394931793213 -2.3996663093566895
-6.52752685546875 6.5791497230529785 -2.399622678756714
-6.658581256866455 6.446235656738281 -2.399580240249634
-6.912528991699219 6.172662734985352 -2.3994975090026855
-7.155256271362305 5.889090061187744 -2.3994193077087402
-7.272294521331787 5.743711471557617 -2.399381399154663
-7.386379241943359 5.596008777618408 -2.3993446826934814
-7.49746561050415 5.446035861968994 -2.399308919906616
-7.605512619018555 5.2938737869262695 -2.3992745876312256
-7.910976409912109 4.824761390686035 -2.3991780281066895
-8.006440162658691 4.664404392242432 -2.3991472721099854
-8.098651885986328 4.502166271209717 -2.399117946624756
-8.27319049835205 4.17228364944458 -2.3990631103515625
-8.355448722839355 4.004786491394043 -2.399036407470703
-8.509760856628418 3.6649863719940186 -2.3989861011505127
-8.581762313842773 3.4928343296051025 -2.3989627361297607
-8.71529769897461 3.144362211227417 -2.398919105529785
-8.834704399108887 2.790806293487549 -2.3988802433013916
-8.986913681030273 2.2521910667419434 -2.3988304138183594
-9.138823509216309 1.5216448307037354 -2.3987815380096436
-9.192622184753418 1.1523919105529785 -2.398764133453369
-9.213937759399414 0.9670263528823853 -2.398757219314575
-9.231523513793945 0.7812658548355103 -2.3987512588500977
-9.245366096496582 0.5952392220497131 -2.3987467288970947
-9.255463600158691 0.40888121724128723 -2.3987433910369873
7.371945858001709 4.215978145599365 -2.4041240215301514
6.91033411026001 4.935418128967285 -2.403975248336792
6.809453010559082 5.073514938354492 -2.403942584991455
6.599435806274414 5.343461036682129 -2.4038748741149902
6.490380764007568 5.4752020835876465 -2.403839588165283
6.02834939956665 5.979379177093506 -2.4036903381347656
5.396237850189209 6.554568290710449 -2.4034860134124756
5.263044357299805 6.6617960929870605 -2.4034430980682373
5.127722263336182 6.766310214996338 -2.4033992290496826
4.990326881408691 6.86807918548584 -2.4033548831939697
4.850913047790527 6.9670562744140625 -2.4033098220825195
4.709528923034668 7.063196182250977 -2.403264045715332
4.421105861663818 7.246836185455322 -2.4031708240509033
3.9752025604248047 7.500126361846924 -2.403026580810547
3.8232762813568115 7.5785064697265625 -2.402977466583252
3.669802188873291 7.653809070587158 -2.402927875518799
3.514843702316284 7.726003646850586 -2.4028778076171875
3.200737237930298 7.860941410064697 -2.4027762413024902
3.0417137145996094 7.923635482788086 -2.4027247428894043
2.881464719772339 7.983114242553711 -2.40267276763916
2.393996477127075 8.142005920410156 -2.402514934539795
2.2294921875 8.188384056091309 -2.4024617671966553
2.064091682434082 8.231436729431152 -2.4024081230163574
1.8978588581085205 8.271151542663574 -2.4023544788360596
1.730861783027649 8.307509422302246 -2.4023003578186035
1.5631762742996216 8.340492248535156 -2.4022459983825684
1.3948583602905273 8.370095252990723 -2.402191638946533
1.056616187095642 8.419092178344727 -2.4020819664001465
0.3756372034549713 8.47603702545166 -2.4018614292144775
0.20485839247703552 8.481684684753418 -2.401806116104126
0.034003905951976776 8.483898162841797 -2.4017508029937744
-0.3076538145542145 8.477991104125977 -2.4016401767730713
-0.6487792730331421 8.458338737487793 -2.401529550552368
-0.8189648389816284 8.443367004394531 -2.4014744758605957
-0.988818347454071 8.424965858459473 -2.4014194011688232
-1.15826416015625 8.403148651123047 -2.401364326477051
-1.830568790435791 8.281929969787598 -2.401146411895752
-1.9969457387924194 8.243200302124023 -2.401092529296875
-2.1624975204467773 8.20113468170166 -2.401038646697998
-2.4908862113952637 8.107039451599121 -2.4009323120117188
-2.6535887718200684 8.055052757263184 -2.400879383087158
-2.9756786823272705 7.941313743591309 -2.4007749557495117
-3.134941339492798 7.87960958480835 -2.400723457336426
-4.357707500457764 7.2734246253967285 -2.4003264904022217
-4.503215312957764 7.184047222137451 -2.4002792835235596
-4.788674354553223 6.996606826782227 -2.400186538696289
-4.928510665893555 6.898617267608643 -2.4001410007476807
-5.06634521484375 6.7978386878967285 -2.4000964164733887
-5.202118873596191 6.694309711456299 -2.400052309036255
-5.335785865783691 6.5880632400512695 -2.4000089168548584
-5.46728515625 6.479156970977783 -2.399966239929199
-5.848244667053223 6.136889934539795 -2.3998427391052246
-6.090434551239014 5.8962016105651855 -2.3997645378112793
-6.322734355926514 5.645991802215576 -2.3996899127960205
-6.435060977935791 5.5174360275268555 -2.399653911590576
-6.544775009155273 5.3866376876831055 -2.3996188640594482
-6.756191253662109 5.118569850921631 -2.3995518684387207
-7.052658557891846 4.70107889175415 -2.399456024169922
-7.145810604095459 4.558034420013428 -2.399425745010376
-7.236086368560791 4.413153171539307 -2.399397611618042
-7.489094257354736 3.9680192470550537 -2.3993165493011475
-7.642653465270996 3.663140058517456 -2.3992667198181152
-7.714799404144287 3.5084478855133057 -2.3992433547973633
-8.028082847595215 2.714986562728882 -2.3991410732269287
-8.081071853637695 2.552741527557373 -2.3991236686706543
-8.130788803100586 2.389463424682617 -2.3991074562072754
-8.220314979553223 2.0600762367248535 -2.399078130722046
-8.260087966918945 1.8941020965576172 -2.3990652561187744
-8.296521186828613 1.7273638248443604 -2.3990530967712402
-8.408488273620605 1.0540918111801147 -2.3990161418914795
-8.456732749938965 0.5444274544715881 -2.3990001678466797
-8.465978622436523 0.3740026652812958 -2.3989970684051514
6.704948425292969 4.015853404998779 -2.4039082527160645
6.53765869140625 4.282505989074707 -2.4038541316986084
6.450009822845459 4.413247108459473 -2.4038259983062744
6.359745979309082 4.54218864440918 -2.403796672821045
6.171528339385986 4.7944865226745605 -2.403735876083374
5.973286151885986 5.0389838218688965 -2.403671979904175
5.657870769500732 5.390252113342285 -2.4035699367523193
5.54809045791626 5.503019332885742 -2.403534412384033
5.321821212768555 5.721800804138184 -2.403461456298828
5.205434322357178 5.827724933624268 -2.40342378616333
5.086938381195068 5.931284427642822 -2.403385639190674
4.96636962890625 6.032425880432129 -2.403346538543701
4.719262599945068 6.227321147918701 -2.403266668319702
4.592812538146973 6.320988178253174 -2.403225898742676
4.334399223327637 6.500585079193115 -2.4031424522399902
4.202529430389404 6.5864410400390625 -2.403099536895752
3.9337377548217773 6.750089645385742 -2.403012752532959
3.234914541244507 7.110683917999268 -2.4027867317199707
2.9458324909210205 7.234905242919922 -2.402693271636963
2.7994799613952637 7.2926225662231445 -2.402646064758301
2.651994466781616 7.347372055053711 -2.4025981426239014
2.5034399032592773 7.399143695831299 -2.402550220489502
2.353876829147339 7.4479079246521 -2.402501344680786
2.0519604682922363 7.536346912384033 -2.4024035930633545
1.4387084245681763 7.676398277282715 -2.402204990386963
1.1283715963363647 7.727786064147949 -2.402104616165161
0.97248774766922 7.748779773712158 -2.4020540714263916
0.6596337556838989 7.7813286781311035 -2.4019527435302734
0.5027807354927063 7.7928690910339355 -2.401901960372925
0.3457324206829071 7.801248073577881 -2.401850938796997
0.18854735791683197 7.806464195251465 -2.4018001556396484
0.03129394352436066 7.808513641357422 -2.4017491340637207
-0.12595947086811066 7.8073954582214355 -2.401698350906372
-0.44023436307907104 7.795654773712158 -2.4015963077545166
-0.7537768483161926 7.771275043487549 -2.4014947414398193
-0.9101073741912842 7.754354476928711 -2.4014439582824707
-1.2215869426727295 7.711092948913574 -2.4013431072235107
-1.8380126953125 7.5871405601501465 -2.4011433124542236
-1.990393042564392 7.548434257507324 -2.4010939598083496
-2.1419677734375 7.506666660308838 -2.4010446071624756
-2.292656183242798 7.461854457855225 -2.4009957313537598
-2.591181516647339 7.363183975219727 -2.4008989334106445
-2.738884210586548 7.309357166290283 -2.400851011276245
-2.8854687213897705 7.2525763511657715 -2.400803565979004
-3.175060987472534 7.130217552185059 -2.400709390640259
-3.73827862739563 6.851064682006836 -2.400526762008667
-4.144931316375732 6.612460136413574 -2.400394916534424
-4.277170181274414 6.527531147003174 -2.4003520011901855
-4.407678127288818 6.4399566650390625 -2.4003098011016846
-4.53640604019165 6.3497772216796875 -2.400268077850342
-4.663251876831055 6.257029056549072 -2.4002270698547363
-4.788261413574219 6.161737442016602 -2.400186538696289
-5.032346248626709 5.963723659515381 -2.4001078605651855
-5.151379108428955 5.8610663414001465 -2.40006947517395
-5.495607852935791 5.53906774520874 -2.399959087371826
-5.605964183807373 5.427184104919434 -2.3999240398406982
-5.714042663574219 5.313117027282715 -2.3998897075653076
-5.819799900054932 5.196887493133545 -2.399855375289917
-6.12273645401001 4.835783958435059 -2.399756908416748
-6.3123459815979 4.585181713104248 -2.399695634841919
-6.577465534210205 4.1955060958862305 -2.3996119499206543
-6.660546779632568 4.062150955200195 -2.399585008621216
-6.740927696228027 3.9271464347839355 -2.3995585441589355
-6.818581581115723 3.7905547618865967 -2.39953351020813
-6.893468856811523 3.652427911758423 -2.3995089530944824
-7.225400447845459 2.940784215927124 -2.3994009494781494
-7.389623641967773 2.499068021774292 -2.3993473052978516
-7.438405513763428 2.349729061126709 -2.399331569671631
-7.484172344207764 2.199436664581299 -2.3993165493011475
-7.526901721954346 2.0482561588287354 -2.3993024826049805
-7.56658411026001 1.8962475061416626 -2.399289608001709
-7.694506645202637 1.281160831451416 -2.399247646331787
-7.718722820281982 1.125942349433899 -2.3992395401000977
-7.792731761932373 0.3442614674568176 -2.399214744567871
6.277385234832764 3.590006113052368 -2.4037697315216064
6.203754901885986 3.715660810470581 -2.4037461280822754
6.048972129821777 3.962385892868042 -2.403696060180664
5.967858791351318 4.083357334136963 -2.403669834136963
5.884365081787109 4.202666759490967 -2.4036426544189453
5.710216999053955 4.436111927032471 -2.4035866260528564
5.234992504119873 4.9873762130737305 -2.403433084487915
5.029763221740723 5.194002151489258 -2.4033665657043457
4.924077033996582 5.294163227081299 -2.403332471847534
4.706750392913818 5.487997531890869 -2.4032623767852783
4.249589920043945 5.848609924316406 -2.4031145572662354
3.5132176876068115 6.317607879638672 -2.402876377105713
3.3852148056030273 6.386967182159424 -2.4028351306915283
3.2558445930480957 6.453737258911133 -2.4027931690216064
2.9932055473327637 6.579379081726074 -2.4027082920074463
2.86004638671875 6.6382036209106445 -2.402665138244629
2.5903148651123047 6.747749328613281 -2.4025778770446777
2.31640625 6.84633207321167 -2.402489423751831
1.616247534751892 7.043856620788574 -2.4022629261016846
1.331240177154541 7.102952003479004 -2.402170419692993
1.0440820455551147 7.150521755218506 -2.4020769596099854
0.8998461961746216 7.169960021972656 -2.4020302295684814
0.7552563548088074 7.186487197875977 -2.4019832611083984
0.1744702160358429 7.223390579223633 -2.401794910430908
0.028957519680261612 7.2252960205078125 -2.401747941970825
-0.11655028909444809 7.224276542663574 -2.401700735092163
-0.26201415061950684 7.2203192710876465 -2.401653528213501
-0.6974804401397705 7.190896511077881 -2.401512384414673
-0.9864575266838074 7.1566996574401855 -2.401418685913086
-1.1303613185882568 7.135244369506836 -2.401371955871582
-1.2738085985183716 7.110891342163086 -2.4013254642486572
-1.7007641792297363 7.020595073699951 -2.4011871814727783
-1.8417675495147705 6.984783172607422 -2.401141405105591
-1.982031226158142 6.946145534515381 -2.4010958671569824
-2.121469736099243 6.904694080352783 -2.401050567626953
-2.2600414752960205 6.860442161560059 -2.401005744934082
-2.6700291633605957 6.7110819816589355 -2.4008729457855225
-3.070256233215332 6.5372514724731445 -2.400743246078491
-3.5861082077026367 6.268542766571045 -2.40057635307312
-3.7115478515625 6.194952964782715 -2.400536060333252
-3.8355395793914795 6.118833541870117 -2.400496006011963
-4.19778299331665 5.8757853507995605 -2.4003794193267822
-4.315234184265137 5.789958953857422 -2.400341749191284
-4.430849552154541 5.701803684234619 -2.4003047943115234
-5.187551021575928 5.0221171379089355 -2.400059700012207
-5.385439395904541 4.809020042419434 -2.3999955654144287
-5.481127738952637 4.699527263641357 -2.3999648094177246
-5.574587345123291 4.588128089904785 -2.3999342918395996
-5.754726409912109 4.359817981719971 -2.3998770713806152
-5.841254711151123 4.242990016937256 -2.3998496532440186
-6.08660364151001 3.8824048042297363 -2.3997702598571777
-6.163491249084473 3.7590038776397705 -2.399745225906372
-6.237880706787109 3.6340770721435547 -2.399721145629883
-6.309738636016846 3.5076823234558105 -2.399697780609131
-6.379045486450195 3.3798675537109375 -2.399675130844116
-6.509858131408691 3.120187997817993 -2.399632692337036
-6.57131814956665 2.988424062728882 -2.3996126651763916
-6.686223030090332 2.7213385105133057 -2.3995752334594727
-6.925705432891846 2.03531551361084 -2.3994970321655273
-6.965251445770264 1.8954168558120728 -2.399484157562256
-7.035861492156982 1.6133763790130615 -2.399460792541504
-7.142770767211914 1.0419268608093262 -2.399425745010376
-7.192607402801514 0.6087109446525574 -2.399409055709839
-7.203393459320068 0.4637383818626404 -2.3994054794311523
-7.211259841918945 0.3185742199420929 -2.3994028568267822
5.766213417053223 3.4536027908325195 -2.40360426902771
5.469369888305664 3.9062750339508057 -2.4035086631774902
5.307507038116455 4.123261451721191 -2.403455972671509
5.137055397033691 4.333550930023193 -2.4034008979797363
4.675082683563232 4.827732563018799 -2.4032516479492188
4.374858379364014 5.101016044616699 -2.4031546115875244
3.949943780899048 5.436220169067383 -2.403017282485962
3.614313840866089 5.664557456970215 -2.4029088020324707
3.49944806098938 5.73610782623291 -2.402871608734131
3.383173704147339 5.805326461791992 -2.402834177017212
3.265519857406616 5.872190475463867 -2.4027960300445557
3.026298761367798 5.998732089996338 -2.4027187824249268
2.9048314094543457 6.0583648681640625 -2.402679443359375
2.407709836959839 6.272058486938477 -2.4025185108184814
2.2808690071105957 6.319169044494629 -2.402477741241455
2.024482488632202 6.405668258666992 -2.4023947715759277
1.7648266553878784 6.48177433013916 -2.402310848236084
1.6339037418365479 6.5158843994140625 -2.402268409729004
1.2373998165130615 6.602302551269531 -2.402139902114868
0.7020239233970642 6.679986953735352 -2.4019668102264404
0.5673388838768005 6.692647933959961 -2.401923418045044
0.432441383600235 6.7025933265686035 -2.4018795490264893
0.1621752828359604 6.714327812194824 -2.401792049407959
-0.6483300924301147 6.684181213378906 -2.40152907371521
-0.9169506430625916 6.652407646179199 -2.401441812515259
-1.4492309093475342 6.5565690994262695 -2.4012694358825684
-1.5808569192886353 6.5259599685668945 -2.401226758956909
-1.971923828125 6.418248653411865 -2.4011001586914062
-2.2287840843200684 6.333395481109619 -2.401017189025879
-2.3559374809265137 6.287092685699463 -2.4009759426116943
-2.6070189476013184 6.186938762664795 -2.400895118713379
-2.8539135456085205 6.076748371124268 -2.400815486907959
-3.215524911880493 5.89302921295166 -2.40069842338562
-3.333503246307373 5.8269829750061035 -2.400660276412964
-3.5653369426727295 5.687840938568115 -2.400585174560547
-3.7913818359375 5.539480686187744 -2.4005119800567627
-4.118769645690918 5.300206661224365 -2.4004058837890625
-4.224614143371582 5.216104030609131 -2.400371551513672
-4.328737735748291 5.129896640777588 -2.4003376960754395
-4.431115627288818 5.041606903076172 -2.4003045558929443
-4.630417346954346 4.85895299911499 -2.400240182876587
-4.822209358215332 4.668424129486084 -2.4001779556274414
-4.915178298950195 4.570306777954102 -2.4001479148864746
-5.006166934967041 4.470340251922607 -2.400118350982666
-5.095119476318359 4.368564128875732 -2.400090217590332
-5.266787052154541 4.1597466468811035 -2.400035858154297
-5.429904460906982 3.9441959857940674 -2.3999829292297363
-5.65798807144165 3.609006881713867 -2.3999087810516357
-5.798620700836182 3.3781700134277344 -2.3998630046844482
-5.865424633026123 3.26068115234375 -2.39984130859375
-5.991869926452637 3.021782875061035 -2.3998000621795654
-6.051462173461914 2.900477886199951 -2.399780750274658
-6.163261413574219 2.6543939113616943 -2.3997442722320557
-6.265065670013428 2.4040141105651855 -2.3997111320495605
-6.312170505523682 2.277346134185791 -2.399695634841919
-6.356711387634277 2.1497528553009033 -2.3996810913085938
-6.39867639541626 2.021287679672241 -2.399667501449585
-6.438054084777832 1.8920049667358398 -2.3996546268463135
-6.508959770202637 1.6311986446380615 -2.3996315002441406
-6.54046106338501 1.4997754096984863 -2.39962100982666
-6.569308757781982 1.3677520751953125 -2.399611711502075
-6.619016170501709 1.1020879745483398 -2.399595260620117
-6.639845848083496 0.968565046787262 -2.3995883464813232
-6.657990455627441 0.8346471786499023 -2.3995823860168457
-6.673437118530273 0.7003918290138245 -2.3995771408081055
-6.686174392700195 0.5658514499664307 -2.3995730876922607
-6.696208477020264 0.4310857951641083 -2.399569511413574
-6.70352029800415 0.29614439606666565 -2.399567127227783
5.444428443908691 3.1136419773101807 -2.4034998416900635
5.380571365356445 3.2226269245147705 -2.4034793376922607
5.314533710479736 3.330303907394409 -2.4034581184387207
5.029106140136719 3.747037172317505 -2.4033660888671875
4.952573299407959 3.8475170135498047 -2.40334153175354
4.626679420471191 4.233406066894531 -2.403235673904419
4.540439128875732 4.325671672821045 -2.403207778930664
4.452348709106445 4.4161810874938965 -2.403179407119751
4.362458229064941 4.5048980712890625 -2.4031503200531006
4.270798206329346 4.591781139373779 -2.403120756149292
4.177399635314941 4.676799297332764 -2.403090476989746
3.787294864654541 4.9975433349609375 -2.4029643535614014
3.6858325004577637 5.07273006439209 -2.4029316902160645
3.582880735397339 5.145857334136963 -2.4028983116149902
3.3726561069488525 5.2858123779296875 -2.4028303623199463
3.047187328338623 5.479584217071533 -2.4027252197265625
2.596181631088257 5.7066850662231445 -2.4025793075561523
2.4806933403015137 5.757719039916992 -2.4025418758392334
2.364203929901123 5.806422710418701 -2.4025044441223145
2.246752977371216 5.852764129638672 -2.402466297149658
2.1283934116363525 5.896728992462158 -2.402428150177002
2.0091772079467773 5.938301086425781 -2.4023895263671875
1.8891478776931763 5.977461338043213 -2.402350664138794
1.7683593034744263 6.014198303222656 -2.4023115634918213
1.6468554735183716 6.048492908477783 -2.4022722244262695
1.4019018411636353 6.109701633453369 -2.402193069458008
0.7805200219154358 6.219162940979004 -2.401992082595825
0.5294213891029358 6.245339870452881 -2.4019107818603516
0.2774902284145355 6.261379718780518 -2.401829242706299
0.02512206882238388 6.2672624588012695 -2.401747465133667
-0.4792797863483429 6.248535633087158 -2.4015841484069824
-0.6050097346305847 6.23750638961792 -2.401543617248535
-0.7304857969284058 6.223951816558838 -2.401502847671509
-1.1049267053604126 6.1681742668151855 -2.401381731033325
-1.3523755073547363 6.11847448348999 -2.401301622390747
-1.4752978086471558 6.0898942947387695 -2.401261806488037
-1.8402416706085205 5.989401340484619 -2.401143789291382
-2.548588752746582 5.7233428955078125 -2.400914192199707
-2.88940167427063 5.558751583099365 -2.400804042816162
-3.0007128715515137 5.49934720993042 -2.4007678031921387
-3.2196483612060547 5.373889446258545 -2.4006969928741455
-3.3271679878234863 5.307886123657227 -2.4006619453430176
-3.433344602584839 5.239727020263672 -2.400627613067627
-3.6414501667022705 5.097075462341309 -2.400560140609741
-3.7433080673217773 5.022638320922852 -2.400527238845825
-3.8436474800109863 4.946166038513184 -2.4004948139190674
-3.9424266815185547 4.867691993713379 -2.4004626274108887
-4.135141372680664 4.704859733581543 -2.400400400161743
-4.228999137878418 4.62056827545166 -2.400369882583618
-4.321139812469482 4.534411430358887 -2.4003398418426514
-4.411535739898682 4.446415424346924 -2.400310754776001
-4.671806335449219 4.171773433685303 -2.400228261947632
-4.835913181304932 3.980165958404541 -2.400175094604492
-4.992163181304932 3.782119035720825 -2.4001243114471436
-5.140312194824219 3.5779504776000977 -2.400076150894165
-5.411372184753418 3.1525652408599854 -2.3999879360198975
-5.473720550537109 3.042926073074341 -2.399967670440674
-5.591725826263428 2.8199853897094727 -2.3999292850494385
-5.700666427612305 2.5924792289733887 -2.3998939990997314
-5.932223796844482 2.006195545196533 -2.3998184204101562
-6.103713035583496 1.39962637424469 -2.3997621536254883
-6.155080318450928 1.1526910066604614 -2.399745464324951
-6.213400840759277 0.7789154052734375 -2.399726152420044
-6.227817058563232 0.653623640537262 -2.399721384048462
-6.239711761474609 0.5280651450157166 -2.399717330932617
-6.249067306518555 0.40230101346969604 -2.399714231491089
-6.255896091461182 0.27636656165122986 -2.399711847305298
5.097565650939941 2.9152727127075195 -2.4033873081207275
4.9759521484375 3.118133544921875 -2.403348445892334
4.912104606628418 3.217684745788574 -2.403327703475952
4.846266746520996 3.3159265518188477 -2.403306484222412
4.488146781921387 3.7861437797546387 -2.403191089630127
4.410942077636719 3.8757243156433105 -2.4031662940979004
4.331945896148682 3.963726043701172 -2.4031405448913574
3.911306142807007 4.3788909912109375 -2.4030041694641113
3.822280168533325 4.456718444824219 -2.40297532081604
3.731706380844116 4.532736778259277 -2.4029459953308105
3.6396167278289795 4.6069135665893555 -2.402916431427002
3.451066732406616 4.749619483947754 -2.402855396270752
3.256911516189575 4.884607315063477 -2.4027926921844482
3.157841682434082 4.949143409729004 -2.4027607440948486
2.8531150817871094 5.130586624145508 -2.4026620388031006
2.5379905700683594 5.293281555175781 -2.402560234069824
2.3227124214172363 5.3910369873046875 -2.4024906158447266
2.213637590408325 5.436638832092285 -2.4024553298950195
2.1036643981933594 5.480037212371826 -2.4024198055267334
1.9928539991378784 5.521206378936768 -2.402384042739868
1.8812304735183716 5.560135841369629 -2.4023478031158447
1.7688452005386353 5.596808433532715 -2.4023115634918213
0.613391101360321 5.836617946624756 -2.40193772315979
0.3778442442417145 5.8563995361328125 -2.4018614292144775
0.14169920980930328 5.866677761077881 -2.401785135269165
-0.09466063976287842 5.867438316345215 -2.4017086029052734
-0.33085203170776367 5.858682155609131 -2.401632070541382
-0.4487646520137787 5.850737571716309 -2.4015939235687256
-0.8012011647224426 5.812685966491699 -2.401479959487915
-0.9180810451507568 5.795282363891602 -2.401442050933838
-1.1506786346435547 5.753427028656006 -2.401366710662842
-1.381386637687683 5.70224666595459 -2.401292085647583
-1.4959204196929932 5.673182964324951 -2.401254892349243
-1.6098437309265137 5.641819477081299 -2.4012179374694824
-1.723110318183899 5.6081695556640625 -2.40118145942688
-1.8356761932373047 5.5722479820251465 -2.4011449813842773
-2.0585155487060547 5.4936394691467285 -2.4010727405548096
-2.168703556060791 5.450990676879883 -2.4010369777679443
-2.278002977371216 5.406126022338867 -2.4010016918182373
-2.600175619125366 5.258481979370117 -2.400897264480591
-2.705512523651123 5.20497465133667 -2.4008631706237793
-2.912834405899048 5.091658115386963 -2.4007959365844727
-3.3129565715789795 4.8404741287231445 -2.4006664752960205
-3.409721612930298 4.772714138031006 -2.400635004043579
-3.5051023960113525 4.703016757965088 -2.400604248046875
-3.6915478706359863 4.55794095993042 -2.400543689727783
-3.7825512886047363 4.482616901397705 -2.4005143642425537
-4.130835056304932 4.163491249084473 -2.4004030227661133
-4.374555587768555 3.9063286781311035 -2.4003241062164307
-4.674530982971191 3.541478157043457 -2.4002268314361572
-4.944184303283691 3.1537017822265625 -2.400139093399048
-5.125471115112305 2.8493266105651855 -2.4000802040100098
-5.2880539894104 2.534574031829834 -2.400027275085449
-5.337990760803223 2.427548885345459 -2.4000110626220703
-5.385756492614746 2.3195409774780273 -2.3999955654144287
-5.62591552734375 1.6533355712890625 -2.3999171257019043
-5.687883377075195 1.4254302978515625 -2.3998968601226807
-5.715412616729736 1.3105865716934204 -2.399887800216675
-5.740627288818359 1.1952178478240967 -2.3998794555664062
-5.7635178565979 1.079358458518982 -2.399871826171875
-5.784067153930664 0.9630663990974426 -2.39986515045166
-5.831628322601318 0.6120428442955017 -2.3998494148254395
-5.842763423919678 0.49447324872016907 -2.399845600128174
4.786916255950928 2.7376134395599365 -2.403286933898926
4.354494571685791 3.382884979248047 -2.4031474590301514
4.285446643829346 3.469863176345825 -2.403125286102295
4.142158031463623 3.6395530700683594 -2.4030792713165283
4.067985534667969 3.722198963165283 -2.403055191040039
3.83569073677063 3.960923433303833 -2.402980327606201
3.672988176345825 4.1120781898498535 -2.4029273986816406
3.589372396469116 4.1851677894592285 -2.402899980545044
3.417861223220825 4.326216220855713 -2.4028444290161133
3.3299999237060547 4.394118785858154 -2.4028160572052
3.240793466567993 4.460233211517334 -2.402787208557129
3.150280714035034 4.524540424346924 -2.4027578830718994
3.058478832244873 4.587007999420166 -2.402728319168091
2.77581524848938 4.7631378173828125 -2.402637004852295
2.6792919635772705 4.8180131912231445 -2.4026057720184326
2.581679582595825 4.8709282875061035 -2.402574062347412
2.383371591567993 4.970810890197754 -2.402509927749634
2.18121337890625 5.062617778778076 -2.40244460105896
2.078791379928589 5.105445861816406 -2.402411699295044
1.9755223989486694 5.146203994750977 -2.4023780822753906
1.8714550733566284 5.184871196746826 -2.4023444652557373
1.661098599433899 5.255880832672119 -2.4022765159606934
1.5548925399780273 5.2881927490234375 -2.4022421836853027
1.3406347036361694 5.346362590789795 -2.402172803878784
1.0153124332427979 5.41732120513916 -2.4020674228668213
0.9059985280036926 5.436591148376465 -2.4020321369171143
0.6863085627555847 5.468502521514893 -2.401961088180542
0.022087402641773224 5.510862350463867 -2.4017462730407715
-0.19984374940395355 5.507114887237549 -2.401674270629883
-0.3107006847858429 5.501892566680908 -2.4016385078430176
-0.42143309116363525 5.494440078735352 -2.4016025066375732
-0.9715917706489563 5.423832416534424 -2.4014244079589844
-1.297277808189392 5.355034828186035 -2.4013190269470215
-1.618190884590149 5.266698360443115 -2.401215076446533
-1.72390615940094 5.232965469360352 -2.4011809825897217
-1.9331835508346558 5.159156799316406 -2.4011130332946777
-2.0366575717926025 5.119104385375977 -2.4010796546936035
-2.1393089294433594 5.0769805908203125 -2.4010462760925293
-2.241091251373291 5.0327982902526855 -2.4010133743286133
-2.4418725967407227 4.9383368492126465 -2.4009485244750977
-2.5407934188842773 4.888091087341309 -2.400916337966919
-2.7355077266693115 4.781686305999756 -2.400853157043457
-2.8312108516693115 4.725564956665039 -2.400822162628174
-3.0191380977630615 4.607599258422852 -2.400761365890503
-3.291738271713257 4.41672420501709 -2.4006731510162354
-3.4668455123901367 4.280488014221191 -2.4006173610687256
-3.7998950481414795 3.987435817718506 -2.400510311126709
-3.8793821334838867 3.910062789916992 -2.400484323501587
-3.9573020935058594 3.831096649169922 -2.400459051132202
-4.033603191375732 3.7505908012390137 -2.4004342555999756
-4.108283519744873 3.668560743331909 -2.4004101753234863
-4.181289196014404 3.5850443840026855 -2.400386333465576
-4.322182655334473 3.4136931896209717 -2.4003405570983887
-4.456061840057373 3.236811399459839 -2.400297164916992
-4.520307540893555 3.146388530731201 -2.4002761840820312
-4.701930999755859 2.8676226139068604 -2.400217294692993
-4.813522815704346 2.6759119033813477 -2.4001808166503906
-4.866403579711914 2.578411817550659 -2.4001636505126953
-4.917306900024414 2.479868173599243 -2.4001471996307373
-4.966217994689941 2.380319118499756 -2.4001312255859375
-5.013117790222168 2.27980637550354 -2.400115966796875
-5.0579833984375 2.178375244140625 -2.4001011848449707
-5.100800514221191 2.076058864593506 -2.400087356567383
-5.216767311096191 1.7642388343811035 -2.4000494480133057
-5.283530235290527 1.552716612815857 -2.4000277519226074
-5.367590427398682 1.2308269739151 -2.4000003337860107
-5.43206787109375 0.9044573903083801 -2.3999791145324707
-5.449167251586914 0.794879138469696 -2.3999733924865723
-5.476735591888428 0.5747961401939392 -2.3999643325805664
-5.487194538116455 0.4643810987472534 -2.39996075630188
-5.495429515838623 0.3537823259830475 -2.3999578952789307
4.506821155548096 2.5774285793304443 -2.403196096420288
4.3428635597229 2.8448033332824707 -2.4031431674957275
4.284663200378418 2.9316625595092773 -2.4031245708465576
4.224719047546387 3.017332077026367 -2.4031052589416504
4.099716663360596 3.1849565505981445 -2.4030649662017822
4.034707069396973 3.2668468952178955 -2.4030439853668213
3.8998119831085205 3.426612377166748 -2.4030003547668457
3.829972982406616 3.5044219493865967 -2.40297794342041
3.7585887908935547 3.5808067321777344 -2.4029550552368164
3.611269474029541 3.7291862964630127 -2.402907609939575
3.4580981731414795 3.8715038299560547 -2.402858018875122
3.37939453125 3.940321683883667 -2.4028327465057373
3.299323558807373 4.007534503936768 -2.402806520462036
3.2178955078125 4.073123455047607 -2.402780294418335
3.135183095932007 4.137054920196533 -2.4027533531188965
3.05120849609375 4.199306488037109 -2.4027259349823
2.8795628547668457 4.31866979598999 -2.40267014503479
2.703249454498291 4.431020259857178 -2.402613401412964
2.6134350299835205 4.4845099449157715 -2.4025840759277344
2.430666446685791 4.586000919342041 -2.4025251865386963
2.337780714035034 4.633963584899902 -2.4024951457977295
2.243959903717041 4.6800456047058105 -2.4024646282196045
2.0536229610443115 4.766488552093506 -2.4024031162261963
1.957189917564392 4.806819438934326 -2.402372121810913
1.8599658012390137 4.845195770263672 -2.4023406505584717
1.7619872093200684 4.881603240966797 -2.402308940887451
1.563942790031433 4.948467254638672 -2.402244806289673
1.4639452695846558 4.978895664215088 -2.402212381362915
1.16058349609375 5.0580010414123535 -2.4021143913269043
0.9559326171875 5.100490093231201 -2.402048110961914
0.7497411966323853 5.134707450866699 -2.4019813537597656
0.64617919921875 5.148695468902588 -2.4019479751586914
0.3340771496295929 5.178097248077393 -2.4018468856811523
-0.08369872719049454 5.187894821166992 -2.4017117023468018
-0.18815673887729645 5.185087203979492 -2.4016778469085693
-0.396796852350235 5.173158645629883 -2.4016103744506836
-0.5008886456489563 5.164045810699463 -2.401576519012451
-0.6047753691673279 5.152838706970215 -2.401543140411377
-1.0174243450164795 5.087174415588379 -2.40140962600708
-1.119655728340149 5.065585136413574 -2.401376485824585
-1.3226977586746216 5.0162482261657715 -2.401310682296753
-1.42343008518219 4.988527297973633 -2.401278018951416
-1.6231200695037842 4.927028179168701 -2.4012134075164795
-1.7219946384429932 4.8932719230651855 -2.401181221008301
-1.9175927639007568 4.819835662841797 -2.401118040084839
-2.484431028366089 4.5531768798828125 -2.4009344577789307
-2.5755956172943115 4.502161979675293 -2.400904893875122
-2.754750967025757 4.394687175750732 -2.4008469581604004
-2.842641592025757 4.338265895843506 -2.4008188247680664
-3.015002489089966 4.220180511474609 -2.400763750076294
-3.0993309020996094 4.158557415008545 -2.4007365703582764
-3.1824071407318115 4.095253944396973 -2.400710105895996
-3.2641966342926025 4.0302886962890625 -2.400683641433716
-3.423779249191284 3.8954875469207764 -2.400631904602051
-3.5777952671051025 3.754376173019409 -2.4005818367004395
-3.652641534805298 3.681525707244873 -2.400557518005371
-3.72601056098938 3.607180595397949 -2.400533676147461
-3.9369091987609863 3.375514507293701 -2.400465250015259
-4.004052639007568 3.295510768890381 -2.4004435539245605
-4.256123065948486 2.9625048637390137 -2.4003615379333496
-4.314885139465332 2.876166343688965 -2.4003424644470215
-4.427141189575195 2.700031042098999 -2.400305986404419
-4.532214164733887 2.5195274353027344 -2.4002716541290283
-4.720151424407959 2.146574020385742 -2.4002106189727783
-4.762397289276123 2.0510716438293457 -2.4001967906951904
-4.802714824676514 1.954734444618225 -2.40018367767334
-4.877482891082764 1.7597296237945557 -2.4001593589782715
-4.911911487579346 1.6611394882202148 -2.4001481533050537
-4.944345474243164 1.561875581741333 -2.400137424468994
-5.003188133239746 1.3614928722381592 -2.400118112564087
-5.0539231300354 1.1589007377624512 -2.400101661682129
-5.076222896575928 1.0568841695785522 -2.4000942707061768
-5.096462249755859 0.9544378519058228 -2.400087594985962
-5.114638328552246 0.8516039848327637 -2.4000816345214844
-5.166545391082764 0.43724608421325684 -2.40006422996521
-5.174299240112305 0.3331091105937958 -2.400061845779419
-5.179951190948486 0.22883544862270355 -2.400059938430786
4.202870845794678 2.5172557830810547 -2.403097629547119
4.151291370391846 2.601369619369507 -2.403080940246582
4.043107986450195 2.7663891315460205 -2.403046131134033
3.9865477085113525 2.8472282886505127 -2.4030280113220215
3.9283690452575684 2.9269115924835205 -2.4030091762542725
3.7443723678588867 3.1587047576904297 -2.402949810028076
3.5467114448547363 3.378950834274292 -2.402886390686035
3.11334228515625 3.7816386222839355 -2.4027464389801025
2.879221200942993 3.96260666847229 -2.4026708602905273
2.7172508239746094 4.0752458572387695 -2.402618169784546
2.5508739948272705 4.181270599365234 -2.402564287185669
2.466132640838623 4.231744766235352 -2.402536392211914
2.380380868911743 4.2805023193359375 -2.4025087356567383
2.2936668395996094 4.327523231506348 -2.4024806022644043
2.117487668991089 4.4162750244140625 -2.402423620223999
1.846889615058899 4.535910129547119 -2.4023361206054688
1.7551465034484863 4.5721282958984375 -2.40230655670166
1.5695605278015137 4.63898229598999 -2.4022464752197266
1.1910936832427979 4.750001907348633 -2.4021241664886475
1.0951855182647705 4.7729644775390625 -2.402092933654785
0.9988232254981995 4.7939910888671875 -2.402061939239502
0.8049389719963074 4.830198287963867 -2.4019992351531982
0.6097607016563416 4.858567237854004 -2.4019360542297363
0.4136084020137787 4.8790507316589355 -2.401872396469116
0.3152539134025574 4.886323928833008 -2.4018406867980957
0.21678465604782104 4.89162015914917 -2.401808977127075
0.1182275339961052 4.894928455352783 -2.4017770290374756
0.019621580839157104 4.8962507247924805 -2.401744842529297
-0.0789819285273552 4.89558744430542 -2.4017131328582764
-0.1775561422109604 4.892940998077393 -2.4016811847686768
-0.37444090843200684 4.881690979003906 -2.4016175270080566
-0.5707006454467773 4.862525939941406 -2.4015538692474365
-0.7660253643989563 4.8354716300964355 -2.4014906883239746
-0.8632421493530273 4.819002151489258 -2.401459217071533
-1.05657958984375 4.7802042961120605 -2.4013965129852295
-1.1526172161102295 4.7578959465026855 -2.4013655185699463
-1.4377539157867432 4.679434299468994 -2.401273250579834
-1.5316845178604126 4.649470329284668 -2.401242733001709
-1.8095703125 4.5483269691467285 -2.4011528491973877
-2.0808422565460205 4.430596351623535 -2.4010651111602783
-2.1696019172668457 4.387739181518555 -2.401036262512207
-2.344475030899048 4.29671049118042 -2.400980234146118
-2.4305248260498047 4.248575210571289 -2.4009528160095215
-2.682551145553589 4.093918800354004 -2.400871753692627
-2.764421224594116 4.039017677307129 -2.4008452892303467
-3.003166437149048 3.86460018157959 -2.4007678031921387
-3.0803539752960205 3.803298234939575 -2.400742769241333
-3.650324583053589 3.259617328643799 -2.40055775642395
-3.9006640911102295 2.955188035964966 -2.4004764556884766
-4.071894645690918 2.7141990661621094 -2.400420904159546
-4.228271484375 2.463313579559326 -2.4003701210021973
-4.323986530303955 2.2910168170928955 -2.400338888168335
-4.369221210479736 2.2034575939178467 -2.4003241062164307
-4.412680625915527 2.1150059700012207 -2.4003100395202637
-4.454355239868164 2.025698184967041 -2.400296449661255
-4.494225978851318 1.9355742931365967 -2.4002833366394043
-4.532268047332764 1.844661831855774 -2.40027117729187
-4.568476676940918 1.7530046701431274 -2.400259256362915
-4.602829456329346 1.6606390476226807 -2.4002480506896973
-4.635319709777832 1.5676007270812988 -2.4002373218536377
-4.694648265838623 1.379655122756958 -2.4002180099487305
-4.746364593505859 1.1894793510437012 -2.4002010822296143
-4.769343376159668 1.093644380569458 -2.400193691253662
-4.790385723114014 0.9973742365837097 -2.400186777114868
-4.809489727020264 0.9006951451301575 -2.4001803398132324
-4.855068206787109 0.6086346507072449 -2.400165319442749
-4.8663330078125 0.5107318162918091 -2.4001615047454834
-4.882944107055664 0.314352422952652 -2.400156021118164
-4.888278484344482 0.21595031023025513 -2.4001541137695312
3.973832845687866 2.3800768852233887 -2.4030232429504395
3.925063371658325 2.4596056938171387 -2.4030075073242188
3.874711751937866 2.5381383895874023 -2.402991533279419
3.8227856159210205 2.6156370639801025 -2.402974843978882
3.714296817779541 2.767413854598999 -2.402939796447754
3.657790422439575 2.8416333198547363 -2.402921438217163
3.59979248046875 2.914698362350464 -2.402902841567993
3.540334463119507 2.986578941345215 -2.402883768081665
3.479438304901123 3.0572471618652344 -2.4028642177581787
3.353447198867798 3.194828987121582 -2.4028236865997314
3.2220115661621094 3.3272197246551514 -2.4027812480926514
3.0853612422943115 3.4542064666748047 -2.4027371406555176
2.8710691928863525 3.634106397628784 -2.402667999267578
2.722341299057007 3.746699810028076 -2.4026198387145996
2.331794500350952 4.001185894012451 -2.402493715286255
2.250688314437866 4.0472917556762695 -2.4024672508239746
2.168691396713257 4.091750621795654 -2.4024407863616943
2.0021214485168457 4.175671100616455 -2.4023866653442383
1.8323071002960205 4.252809524536133 -2.4023313522338867
1.7462743520736694 4.2887983322143555 -2.402303457260132
1.3954076766967773 4.4152092933654785 -2.4021899700164795
1.3061864376068115 4.442359924316406 -2.402161121368408
1.1262084245681763 4.491248607635498 -2.4021029472351074
1.035524845123291 4.5129618644714355 -2.402073621749878
0.7610912919044495 4.567087173461914 -2.401984691619873
0.576550304889679 4.593918323516846 -2.4019250869750977
0.4839111268520355 4.60453987121582 -2.401895046234131
0.39107421040534973 4.613292694091797 -2.401865005493164
0.29808104038238525 4.620175838470459 -2.4018349647521973
0.20497557520866394 4.625184059143066 -2.4018049240112305
0.1117871105670929 4.62831449508667 -2.4017746448516846
-0.2610180675983429 4.622066974639893 -2.401654005050659
-0.3540429472923279 4.615816593170166 -2.4016239643096924
-0.44692137837409973 4.607692718505859 -2.4015939235687256
-0.5396215915679932 4.597700119018555 -2.401563882827759
-0.8162353038787842 4.556553840637207 -2.4014742374420166
-0.9078222513198853 4.53913688659668 -2.401444673538208
-0.9990404844284058 4.519877910614014 -2.4014151096343994
-1.1802098751068115 4.475872039794922 -2.4013564586639404
-1.2700952291488647 4.451140880584717 -2.40132737159729
-1.359462857246399 4.42460823059082 -2.4012985229492188
-1.4482738971710205 4.396279811859131 -2.4012696743011475
-1.5365111827850342 4.366171836853027 -2.4012410640716553
-1.797304630279541 4.2652764320373535 -2.4011573791503906
-1.9675756692886353 4.1893463134765625 -2.4011025428771973
-2.2168383598327637 4.0627570152282715 -2.401022434234619
-2.378596067428589 3.9701006412506104 -2.400969982147217
-2.4580419063568115 3.921354293823242 -2.400944232940674
-2.690253734588623 3.765653610229492 -2.4008688926696777
-2.765517473220825 3.710671901702881 -2.4008445739746094
-2.839655637741089 3.654191255569458 -2.40082049369812
-2.9126439094543457 3.5962274074554443 -2.40079665184021
-3.3247363567352295 3.2187085151672363 -2.400663137435913
-3.38885235786438 3.151074171066284 -2.4006423950195312
-3.451594114303589 3.0821611881256104 -2.4006218910217285
-3.51293683052063 3.0119988918304443 -2.400602102279663
-3.6313207149505615 2.8680436611175537 -2.4005637168884277
-3.7438108921051025 2.71944522857666 -2.400527000427246
-3.9011106491088867 2.48836350440979 -2.4004759788513184
-4.044167518615723 2.248216390609741 -2.4004292488098145
-4.088601112365723 2.1663012504577637 -2.4004149436950684
-4.13137674331665 2.0835094451904297 -2.4004008769989014
-4.211879730224609 1.9154309034347534 -2.4003748893737793
-4.285553932189941 1.7442498207092285 -2.40035080909729
-4.319794654846191 1.6575804948806763 -2.4003396034240723
-4.383000373840332 1.4822686910629272 -2.4003190994262695
-4.411948204040527 1.393695592880249 -2.4003095626831055
-4.464455604553223 1.2148901224136353 -2.40029239654541
-4.5097336769104 1.0341155529022217 -2.400277614593506
-4.5476975440979 0.8516656160354614 -2.4002649784088135
-4.563913345336914 0.7599047422409058 -2.4002597332000732
-4.590795993804932 0.5755029320716858 -2.4002509117126465
-4.610234260559082 0.39016416668891907 -2.4002444744110107
-4.622194766998291 0.2041955590248108 -2.400240182876587
3.5701560974121094 2.549835681915283 -2.40289306640625
3.5180540084838867 2.6211986541748047 -2.402876138687134
3.353283643722534 2.828786611557007 -2.4028232097625732
3.1146631240844727 3.0893640518188477 -2.4027462005615234
2.987680673599243 3.2122302055358887 -2.402705192565918
2.7881860733032227 3.386688232421875 -2.4026408195495605
2.7193920612335205 3.4421191215515137 -2.402618646621704
2.5785253047943115 3.54876708984375 -2.4025731086730957
2.3594627380371094 3.697882652282715 -2.4025025367736816
2.284492254257202 3.7446129322052 -2.4024782180786133
2.2085936069488525 3.7898216247558594 -2.402453660964966
1.9756518602371216 3.916147470474243 -2.402378559112549
1.816311001777649 3.992443799972534 -2.402327060699463
1.7355444431304932 4.028167724609375 -2.4023008346557617
1.4890575408935547 4.125479221343994 -2.4022209644317627
1.4056543111801147 4.154582977294922 -2.402193784713745
1.152197241783142 4.2317352294921875 -2.402111530303955
0.8945336937904358 4.2934370040893555 -2.4020278453826904
0.6336278915405273 4.3394646644592285 -2.4019434452056885
0.5460962057113647 4.351295471191406 -2.4019150733947754
0.4583495855331421 4.361359596252441 -2.4018867015838623
0.19415283203125 4.380921363830566 -2.401801347732544
0.10588622838258743 4.38389253616333 -2.4017727375030518
-0.07073485851287842 4.384492874145508 -2.4017155170440674
-0.24723143875598907 4.377986431121826 -2.401658535003662
-0.5111303329467773 4.354910850524902 -2.4015729427337646
-0.7731298804283142 4.315950393676758 -2.4014883041381836
-0.8598827719688416 4.299454212188721 -2.4014604091644287
-0.9463134407997131 4.281217098236084 -2.401432514190674
-1.0322850942611694 4.261238098144531 -2.401404857635498
-1.1178882122039795 4.239539623260498 -2.4013774394989014
-1.2876927852630615 4.190986633300781 -2.401322603225708
-1.4553735256195068 4.135641574859619 -2.401268482208252
-1.5383349657058716 4.105445861816406 -2.4012417793273926
-1.6207005977630615 4.073589324951172 -2.4012153148651123
-1.7833813428878784 4.004931449890137 -2.401162624359131
-1.9431713819503784 3.9297826290130615 -2.401110887527466
-2.2530200481414795 3.760504722595215 -2.401010274887085
-2.3282713890075684 3.714332103729248 -2.4009859561920166
-2.402578115463257 3.6666526794433594 -2.4009618759155273
-2.4759130477905273 3.6174871921539307 -2.4009382724761963
-2.548232316970825 3.5668585300445557 -2.4009146690368652
-2.7588841915130615 3.406378746032715 -2.400846242904663
-2.82690167427063 3.350098133087158 -2.4008243083953857
-3.0239551067352295 3.173199415206909 -2.4007604122161865
-3.14923095703125 3.048799991607666 -2.40071964263916
-3.209965705871582 2.984736919403076 -2.400700092315674
-3.6469993591308594 2.4309747219085693 -2.4005579948425293
-3.741887092590332 2.282111883163452 -2.400527238845825
-3.7870678901672363 2.2062761783599854 -2.400512456893921
-3.9522435665130615 1.8943188190460205 -2.400458812713623
-4.091792106628418 1.5700920820236206 -2.4004132747650146
-4.151662349700928 1.4040361642837524 -2.4003937244415283
-4.25112771987915 1.0653680562973022 -2.4003612995147705
-4.290561199188232 0.8933092951774597 -2.40034818649292
-4.348495960235596 0.5451300144195557 -2.400329113006592
-4.373461723327637 0.2815539538860321 -2.4003207683563232
-4.378244400024414 0.19341979920864105 -2.4003190994262695
3.570502758026123 2.138507604598999 -2.402892589569092
3.526686906814575 2.209965705871582 -2.402878522872925
3.481447696685791 2.280529737472534 -2.4028639793395996
3.2865476608276367 2.5532281398773193 -2.402801036834717
3.234438419342041 2.6188793182373047 -2.4027843475341797
3.181022882461548 2.6834678649902344 -2.4027671813964844
3.1263110637664795 2.7469658851623535 -2.402749538421631
3.0703320503234863 2.8093485832214355 -2.4027316570281982
3.0131077766418457 2.870587110519409 -2.4027130603790283
2.954665422439575 2.930664539337158 -2.4026942253112793
2.895021915435791 2.9895501136779785 -2.402674913406372
2.8342039585113525 3.047219753265381 -2.4026553630828857
