ply
format ascii 1.0
element vertex 256
property float x
property float y
property float z
end_header
2.954739809036255 16.326374053955078 2.925546169281006
2.278726816177368 16.314456939697266 2.523547887802124
2.715960741043091 15.007030487060547 1.985974669456482
2.771507501602173 17.293729782104492 2.280740976333618
2.1509556770324707 15.399677276611328 1.669697880744934
2.3478453159332275 16.809307098388672 1.4367684125900269
3.262488842010498 14.637174606323242 0.5913220047950745
2.430417537689209 15.165385246276855 0.6056176424026489
23.726043701171875 41.315101623535156 -2.41618275642395
22.88953399658203 41.784324645996094 -2.41618275642395
22.043731689453125 42.23675537109375 -2.41618275642395
20.32570457458496 43.089744567871094 -2.41618275642395
19.454164505004883 43.49018478393555 -2.41618275642395
18.574743270874023 43.87298583984375 -2.41618275642395
17.687639236450195 44.2383918762207 -2.41618275642395
13.152746200561523 45.791770935058594 -2.41618275642395
12.228293418884277 46.047035217285156 -2.41618275642395
11.29886245727539 46.283870697021484 -2.41618275642395
8.832053184509277 43.75577926635742 -2.2637827396392822
7.949413776397705 43.92444610595703 -2.2637827396392822
7.063583850860596 44.07554244995117 -2.2637827396392822
14.655673027038574 29.514577865600586 -2.41618275642395
14.058547019958496 29.803634643554688 -2.41618275642395
13.455741882324219 30.080589294433594 -2.41618275642395
12.234004020690918 30.597841262817383 -2.41618275642395
10.364838600158691 31.28048324584961 -2.41618275642395
9.733038902282715 31.48270606994629 -2.41618275642395
8.523500442504883 29.674604415893555 -2.2637827396392822
7.924391746520996 29.84019660949707 -2.2637827396392822
7.322083473205566 29.993675231933594 -2.2637827396392822
3.12060546875 19.47203826904297 -1.4459415674209595
4.065907955169678 29.10969352722168 -2.1551058292388916
12.96999740600586 21.567785263061523 -2.41618275642395
12.091303825378418 22.072399139404297 -2.41618275642395
10.73697280883789 22.76197624206543 -2.41618275642395
10.27658462524414 22.973514556884766 -2.41618275642395
9.812033653259277 23.17576789855957 -2.41618275642395
8.754167556762695 21.894588470458984 -2.2637827396392822
8.311635971069336 22.066387176513672 -2.2637827396392822
7.865742206573486 22.22922706604004 -2.2637827396392822
6.484118461608887 19.56869125366211 -1.9791420698165894
3.362192392349243 13.772648811340332 -1.361081838607788
10.4826021194458 17.431503295898438 -2.41618275642395
9.772421836853027 17.839340209960938 -2.41618275642395
8.130475997924805 17.236305236816406 -2.2637827396392822
7.781850337982178 17.396484375 -2.2637827396392822
7.075281620025635 17.695627212524414 -2.2637827396392822
6.717540264129639 17.834253311157227 -2.2637550830841064
6.356197357177734 17.96314239501953 -2.2634117603302
5.992392539978027 18.084692001342773 -2.263065814971924
5.257950305938721 18.30559730529785 -2.2623679637908936
3.362189769744873 13.772648811340332 -1.684044361114502
3.1206066608428955 14.000602722167969 -1.7038836479187012
2.7786364555358887 13.765864372253418 -1.6681699752807617
8.23382568359375 13.692018508911133 -2.2637827396392822
7.105732440948486 14.309989929199219 -2.2637827396392822
6.81621789932251 14.4501314163208 -2.2637827396392822
6.523334980010986 14.583044052124023 -2.2635693550109863
6.227675437927246 14.709577560424805 -2.2632882595062256
5.929556846618652 14.830109596252441 -2.263005018234253
5.629105091094971 14.944586753845215 -2.2627196311950684
5.021701335906982 15.155195236206055 -2.2621421813964844
4.714988708496094 15.251249313354492 -2.2618508338928223
3.083604574203491 13.834611892700195 -2.008319139480591
2.2429332733154297 13.99551010131836 -2.008319139480591
1.9213573932647705 13.755895614624023 -1.9679851531982422
7.08177375793457 11.77626895904541 -2.2637827396392822
6.843270301818848 11.916447639465332 -2.2637827396392822
6.601586818695068 12.051042556762695 -2.2636427879333496
6.109879016876221 12.30447006225586 -2.2631754875183105
5.354346752166748 12.646811485290527 -2.2624576091766357
5.09812593460083 12.750666618347168 -2.262213945388794
4.839887619018555 12.849313735961914 -2.2619686126708984
4.31779670715332 13.030858993530273 -2.261472463607788
3.52221417427063 13.263285636901855 -2.260716438293457
3.2541332244873047 13.329997062683105 -2.2604615688323975
2.4427709579467773 13.497504234313965 -2.259690761566162
6.205445289611816 10.3190279006958 -2.2632694244384766
5.569786071777344 10.671923637390137 -2.262665033340454
4.914126873016357 10.985624313354492 -2.2620418071746826
4.240881443023682 11.25902271270752 -2.261401891708374
3.5525364875793457 11.4911470413208 -2.2607476711273193
3.3201708793640137 11.55920124053955 -2.2605268955230713
3.0865001678466797 11.622560501098633 -2.2603049278259277
2.3786206245422363 11.784154891967773 -2.2596323490142822
1.9019811153411865 11.867976188659668 -2.2591795921325684
3.0001001358032227 5.4766082763671875 -1.3199613094329834
4.951424598693848 9.487120628356934 -2.2620818614959717
4.75904655456543 9.58409595489502 -2.2618987560272217
4.564788818359375 9.677163124084473 -2.2617132663726807
4.368687629699707 9.76628589630127 -2.261525869369507
3.770286798477173 10.009651184082031 -2.2609572410583496
3.567718505859375 10.082663536071777 -2.2607648372650146
3.3637402057647705 10.151571273803711 -2.260571002960205
3.158426523208618 10.216347694396973 -2.260375738143921
2.9518725872039795 10.276965141296387 -2.2601795196533203
2.7441492080688477 10.33340072631836 -2.2599823474884033
2.3255627155303955 10.4336519241333 -2.259584426879883
1.903350830078125 10.516938209533691 -2.259183406829834
1.69110107421875 10.552180290222168 -2.258981704711914
1.478204369544983 10.583142280578613 -2.258779287338257
2.9713830947875977 5.424185276031494 -1.453552484512329
4.104786396026611 8.701995849609375 -2.2612829208374023
1.658846378326416 5.365744113922119 -1.3199613094329834
1.5504968166351318 5.398049831390381 -1.3199613094329834
2.280031681060791 9.339876174926758 -2.259547472000122
2.0913915634155273 9.383138656616211 -2.2593681812286377
1.3294055461883545 9.517913818359375 -2.2586441040039062
3.06530499458313 5.3377275466918945 -1.5937092304229736
2.9713830947875977 5.424185276031494 -1.6013355255126953
2.844635009765625 5.4504194259643555 -1.5918477773666382
3.565401554107666 7.97052526473999 -2.260775327682495
3.4039952754974365 8.04013729095459 -2.2606217861175537
3.077171564102173 8.169520378112793 -2.2603108882904053
2.911890745162964 8.229241371154785 -2.2601535320281982
1.6583447456359863 5.3641180992126465 -1.4537208080291748
1.5371581315994263 5.351609230041504 -1.4416519403457642
2.0694615840911865 8.477191925048828 -2.259352684020996
1.5536718368530273 8.584789276123047 -2.2588624954223633
1.206671118736267 8.639110565185547 -2.258532762527466
4.124285697937012 6.858269691467285 -2.2655491828918457
2.4384398460388184 5.451172351837158 -1.6905468702316284
2.3079991340637207 5.451414108276367 -1.6758702993392944
2.1797497272491455 5.4516520500183105 -1.6621143817901611
1.6583447456359863 5.3641180992126465 -1.5894558429718018
1.5371581315994263 5.351609230041504 -1.576257586479187
1.4209166765213013 7.851257801055908 -2.2587409019470215
3.797940492630005 6.315592288970947 -2.2667322158813477
3.06530499458313 5.3377275466918945 -1.8932290077209473
2.971381664276123 5.424185276031494 -1.9022886753082275
3.276621103286743 6.5986762046813965 -2.266058921813965
3.142908811569214 6.662849426269531 -2.2659049034118652
3.0079479217529297 6.724328994750977 -2.265756845474243
2.8717918395996094 6.783092498779297 -2.2656149864196777
2.7344982624053955 6.83911657333374 -2.2654788494110107
2.596118211746216 6.892385482788086 -2.2653486728668213
1.8898998498916626 7.116628646850586 -2.264791488647461
1.7461827993392944 7.1529364585876465 -2.2646989822387695
1.1008251905441284 5.453651428222656 -1.7112559080123901
0.9862279891967773 5.44935941696167 -1.7033329010009766
3.06530499458313 5.3377275466918945 -2.046046018600464
2.9713830947875977 5.424185276031494 -2.055837392807007
3.1558923721313477 6.046812057495117 -2.2672793865203857
3.033329963684082 6.108717441558838 -2.2671313285827637
2.6585986614227295 6.2795305252075195 -2.2667200565338135
2.2743589878082275 6.427528381347656 -2.2663588523864746
1.6583447456359863 5.364116668701172 -1.8663264513015747
1.7496447563171387 6.5884833335876465 -2.2659573554992676
1.6165978908538818 6.6221184730529785 -2.26587176322937
1.3486363887786865 6.681371212005615 -2.2657177448272705
1.2138243913650513 6.706965923309326 -2.2656497955322266
0.9428125023841858 6.750035762786865 -2.2655317783355713
3.06530499458313 5.3377275466918945 -2.201167106628418
2.934687376022339 5.622971534729004 -2.2682058811187744
2.589482307434082 5.788839817047119 -2.267808198928833
2.2350049018859863 5.933664798736572 -2.267456531524658
2.115002393722534 5.977171897888184 -2.2673497200012207
1.9941649436950684 6.0182671546936035 -2.2672483921051025
1.6583447456359863 5.3641180992126465 -2.007824420928955
1.5371569395065308 5.351609230041504 -1.9911540746688843
1.6270726919174194 6.126926898956299 -2.2669763565063477
1.5033520460128784 6.15822172164917 -2.2668964862823486
1.1287988424301147 6.237165927886963 -2.266690254211426
0.8767773509025574 6.277246475219727 -2.26658034324646
3.0498924255371094 5.07166051864624 -2.267911911010742
2.947361946105957 5.132352828979492 -2.268054962158203
2.8436193466186523 5.190959930419922 -2.268192768096924
2.632652521133423 5.30182409286499 -2.268451690673828
2.417325496673584 5.403977394104004 -2.2686522006988525
2.3079333305358887 5.45127010345459 -2.268537759780884
1.8616161346435547 5.6182451248168945 -2.268129348754883
1.5371581315994263 5.351609230041504 -2.133753538131714
1.5189355611801147 5.719727039337158 -2.2678754329681396
1.403441071510315 5.748955726623535 -2.267800807952881
1.2873876094818115 5.775866985321045 -2.267731189727783
1.1708190441131592 5.800447463989258 -2.267667055130005
1.0537878274917603 5.822690963745117 -2.2676079273223877
0.8185155987739563 5.8601226806640625 -2.267505407333374
2.563366651535034 4.9115095138549805 -2.2674641609191895
2.4641051292419434 4.962377071380615 -2.267582893371582
2.363828182220459 5.011226177215576 -2.2676963806152344
2.160395383834839 5.102790832519531 -2.2679076194763184
2.057324171066284 5.14547061920166 -2.26800537109375
1.9534045457839966 5.18605375289917 -2.2680976390838623
1.8486779928207397 5.224526882171631 -2.2681846618652344
1.7431920766830444 5.260871887207031 -2.268266201019287
1.530123233795166 5.327120780944824 -2.2684128284454346
1.4226183891296387 5.356997489929199 -2.2684781551361084
0.7666833400726318 5.4890241622924805 -2.2683284282684326
2.4986412525177 4.561213970184326 -2.266577959060669
2.4064366817474365 4.6108269691467285 -2.2666940689086914
2.1240429878234863 4.7483391761779785 -2.2670133113861084
2.028111457824707 4.790339946746826 -2.2671098709106445
1.8337854146957397 4.868478298187256 -2.2672882080078125
1.5367406606674194 4.970790386199951 -2.2675180435180664
1.4364086389541626 5.000863552093506 -2.2675840854644775
1.3354809284210205 5.028903007507324 -2.2676451206207275
1.234005093574524 5.054892063140869 -2.2677011489868164
1.0295727252960205 5.10068416595459 -2.2677972316741943
0.8234570026397705 5.138164520263672 -2.2678723335266113
0.7198547124862671 5.15376615524292 -2.267902135848999
2.351816415786743 4.293186664581299 -2.26589035987854
2.0886802673339844 4.427926540374756 -2.266204833984375
1.9089086055755615 4.508784770965576 -2.2663912773132324
1.8178247213363647 4.54647159576416 -2.266477584838867
1.6334569454193115 4.616282939910889 -2.2666358947753906
1.540248990058899 4.648376941680908 -2.2667078971862793
1.0654699802398682 4.780233860015869 -2.2669951915740967
0.7750341892242432 4.8360700607299805 -2.267108678817749
2.379697322845459 3.957197904586792 -2.2650487422943115
2.2996654510498047 4.004497528076172 -2.265160083770752
2.054044246673584 4.136569023132324 -2.2654690742492676
1.970436930656433 4.177253723144531 -2.265563726425171
1.886022925376892 4.216241836547852 -2.2656538486480713
1.6282689571380615 4.322858810424805 -2.2658979892730713
1.5409679412841797 4.354899883270264 -2.265970230102539
1.3644994497299194 4.413654804229736 -2.266101598739624
1.185791015625 4.465225696563721 -2.266214609146118
1.0956859588623047 4.488288879394531 -2.2662642002105713
1.0051318407058716 4.50952672958374 -2.2663092613220215
0.9141650199890137 4.528926372528076 -2.2663495540618896
0.8228198289871216 4.546483039855957 -2.266385078430176
0.7311413288116455 4.562188625335693 -2.266416072845459
1.9416711330413818 3.9102659225463867 -2.26488995552063
1.7828344106674194 3.9855620861053467 -2.2650644779205322
1.702301025390625 4.020788669586182 -2.2651455402374268
1.3735228776931763 4.145209312438965 -2.265427827835083
1.2056127786636353 4.197352409362793 -2.265543222427368
1.1208959817886353 4.220866680145264 -2.265594482421875
0.8641332983970642 4.28106689453125 -2.2657220363616943
0.6911254525184631 4.312500953674316 -2.265784978866577
1.9861059188842773 3.6255924701690674 -2.264178514480591
1.8386999368667603 3.7028965950012207 -2.26435923576355
1.763851284980774 3.739299774169922 -2.264443874359131
1.6120153665542603 3.807534694671631 -2.264601230621338
1.5350903272628784 3.8393375873565674 -2.264673948287964
1.3793810606002808 3.8982489109039307 -2.2648074626922607
1.300665259361267 3.925330638885498 -2.2648682594299316
1.2214123010635376 3.950817823410034 -2.264925003051758
1.141658902168274 3.974696636199951 -2.2649776935577393
0.9807788133621216 4.017595291137695 -2.265070676803589
0.89971923828125 4.036596775054932 -2.265110731124878
0.8182897567749023 4.053954601287842 -2.2651469707489014
0.5721240043640137 4.096105098724365 -2.2652299404144287
2.020700693130493 3.3602232933044434 -2.2637979984283447
1.9526439905166626 3.400222063064575 -2.263798475265503
1.8838109970092773 3.438852548599243 -2.263805866241455
1.8141992092132568 3.4760899543762207 -2.263813018798828
1.5289013385772705 3.611220121383667 -2.2641000747680664
1.4559398889541626 3.641376256942749 -2.264169216156006
1.2335962057113647 3.722921133041382 -2.2643535137176514
1.0827856063842773 3.7697300910949707 -2.2644569873809814
1.0067003965377808 3.790841579437256 -2.264503002166748
0.8533214926719666 3.828428268432617 -2.2645833492279053
0.6985412240028381 3.859783887863159 -2.2646477222442627
0.6207067966461182 3.87310791015625 -2.264673948287964
