ply
format ascii 1.0
element vertex 255
property float x
property float y
property float z
end_header
-1.2809643745422363 -44.38320541381836 -2.2517964839935303
-0.397857666015625 -44.42243957519531 -2.2529382705688477
3.3440513610839844 -47.26399230957031 -2.4029457569122314
6.160511493682861 -47.00132369995117 -2.404024362564087
8.957537651062012 -46.570804595947266 -2.4050958156585693
9.883841514587402 -46.39036178588867 -2.4054505825042725
10.80647087097168 -46.19129180908203 -2.40580415725708
13.548819541931152 -45.48421859741211 -2.4068548679351807
14.453150749206543 -45.212039947509766 -2.4072015285491943
16.245100021362305 -44.61394119262695 -2.407888174057007
17.131988525390625 -44.28826141357422 -2.4082281589508057
-0.5596765279769897 -19.391767501831055 -1.4224389791488647
-0.27530762553215027 -30.738937377929688 -2.253936529159546
0.3361804187297821 -30.72393226623535 -2.2528841495513916
4.259742259979248 -32.49943161010742 -2.4033119678497314
5.550501346588135 -32.310909271240234 -2.403806447982788
7.470506191253662 -31.93199348449707 -2.4045419692993164
10.610504150390625 -31.047651290893555 -2.405745267868042
11.227217674255371 -30.833358764648438 -2.4059815406799316
0.25661253929138184 -23.452177047729492 -2.251659631729126
0.7229894995689392 -23.436307907104492 -2.2510714530944824
1.653990387916565 -23.37706756591797 -2.2499239444732666
2.758165121078491 -24.874889373779297 -2.402745246887207
3.7462217807769775 -24.749366760253906 -2.403123617172241
4.238231182098389 -24.671833038330078 -2.4033119678497314
4.728646278381348 -24.584577560424805 -2.4035000801086426
5.217268943786621 -24.48751449584961 -2.4036872386932373
5.703877925872803 -24.380706787109375 -2.4038734436035156
6.670374393463135 -24.138227462768555 -2.4042439460754395
8.571004867553711 -23.53858184814453 -2.4049723148345947
-0.5468554496765137 -18.947509765625 -2.2516353130340576
-0.16972412168979645 -18.950830459594727 -2.2511849403381348
0.20732055604457855 -18.947397232055664 -2.250818967819214
1.7124524116516113 -18.863630294799805 -2.249951124191284
2.62870717048645 -20.055599212646484 -2.402700662612915
3.0274157524108887 -20.00059700012207 -2.402853488922119
4.216014385223389 -19.78811264038086 -2.403308868408203
5.390032768249512 -19.50499725341797 -2.4037585258483887
5.777393817901611 -19.395099639892578 -2.403907060623169
6.162528038024902 -19.277494430541992 -2.404054641723633
6.545247554779053 -19.152238845825195 -2.4042012691497803
-0.14217284321784973 -15.87386703491211 -2.2492470741271973
0.17369262874126434 -15.874403953552246 -2.2493667602539062
0.8052136301994324 -15.856623649597168 -2.249607801437378
1.1205968856811523 -15.83831787109375 -2.2497284412384033
1.435577392578125 -15.813732147216797 -2.2498488426208496
1.868597388267517 -16.852209091186523 -2.4024131298065186
2.203655958175659 -16.812604904174805 -2.402541399002075
2.5378332138061523 -16.766321182250977 -2.4026694297790527
2.871195077896118 -16.713396072387695 -2.402797222137451
3.2032361030578613 -16.65385627746582 -2.4029242992401123
3.534141778945923 -16.58769416809082 -2.4030511379241943
3.863682746887207 -16.51496696472168 -2.403177499771118
4.51814079284668 -16.34988021850586 -2.403428077697754
5.486519813537598 -16.053686141967773 -2.403799295425415
5.804954528808594 -15.94216537475586 -2.403921365737915
6.121326923370361 -15.824311256408691 -2.4040427207946777
-0.39387571811676025 -13.647199630737305 -2.249164581298828
-0.1223168894648552 -13.657607078552246 -2.250033140182495
0.4361010789871216 -14.136591911315918 -2.3299596309661865
0.7332434058189392 -14.43935775756836 -2.381793260574341
1.0290930271148682 -14.544865608215332 -2.402099847793579
1.6070715188980103 -14.493733406066895 -2.402320384979248
1.8950988054275513 -14.45956039428711 -2.402430772781372
2.1827428340911865 -14.419655799865723 -2.402541399002075
2.4692418575286865 -14.374030113220215 -2.402651309967041
3.3226916790008545 -14.2030611038208 -2.4029791355133057
3.60490345954895 -14.134767532348633 -2.4030873775482178
3.885601758956909 -14.060871124267578 -2.4031949043273926
4.718140602111816 -13.805864334106445 -2.4035136699676514
4.992110252380371 -13.709850311279297 -2.403618574142456
5.264122009277344 -13.608400344848633 -2.4037227630615234
-0.36860716342926025 -12.771689414978027 -2.401575803756714
-0.11442870646715164 -12.777003288269043 -2.401672601699829
0.3940185606479645 -12.772466659545898 -2.401865243911743
0.6480969190597534 -12.76259994506836 -2.401961088180542
0.901934802532196 -12.747697830200195 -2.402056932449341
1.4084997177124023 -12.702729225158691 -2.4022505283355713
1.6610289812088013 -12.672707557678223 -2.4023470878601074
1.9129186868667603 -12.63765811920166 -2.4024436473846436
2.1640710830688477 -12.597607612609863 -2.4025394916534424
2.9121081829071045 -12.447532653808594 -2.4028244018554688
3.405294179916382 -12.322786331176758 -2.403012990951538
3.893165111541748 -12.178506851196289 -2.4031999111175537
4.134854793548584 -12.099100112915039 -2.403292417526245
4.61329460144043 -11.925923347473145 -2.403475522994995
-0.32777342200279236 -11.356772422790527 -2.401592969894409
-0.10175292938947678 -11.361454963684082 -2.401679039001465
0.5762853622436523 -11.348495483398438 -2.401935577392578
0.8019958138465881 -11.335185050964355 -2.4020204544067383
1.027398705482483 -11.317384719848633 -2.402106285095215
1.2524181604385376 -11.295111656188965 -2.4021925926208496
1.700926423072815 -11.23714542388916 -2.4023640155792236
1.9242395162582397 -11.201473236083984 -2.402449369430542
2.146807909011841 -11.16136646270752 -2.4025344848632812
2.589341878890991 -11.067893981933594 -2.4027037620544434
2.8091368675231934 -11.014583587646484 -2.402787923812866
3.4616003036499023 -10.828495979309082 -2.4030375480651855
-0.09151732921600342 -10.218520164489746 -2.401684045791626
0.31511595845222473 -10.21473503112793 -2.4018383026123047
0.7213073372840881 -10.194758415222168 -2.401991367340088
1.1264050006866455 -10.158634185791016 -2.4021453857421875
1.7306066751480103 -10.074312210083008 -2.402376413345337
3.113192081451416 -9.738621711730957 -2.4029054641723633
3.30644154548645 -9.675049781799316 -2.402979612350464
3.498389720916748 -9.607646942138672 -2.403053045272827
-0.26759397983551025 -9.271734237670898 -2.401618003845215
-0.08307372778654099 -9.275493621826172 -2.40168833732605
0.6547302007675171 -9.253803253173828 -2.4019672870635986
1.2057311534881592 -9.199071884155273 -2.402176856994629
1.752532958984375 -9.11154842376709 -2.402385950088501
1.933529019355774 -9.075133323669434 -2.4024553298950195
2.293187141418457 -8.991546630859375 -2.402592658996582
2.471705198287964 -8.944396018981934 -2.402661085128784
3.0011534690856934 -8.78174877166748 -2.4028637409210205
3.1753697395324707 -8.720532417297363 -2.402930498123169
-0.24474242329597473 -8.479997634887695 -2.401627540588379
0.4302917420864105 -8.47351360321045 -2.401883602142334
0.5988146662712097 -8.463500022888184 -2.401947021484375
0.7671105861663818 -8.450132369995117 -2.402010202407837
1.4366809129714966 -8.363280296325684 -2.402265787124634
1.6028356552124023 -8.333261489868164 -2.402329444885254
1.768370270729065 -8.299942016601562 -2.402392864227295
1.9332067966461182 -8.263327598571777 -2.4024558067321777
2.904080629348755 -7.975492000579834 -2.402827501296997
-0.22526489198207855 -7.804956912994385 -2.4016356468200684
0.08543700724840164 -7.808123588562012 -2.4017539024353027
0.24077758193016052 -7.805067539215088 -2.401812791824341
0.7060315012931824 -7.777368068695068 -2.4019882678985596
1.014947533607483 -7.74350118637085 -2.4021053314208984
1.3222863674163818 -7.697362899780273 -2.4022228717803955
1.6275548934936523 -7.63903284072876 -2.402339458465576
1.9302794933319092 -7.568599700927734 -2.4024555683135986
2.2299718856811523 -7.486167907714844 -2.4025702476501465
2.3785388469696045 -7.44049072265625 -2.4026269912719727
2.6727991104125977 -7.3403167724609375 -2.4027397632598877
2.818377733230591 -7.285855770111084 -2.4027953147888184
-0.2084399312734604 -7.222028732299805 -2.4016427993774414
-0.06470703333616257 -7.224915027618408 -2.4016973972320557
0.07905639708042145 -7.22493314743042 -2.40175199508667
0.22279661893844604 -7.222095966339111 -2.401806592941284
0.5099743604660034 -7.20783805847168 -2.4019148349761963
0.6532946825027466 -7.1964263916015625 -2.4019689559936523
0.7963659763336182 -7.18216609954834 -2.40202260017395
1.0815294981002808 -7.145116806030273 -2.4021313190460205
1.3650035858154297 -7.0967535972595215 -2.4022397994995117
1.786068081855774 -7.003150939941406 -2.4024009704589844
1.9250963926315308 -6.966381072998047 -2.402454137802124
2.0633654594421387 -6.926851272583008 -2.4025070667266846
2.3374180793762207 -6.839576244354248 -2.4026119709014893
2.4730920791625977 -6.791860103607178 -2.4026637077331543
2.6077892780303955 -6.741454124450684 -2.4027154445648193
-0.19374877214431763 -6.713088035583496 -2.401648759841919
0.2070935070514679 -6.713117599487305 -2.401801109313965
0.34062865376472473 -6.707809925079346 -2.4018516540527344
0.4740319848060608 -6.6998419761657715 -2.401901960372925
1.0052990913391113 -6.6414995193481445 -2.4021027088165283
1.2687878608703613 -6.596521854400635 -2.4022035598754883
1.3998156785964966 -6.570110321044922 -2.4022536277770996
1.5302892923355103 -6.541094779968262 -2.402303457260132
1.660164713859558 -6.509487152099609 -2.402353286743164
1.7893908023834229 -6.47530460357666 -2.402402639389038
2.298741340637207 -6.313043594360352 -2.402597665786743
2.4239416122436523 -6.266183853149414 -2.4026455879211426
0.068572998046875 -6.266943454742432 -2.4017491340637207
0.31786254048347473 -6.259495735168457 -2.401843547821045
1.1839781999588013 -6.155588626861572 -2.4021716117858887
1.4279967546463013 -6.103847503662109 -2.4022650718688965
1.669771671295166 -6.042433738708496 -2.402357339859009
1.7896959781646729 -6.008128643035889 -2.4024033546447754
2.027391195297241 -5.932394504547119 -2.402494192123413
2.145059823989868 -5.890989780426025 -2.4025392532348633
-0.16929198801517487 -5.865638732910156 -2.4016590118408203
0.06420654058456421 -5.867948055267334 -2.401747941970825
0.18094848096370697 -5.865612030029297 -2.401792049407959
0.4141845703125 -5.853989601135254 -2.4018802642822266
0.6467809677124023 -5.833080291748047 -2.401968002319336
0.7627233862876892 -5.8191704750061035 -2.4020113945007324
1.108587622642517 -5.763619422912598 -2.4021432399749756
1.2230627536773682 -5.740524768829346 -2.402186870574951
1.4505358934402466 -5.687524318695068 -2.4022738933563232
1.6757237911224365 -5.625516891479492 -2.402360200881958
2.117833137512207 -5.474860191345215 -2.40252947807312
-0.15898071229457855 -5.508423805236816 -2.401663303375244
0.060295410454273224 -5.510579586029053 -2.4017467498779297
0.16992919147014618 -5.5083818435668945 -2.4017882347106934
0.27949705719947815 -5.50400972366333 -2.401829719543457
0.4982702434062958 -5.4887189865112305 -2.401912212371826
0.716265857219696 -5.464735507965088 -2.401994466781616
0.8248669505119324 -5.449493408203125 -2.4020352363586426
1.0410608053207397 -5.412547588348389 -2.4021177291870117
1.148565649986267 -5.390858173370361 -2.402158737182617
1.2556164264678955 -5.3670268058776855 -2.4021997451782227
1.8860973119735718 -5.179797649383545 -2.4024410247802734
1.9888147115707397 -5.141329765319824 -2.402480363845825
-0.1496862769126892 -5.186317443847656 -2.401667356491089
-0.046467285603284836 -5.188352584838867 -2.4017064571380615
0.3662121593952179 -5.175961017608643 -2.401862859725952
0.46913084387779236 -5.167731285095215 -2.4019017219543457
0.6743761897087097 -5.145142555236816 -2.4019789695739746
0.7766247391700745 -5.130806922912598 -2.40201735496521
0.8785730004310608 -5.114392280578613 -2.4020559787750244
0.9801720976829529 -5.095988750457764 -2.402094602584839
1.0813878774642944 -5.075563430786133 -2.4021334648132324
1.1821764707565308 -5.0531206130981445 -2.402172088623047
1.282503604888916 -5.028680324554443 -2.4022104740142822
1.3823277950286865 -5.002248287200928 -2.4022486209869385
1.580294132232666 -4.943447589874268 -2.4023241996765137
1.7757750749588013 -4.876814842224121 -2.4023993015289307
1.8724840879440308 -4.840591907501221 -2.4024362564086914
0.05357177555561066 -4.895998001098633 -2.401744842529297
0.6363781690597534 -4.855245113372803 -2.4019651412963867
0.7328625321388245 -4.841683387756348 -2.40200138092041
1.020450472831726 -4.7895355224609375 -2.4021103382110596
1.3044226169586182 -4.720340728759766 -2.402219295501709
1.675689697265625 -4.601956844329834 -2.4023611545562744
0.05065307393670082 -4.629329204559326 -2.4017441272735596
0.2347998023033142 -4.623782634735107 -2.4018137454986572
0.3267541527748108 -4.618258953094482 -2.401848554611206
0.4185827672481537 -4.610915660858154 -2.401883363723755
0.6017126441001892 -4.590741157531738 -2.4019522666931152
0.7839001417160034 -4.563298225402832 -2.4020209312438965
0.8745520114898682 -4.546882152557373 -2.402054786682129
1.1443004608154297 -4.486782073974609 -2.402158260345459
1.2333630323410034 -4.463188648223877 -2.4021921157836914
1.3219372034072876 -4.437829494476318 -2.402225971221924
1.4099913835525513 -4.410712718963623 -2.4022598266601562
1.497491478919983 -4.3818464279174805 -2.4022934436798096
1.5844006538391113 -4.3512420654296875 -2.4023265838623047
0.13521483540534973 -4.383091449737549 -2.4017763137817383
0.22239989042282104 -4.379594802856445 -2.4018092155456543
0.4833007752895355 -4.358704566955566 -2.4019079208374023
0.5699328780174255 -4.348283767700195 -2.4019405841827393
0.7424987554550171 -4.322314739227295 -2.402005672454834
0.8283630013465881 -4.3067121505737305 -2.4020378589630127
0.9990758895874023 -4.270461559295654 -2.4021027088165283
1.083858609199524 -4.249794960021973 -2.4021353721618652
1.2521129846572876 -4.203420162200928 -2.4021997451782227
1.335516333580017 -4.177732944488525 -2.402231454849243
1.418389916419983 -4.150390148162842 -2.4022631645202637
1.582430362701416 -4.09077787399292 -2.4023261070251465
-0.12000854313373566 -4.1581010818481445 -2.401679515838623
-0.037254638969898224 -4.159720420837402 -2.4017109870910645
0.04551635682582855 -4.159690856933594 -2.401742458343506
0.21098144352436066 -4.154695510864258 -2.4018054008483887
0.37611693143844604 -4.143124103546143 -2.4018678665161133
0.5406665205955505 -4.1249823570251465 -2.4019298553466797
0.622637927532196 -4.113495349884033 -2.401960611343384
0.7043688893318176 -4.100313186645508 -2.401991367340088
0.7858190536499023 -4.085536956787109 -2.402022123336792
0.866961658000946 -4.069127559661865 -2.402052640914917
1.028194546699524 -4.031535625457764 -2.402114152908325
1.1878063678741455 -3.9875383377075195 -2.402175188064575
1.2669225931167603 -3.963165283203125 -2.4022057056427
1.3455431461334229 -3.937222719192505 -2.402235746383667
