ply
format ascii 1.0
element vertex 177
property float x
property float y
property float z
end_header
-0.7494372129440308 -15.287921905517578 2.6989123821258545
-0.749434769153595 -15.287890434265137 2.3448314666748047
-0.7494274973869324 -15.287792205810547 1.2957098484039307
-0.7494250535964966 -15.287729263305664 0.6035336256027222
-0.7494274973869324 -15.287731170654297 0.25855132937431335
-7.444714069366455 -49.3835334777832 -1.4062470197677612
-0.7494286894798279 -15.287790298461914 -0.4309883117675781
-7.960587024688721 -23.18155288696289 -1.2430204153060913
-10.935578346252441 -42.778934478759766 -2.2392570972442627
-9.21457290649414 -43.22938919067383 -2.2415950298309326
-7.386318206787109 -24.704452514648438 -1.8906153440475464
-7.577851295471191 -29.643898010253906 -2.2434487342834473
-6.383279800415039 -29.94662857055664 -2.2450826168060303
-5.781365871429443 -30.080053329467773 -2.2459046840667725
-3.959881544113159 -30.40778160095215 -2.248387336730957
-3.3483030796051025 -30.49257469177246 -2.2492194175720215
-2.734898567199707 -30.56509017944336 -2.2500531673431396
-0.749432384967804 -15.287851333618164 -1.12228524684906
-6.247888088226318 -22.54031753540039 -2.2455737590789795
-3.9288511276245117 -15.369281768798828 -1.522974967956543
-3.956545352935791 -23.08308219909668 -2.2484078407287598
-2.558298349380493 -23.29810905456543 -2.250178098678589
-0.749434769153595 -15.287880897521973 -1.4694721698760986
-5.78441858291626 -18.01711654663086 -2.247774124145508
-5.421664714813232 -18.133419036865234 -2.2482123374938965
-5.056586742401123 -18.24247932434082 -2.2486557960510254
-4.320026874542236 -18.438600540161133 -2.249559164047241
-3.575901985168457 -18.60516357421875 -2.2504830360412598
-3.2013731002807617 -18.67725944519043 -2.2509520053863525
-2.825399160385132 -18.741867065429688 -2.2514257431030273
-2.0696861743927 -18.84842300415039 -2.2523858547210693
-1.3099865913391113 -18.924633026123047 -2.253361940383911
-4.549627780914307 -15.216812133789062 -2.250365734100342
-4.243173599243164 -15.307927131652832 -2.250753879547119
-3.624870538711548 -15.471567153930664 -2.251518964767456
-3.3132994174957275 -15.544048309326172 -2.2519049644470215
-3.0002880096435547 -15.610309600830078 -2.2522947788238525
-2.0538318157196045 -15.77126407623291 -2.2534875869750977
-1.7358715534210205 -15.808375358581543 -2.2533416748046875
-1.0976415872573853 -15.857016563415527 -2.252145528793335
-0.7494396567344666 -15.287939071655273 -2.1687374114990234
-4.431724548339844 -12.905390739440918 -2.2478837966918945
-4.171459674835205 -12.993181228637695 -2.2480947971343994
-3.909662961959839 -13.07635498046875 -2.2484116554260254
-3.381115674972534 -13.22661018371582 -2.249006986618042
-3.114595890045166 -13.293635368347168 -2.2492849826812744
-2.8467345237731934 -13.35519027709961 -2.2495498657226562
-2.5776426792144775 -13.411285400390625 -2.2498016357421875
-2.034769296646118 -13.497377395629883 -2.248670816421509
-1.762758731842041 -13.536138534545898 -2.24876070022583
-1.49001944065094 -13.569414138793945 -2.2488510608673096
-1.2166454792022705 -13.597208023071289 -2.248941659927368
-0.668469250202179 -13.636261940002441 -2.2491230964660645
-3.9038939476013184 -12.15971851348877 -2.4004530906677246
-3.6584043502807617 -12.236246109008789 -2.4005343914031982
-2.662862539291382 -12.49256706237793 -2.4008636474609375
-1.6497069597244263 -12.668042182922363 -2.4011991024017334
-1.3944530487060547 -12.69912052154541 -2.4012837409973145
-1.1386096477508545 -12.725065231323242 -2.4013683795928955
-0.8822863698005676 -12.745851516723633 -2.4014532566070557
-0.6255859136581421 -12.761481285095215 -2.401538133621216
-3.6884093284606934 -10.740800857543945 -2.4005260467529297
-3.471580743789673 -10.813177108764648 -2.4005978107452393
-3.2533373832702637 -10.88119888305664 -2.400670051574707
-3.0337584018707275 -10.94479751586914 -2.400742530822754
-2.367934465408325 -11.108954429626465 -2.4009628295898438
-1.239986538887024 -11.292411804199219 -2.401336193084717
-1.0124791860580444 -11.315439224243164 -2.401411533355713
-3.1224987506866455 -9.72585391998291 -2.40071439743042
-2.530062198638916 -9.897377014160156 -2.4009106159210205
-1.9283056259155273 -10.032854080200195 -2.4011096954345703
-1.1152660846710205 -10.15658950805664 -2.401378631591797
-0.70562744140625 -10.193817138671875 -2.4015142917633057
-0.5003246665000916 -10.206244468688965 -2.4015824794769287
-2.6562390327453613 -8.88411808013916 -2.400869846343994
-2.4769482612609863 -8.935999870300293 -2.4009292125701904
-1.3825122117996216 -9.170729637145996 -2.4012913703918457
-1.1976770162582397 -9.196914672851562 -2.4013524055480957
-0.8266052007675171 -9.238149642944336 -2.401475429534912
-0.6405114531517029 -9.25313663482666 -2.4015369415283203
-0.45415404438972473 -9.264397621154785 -2.4015986919403076
-2.1005773544311523 -8.217269897460938 -2.4010543823242188
-1.9348033666610718 -8.258070945739746 -2.401109457015991
-1.6009496450424194 -8.329639434814453 -2.4012198448181152
-1.264471411705017 -8.387704849243164 -2.4013311862945557
-1.0954186916351318 -8.411660194396973 -2.4013872146606445
-0.5858190655708313 -8.463027954101562 -2.4015557765960693
-0.4153710901737213 -8.473305702209473 -2.4016122817993164
-2.535227060317993 -7.382675647735596 -2.400911569595337
-2.38616943359375 -7.432364463806152 -2.400960683822632
-2.2361388206481934 -7.479037761688232 -2.401010274887085
-1.9334044456481934 -7.56328821182251 -2.4011106491088867
-1.7808178663253784 -7.600830078125 -2.4011611938476562
-1.4735302925109863 -7.666672229766846 -2.4012627601623535
-1.318947672843933 -7.694938659667969 -2.4013137817382812
-1.0082287788391113 -7.742118835449219 -2.401416778564453
-0.695845901966095 -7.77676248550415 -2.401520252227783
-0.5391906499862671 -7.789359092712402 -2.4015719890594482
-0.38230711221694946 -7.798799991607666 -2.4016242027282715
-2.3459324836730957 -6.831453800201416 -2.400974750518799
-1.505977749824524 -7.06514310836792 -2.4012527465820312
-1.220455288887024 -7.120318412780762 -2.4013471603393555
-0.7885680794715881 -7.18141508102417 -2.4014902114868164
-0.49892210960388184 -7.207621097564697 -2.4015860557556152
-2.052441358566284 -6.392877578735352 -2.4010725021362305
-1.7935534715652466 -6.47053861618042 -2.401158094406128
-1.6629846096038818 -6.505441188812256 -2.4012012481689453
-1.1344616413116455 -6.618603229522705 -2.401376247406006
-0.733001708984375 -6.675374984741211 -2.4015090465545654
-0.5985058546066284 -6.6888957023620605 -2.4015536308288574
-0.3288244605064392 -6.707813739776611 -2.4016427993774414
-2.0349645614624023 -5.925887107849121 -2.401078701019287
-1.6737158298492432 -6.038201332092285 -2.401198148727417
-1.4293895959854126 -6.1008734703063965 -2.4012789726257324
-1.1827306747436523 -6.153677463531494 -2.4013607501983643
-1.0586522817611694 -6.176341533660889 -2.4014017581939697
-0.9341418147087097 -6.196499347686768 -2.4014430046081543
-0.8092455863952637 -6.2141547203063965 -2.401484251022339
-0.68402099609375 -6.229292869567871 -2.4015257358551025
-0.5585107207298279 -6.241901874542236 -2.401567220687866
-0.432769775390625 -6.251989841461182 -2.401608943939209
-1.793402075767517 -5.586031913757324 -2.4011590480804443
-1.680633544921875 -5.621084690093994 -2.4011964797973633
-1.3384045362472534 -5.7125372886657715 -2.4013094902038574
-1.223175048828125 -5.738407611846924 -2.4013476371765137
-0.9912621974945068 -5.783162593841553 -2.4014244079589844
-0.6404760479927063 -5.832727909088135 -2.401540517807007
-0.5229565501213074 -5.844537734985352 -2.4015796184539795
-0.4052209258079529 -5.853975772857666 -2.401618480682373
-1.5783032178878784 -5.278828144073486 -2.401230573654175
-1.3646105527877808 -5.338228225708008 -2.401301383972168
-1.040008544921875 -5.411097526550293 -2.4014086723327637
-0.9308996200561523 -5.43101167678833 -2.401444911956787
-0.7115881443023682 -5.464241027832031 -2.401517391204834
-0.49110960960388184 -5.488621711730957 -2.401590585708618
-0.38054320216178894 -5.497476577758789 -2.4016270637512207
-0.26981931924819946 -5.504108905792236 -2.4016637802124023
-1.385707974433899 -4.999176025390625 -2.401294708251953
-1.183419108390808 -5.051034927368164 -2.4013617038726807
-1.0815320014953613 -5.073896884918213 -2.401395320892334
-0.8764721751213074 -5.113461971282959 -2.401463270187378
-0.7733825445175171 -5.130138397216797 -2.4014973640441895
-0.5663036704063416 -5.157257080078125 -2.4015660285949707
-0.46239012479782104 -5.1676836013793945 -2.4016003608703613
-0.35829100012779236 -5.176021099090576 -2.401634693145752
-0.25404173135757446 -5.182258129119873 -2.4016692638397217
-1.4964110851287842 -4.660976886749268 -2.4012584686279297
-1.402313232421875 -4.690211772918701 -2.401289701461792
-1.2124450206756592 -4.742974758148193 -2.4013524055480957
-0.9240356087684631 -4.807690143585205 -2.4014477729797363
-0.8270922899246216 -4.825388431549072 -2.401479959487915
-0.6322351098060608 -4.854888916015625 -2.4015443325042725
-0.4363415539264679 -4.876530170440674 -2.401609182357788
-1.414923071861267 -4.407159805297852 -2.4012856483459473
-1.2364343404769897 -4.4606428146362305 -2.4013447761535645
-1.146419644355774 -4.484682559967041 -2.401374340057373
-1.055935025215149 -4.506915092468262 -2.401404619216919
-0.9650207161903381 -4.527300834655762 -2.4014346599578857
-0.7820483446121216 -4.562592506408691 -2.4014952182769775
-0.6900671124458313 -4.577463150024414 -2.4015254974365234
-0.41257444024086 -4.610940933227539 -2.4016172885894775
-0.31968992948532104 -4.618370056152344 -2.4016482830047607
-0.22667235136032104 -4.623928546905518 -2.4016788005828857
-1.423948884010315 -4.146594524383545 -2.401282787322998
-1.085884928703308 -4.247882843017578 -2.401394844055176
-0.6536266803741455 -4.335749626159668 -2.4015378952026367
-0.566235363483429 -4.348085403442383 -2.401566743850708
-0.4786096215248108 -4.35864782333374 -2.4015958309173584
-0.39078977704048157 -4.36745023727417 -2.401624917984009
-0.21469847857952118 -4.379748821258545 -2.4016830921173096
-1.3508434295654297 -3.933708906173706 -2.4013075828552246
-1.1914563179016113 -3.984973669052124 -2.401360034942627
-1.11102294921875 -4.008193492889404 -2.4013867378234863
-0.8671337962150574 -4.06807279586792 -2.4014673233032227
-0.6200671195983887 -4.113133907318115 -2.4015491008758545
-0.5371593832969666 -4.124824047088623 -2.401576519012451
-0.2036767601966858 -4.154857158660889 -2.4016871452331543
