ply
format ascii 1.0
element vertex 257
property float x
property float y
property float z
end_header
15.93444538116455 -34.090763092041016 6.635351181030273
16.094274520874023 -32.71872329711914 6.42938232421875
16.30523681640625 -31.546144485473633 6.261520862579346
16.094064712524414 -29.67412757873535 5.952370643615723
16.093971252441406 -28.31416130065918 5.742708683013916
16.30495834350586 -27.40097427368164 5.622219085693359
16.30488395690918 -26.19962501525879 5.441248893737793
16.094161987304688 -36.29907989501953 6.0828857421875
16.219768524169922 -32.97383117675781 5.629462718963623
16.304914474487305 -31.545536041259766 5.439952373504639
16.093679428100586 -28.313655853271484 4.989222049713135
16.304670333862305 -27.400480270385742 4.884538650512695
16.304595947265625 -26.19917106628418 4.727323055267334
16.236204147338867 -43.44944763183594 6.04015588760376
16.094039916992188 -40.586265563964844 5.685538291931152
16.304977416992188 -38.8433723449707 5.48577880859375
16.093801498413086 -36.29826736450195 5.170562744140625
16.30476188659668 -34.883079528808594 5.014218807220459
16.158605575561523 -32.8494987487793 4.767203330993652
16.304595947265625 -31.54489517211914 4.624067783355713
15.487189292907715 -27.246639251708984 4.081198215484619
15.567399978637695 -25.014598846435547 3.836707353591919
16.200641632080078 -46.13486862182617 5.250608921051025
16.23619842529297 -43.44944763183594 4.9807844161987305
16.304595947265625 -38.84244918823242 4.52353048324585
15.560641288757324 -33.29106903076172 3.946077585220337
15.904010772705078 -45.29021453857422 4.063459873199463
16.09335708618164 -43.067230224609375 3.891984462738037
15.567306518554688 -37.08600616455078 3.4048006534576416
15.567238807678223 -35.11062240600586 3.2512569427490234
15.560647010803223 -33.29106903076172 3.1108334064483643
15.567106246948242 -31.646976470947266 2.985572099685669
15.567052841186523 -30.117938995361328 2.869990587234497
15.567004203796387 -28.702333450317383 2.764085292816162
15.566960334777832 -27.38697052001953 2.666726589202881
15.567292213439941 -47.32426834106445 3.089287281036377
15.904040336608887 -45.29021453857422 2.976581573486328
15.566794395446777 -31.6463623046875 2.186964273452759
15.566716194152832 -28.70179557800293 2.024724006652832
15.566642761230469 -26.160202026367188 1.8876736164093018
16.92404556274414 -45.29021072387695 1.9064528942108154
15.486276626586914 -36.892974853515625 1.577695608139038
15.486237525939941 -34.92792892456055 1.5065466165542603
15.486164093017578 -31.482444763183594 1.3834389448165894
15.486129760742188 -29.961376190185547 1.3298879861831665
15.486101150512695 -28.553171157836914 1.2808141708374023
15.486076354980469 -27.244691848754883 1.2357043027877808
15.486051559448242 -26.024757385253906 1.1941180229187012
15.486027717590332 -24.883832931518555 1.1556893587112427
16.923532485961914 -45.28882598876953 0.8166778087615967
15.485919952392578 -36.89212417602539 0.6758508086204529
15.485871315002441 -33.131134033203125 0.6177624464035034
15.485857009887695 -31.48183250427246 0.5926406979560852
15.485832214355469 -29.960811614990234 0.5696954131126404
15.485812187194824 -28.55264663696289 0.5486776828765869
17.958791732788086 -45.288822174072266 -0.2742993235588074
15.838205337524414 -30.642553329467773 -0.1941986083984375
15.838191032409668 -27.86416244506836 -0.18045073747634888
15.095314979553223 -45.88950729370117 -1.3602594137191772
17.958786010742188 -45.288822174072266 -1.3718383312225342
15.83788776397705 -33.88423156738281 -1.0531846284866333
15.837902069091797 -29.20182228088379 -0.9354084730148315
12.34939193725586 -43.27409744262695 -2.2822272777557373
13.047163009643555 -42.49477005004883 -2.2543792724609375
14.732514381408691 -41.954071044921875 -2.2550408840179443
15.598825454711914 -41.74378967285156 -2.2599823474884033
15.48199462890625 -36.88279342651367 -2.028588056564331
15.484885215759277 -34.9249153137207 -1.9374768733978271
15.837560653686523 -33.88352966308594 -1.8968212604522705
15.837580680847168 -32.196861267089844 -1.819691777229309
15.83760929107666 -29.201278686523438 -1.68471097946167
15.837618827819824 -27.863176345825195 -1.6253777742385864
15.837648391723633 -25.448848724365234 -1.5201361179351807
8.371344566345215 -31.713573455810547 -2.404956340789795
9.628962516784668 -31.361677169799805 -2.4054501056671143
10.252367973327637 -31.1669921875 -2.4056947231292725
11.962861061096191 -28.499120712280273 -2.2662453651428223
13.025957107543945 -27.86825180053711 -2.255554437637329
15.22518253326416 -26.78560447692871 -2.259085178375244
15.76605224609375 -26.495361328125 -2.2606194019317627
6.872670650482178 -24.082834243774414 -2.40437650680542
7.351244926452637 -23.943132400512695 -2.404564380645752
7.826989650726318 -23.793920516967773 -2.4047513008117676
8.299699783325195 -23.635210037231445 -2.4049367904663086
10.611242294311523 -22.702112197875977 -2.4058446884155273
11.817338943481445 -21.788715362548828 -2.3796815872192383
12.00584888458252 -20.176176071166992 -2.2540080547332764
5.164648532867432 -19.56548309326172 -2.4037110805511475
6.324374675750732 -19.225990295410156 -2.4041664600372314
6.706242561340332 -19.097497940063477 -2.4043164253234863
7.461972713470459 -18.817752838134766 -2.4046132564544678
8.573356628417969 -18.342180252075195 -2.4050498008728027
9.297616958618164 -17.98853302001953 -2.405334234237671
9.65450382232666 -17.80091094970703 -2.4054744243621826
4.655021667480469 -16.312055587768555 -2.403514862060547
5.301200866699219 -16.115537643432617 -2.403768539428711
5.621203422546387 -16.00766372680664 -2.4038941860198975
5.939006328582764 -15.893424987792969 -2.4040191173553467
6.567624568939209 -15.646053314208984 -2.404266119003296
6.877885818481445 -15.513022422790527 -2.404387950897217
7.490886211395264 -15.228477478027344 -2.4046292304992676
7.792873382568359 -15.077089309692383 -2.40474796295166
8.387653350830078 -14.7564058303833 -2.404982328414917
8.68013858795166 -14.587224006652832 -2.405097246170044
8.969305992126465 -14.412238121032715 -2.4052114486694336
4.003332614898682 -14.028261184692383 -2.4032657146453857
4.834113597869873 -13.766188621520996 -2.4035916328430176
5.107404708862305 -13.667839050292969 -2.4036989212036133
5.378688812255859 -13.564074516296387 -2.4038052558898926
6.179470062255859 -13.220600128173828 -2.4041194915771484
6.70135498046875 -12.965258598327637 -2.404324531555176
6.95840311050415 -12.829845428466797 -2.4044253826141357
7.212699890136719 -12.689315795898438 -2.4045250415802
7.46417236328125 -12.543750762939453 -2.4046237468719482
7.712695121765137 -12.393189430236816 -2.404721260070801
3.2629175186157227 -12.36105728149414 -2.402977466583252
3.5084593296051025 -12.294151306152344 -2.403073787689209
3.752626895904541 -12.222360610961914 -2.4031693935394287
4.236467361450195 -12.064265251159668 -2.4033594131469727
4.713671684265137 -11.887016296386719 -2.4035465717315674
4.949545860290527 -11.79129409790039 -2.403639078140259
6.320700645446777 -11.120001792907715 -2.404177188873291
6.758781433105469 -10.86038589477539 -2.4043490886688232
2.901249885559082 -10.990920066833496 -2.4028372764587402
3.7668235301971436 -10.726837158203125 -2.403176784515381
4.191079139709473 -10.569140434265137 -2.4033432006835938
4.608754634857178 -10.39466667175293 -2.4035069942474365
4.8149094581604 -10.301204681396484 -2.403587818145752
5.815651893615723 -9.773364067077637 -2.4039807319641113
6.009230613708496 -9.655972480773926 -2.4040567874908447
3.194873094558716 -9.712347984313965 -2.402953624725342
3.5791430473327637 -9.578093528747559 -2.403104305267334
3.9577856063842773 -9.428628921508789 -2.4032530784606934
4.330187797546387 -9.26418685913086 -2.4033992290496826
4.513869762420654 -9.176429748535156 -2.4034712314605713
4.695781230926514 -9.08503532409668 -2.4035425186157227
4.875834941864014 -8.990029335021973 -2.403613328933716
5.230104923248291 -8.78934097290039 -2.403752326965332
5.404179573059082 -8.683741569519043 -2.403820514678955
2.368361711502075 -8.97218132019043 -2.402630567550659
2.546560049057007 -8.923521041870117 -2.402700424194336
2.899890184402466 -8.815603256225586 -2.402838945388794
3.248659610748291 -8.69369125366211 -2.4029757976531982
3.4211621284484863 -8.627543449401855 -2.403043508529663
3.5923168659210205 -8.557975769042969 -2.4031105041503906
3.9303174018859863 -8.408676147460938 -2.40324330329895
4.097026348114014 -8.328997611999512 -2.403308629989624
4.425534725189209 -8.15976619720459 -2.403437614440918
4.905043601989746 -7.881700038909912 -2.403625965118408
2.1660449504852295 -8.20572566986084 -2.4025518894195557
2.3290112018585205 -8.161199569702148 -2.402616024017334
2.4910717010498047 -8.113443374633789 -2.402679443359375
2.6521434783935547 -8.062458038330078 -2.402742624282837
2.8121752738952637 -8.008280754089355 -2.4028053283691406
3.128859758377075 -7.890412330627441 -2.4029297828674316
3.440607786178589 -7.760018825531006 -2.4030520915985107
3.594484806060791 -7.690188407897949 -2.4031124114990234
3.746943235397339 -7.617303371429443 -2.403172254562378
3.8979198932647705 -7.5413947105407715 -2.403231620788574
4.341391563415527 -7.295833110809326 -2.4034056663513184
4.485866546630859 -7.208139419555664 -2.4034624099731445
2.143542528152466 -7.511287689208984 -2.4025440216064453
2.440930128097534 -7.420377254486084 -2.402660608291626
2.588210344314575 -7.370497226715088 -2.4027185440063477
2.7344775199890137 -7.317692756652832 -2.402775764465332
2.8796629905700684 -7.261983871459961 -2.4028327465057373
3.0237157344818115 -7.203390121459961 -2.4028892517089844
3.166572093963623 -7.141948223114014 -2.4029452800750732
3.448488712310791 -7.010567665100098 -2.4030559062957764
3.7249631881713867 -6.868066787719727 -2.4031643867492676
3.995561361312866 -6.714654445648193 -2.403270721435547
4.128512859344482 -6.633933067321777 -2.40332293510437
1.8446166515350342 -6.988041877746582 -2.402428150177002
1.9833812713623047 -6.950108051300049 -2.402482271194458
2.2585034370422363 -6.865999221801758 -2.402590274810791
2.3949217796325684 -6.819695949554443 -2.402643918991089
2.797778367996216 -6.665131092071533 -2.402801513671875
2.9299559593200684 -6.608266830444336 -2.40285325050354
3.446599006652832 -6.3548102378845215 -2.4030559062957764
3.5724852085113525 -6.285074710845947 -2.4031054973602295
1.7145800590515137 -6.495436191558838 -2.4023776054382324
1.971840739250183 -6.422309398651123 -2.4024784564971924
2.2259960174560547 -6.339004993438721 -2.402578115463257
2.476640462875366 -6.24563455581665 -2.402676582336426
2.845087766647339 -6.087129592895508 -2.402820587158203
2.9657859802246094 -6.029362201690674 -2.4028680324554443
3.085329532623291 -5.969195365905762 -2.4029152393341064
3.32061767578125 -5.841877460479736 -2.4030075073242188
1.7203344106674194 -6.02829647064209 -2.4023802280426025
1.8400219678878784 -5.992975234985352 -2.4024271965026855
1.958986759185791 -5.9552764892578125 -2.4024739265441895
2.4266600608825684 -5.78102970123291 -2.4026572704315186
2.5413012504577637 -5.731688022613525 -2.4027023315429688
2.6549389362335205 -5.680070877075195 -2.4027469158172607
2.767519474029541 -5.6262030601501465 -2.4027910232543945
2.8790135383605957 -5.570101737976074 -2.40283465385437
2.989374876022339 -5.511786460876465 -2.4028780460357666
1.8342260122299194 -5.576015949249268 -2.402425527572632
1.9448925256729126 -5.53849983215332 -2.4024689197540283
2.0547876358032227 -5.498788356781006 -2.4025120735168457
2.272109270095825 -5.412837505340576 -2.402597188949585
2.591249942779541 -5.267854690551758 -2.4027223587036133
2.798967123031616 -5.160715103149414 -2.402803897857666
3.002263069152832 -5.045387268066406 -2.402883768081665
3.1021482944488525 -4.984707832336426 -2.4029228687286377
1.5126538276672363 -5.300563335418701 -2.402299642562866
1.6178929805755615 -5.269495964050293 -2.402340888977051
1.7224901914596558 -5.236336708068848 -2.4023818969726562
1.8264111280441284 -5.201100826263428 -2.4024226665496826
2.1336865425109863 -5.083075523376465 -2.402543306350708
2.3343896865844727 -4.99428653717041 -2.4026219844818115
2.4333789348602295 -4.946908950805664 -2.402660846710205
2.6284375190734863 -4.846289157867432 -2.4027373790740967
2.724423885345459 -4.793083190917969 -2.4027750492095947
1.5232592821121216 -4.961274147033691 -2.402304172515869
1.6217381954193115 -4.930048942565918 -2.4023427963256836
1.719580054283142 -4.896871566772461 -2.402381181716919
1.816738247871399 -4.861749649047852 -2.402419328689575
2.0088744163513184 -4.785736560821533 -2.4024946689605713
2.103769540786743 -4.744874954223633 -2.402531862258911
2.3833227157592773 -4.611066818237305 -2.402641534805298
2.47467041015625 -4.562777996063232 -2.402677297592163
2.5650415420532227 -4.512682914733887 -2.402712821960449
2.6544017791748047 -4.460792541503906 -2.402747869491577
2.7427074909210205 -4.4071364402771 -2.402782440185547
1.2498925924301147 -4.7350263595581055 -2.4021973609924316
1.3439159393310547 -4.709279537200928 -2.4022343158721924
1.4374096393585205 -4.681665420532227 -2.402270793914795
1.5303393602371216 -4.6521992683410645 -2.4023072719573975
1.7143480777740479 -4.587738990783691 -2.4023795127868652
1.8053539991378784 -4.552773952484131 -2.4024150371551514
1.985195279121399 -4.4774394035339355 -2.4024858474731445
2.1618945598602295 -4.395002841949463 -2.402554988861084
2.2489843368530273 -4.351161479949951 -2.4025893211364746
2.3351831436157227 -4.305592060089111 -2.402623176574707
2.420459032058716 -4.258315086364746 -2.4026565551757812
2.5881054401397705 -4.158713340759277 -2.4027223587036133
1.1818041801452637 -4.477077007293701 -2.4021708965301514
1.4469677209854126 -4.398749828338623 -2.4022748470306396
1.8770335912704468 -4.233495235443115 -2.4024436473846436
1.9609618186950684 -4.195352554321289 -2.4024765491485596
2.0441064834594727 -4.155544757843018 -2.4025092124938965
2.1264500617980957 -4.1140875816345215 -2.402541399002075
2.288576602935791 -4.026294231414795 -2.4026050567626953
2.447084903717041 -3.932112455368042 -2.402667284011841
1.2035839557647705 -4.217535972595215 -2.402179718017578
1.3705370426177979 -4.16640043258667 -2.402245283126831
1.5353246927261353 -4.108659744262695 -2.4023098945617676
1.7778807878494263 -4.009861469268799 -2.402405023574829
2.09130859375 -3.855935573577881 -2.4025278091430664
2.317805051803589 -3.7243800163269043 -2.4026167392730713
1.061892032623291 -4.0228095054626465 -2.4021244049072266
1.1417700052261353 -4.000927448272705 -2.402155637741089
1.3001439571380615 -3.9524154663085938 -2.4022178649902344
1.378579020500183 -3.9258012771606445 -2.4022486209869385
1.686562418937683 -3.803899049758911 -2.402369499206543
2.198745012283325 -3.5330681800842285 -2.4025704860687256
