ply
format ascii 1.0
element vertex 849
property float x
property float y
property float z
end_header
14.984492301940918 -8.232759475708008 -2.4224843978881836
15.306154251098633 -7.625264644622803 -2.4229400157928467
15.602980613708496 -7.005130290985107 -2.4233603477478027
16.000444412231445 -6.053506374359131 -2.423923969268799
16.1201114654541 -5.730981826782227 -2.424093723297119
16.339513778686523 -5.079111099243164 -2.4244046211242676
16.439247131347656 -4.749934196472168 -2.4245457649230957
16.532304763793945 -4.4187774658203125 -2.424677848815918
16.770898818969727 -3.4148411750793457 -2.425016164779663
17.031494140625 -1.715078353881836 -2.425386667251587
17.062864303588867 -1.3724175691604614 -2.425431251525879
17.104658126831055 -0.6855248808860779 -2.4254910945892334
17.115068435668945 -0.3415771424770355 -2.425506114959717
17.118532180786133 0.0025122070219367743 -2.425511360168457
17.114992141723633 0.34660154581069946 -2.425506830215454
17.10445213317871 0.6905419826507568 -2.425492286682129
17.062469482421875 1.3774267435073853 -2.42543363571167
17.03103256225586 1.7200769186019897 -2.425389528274536
16.992626190185547 2.062014102935791 -2.42533540725708
16.94729995727539 2.403095006942749 -2.42527174949646
16.697101593017578 3.756000280380249 -2.424919366836548
15.739999771118164 6.69527006149292 -2.423565149307251
15.30397891998291 7.629785537719727 -2.4229483604431152
14.812055587768555 8.535816192626953 -2.422253131866455
14.635986328125 8.830914497375488 -2.422004461288452
14.453990936279297 9.12234878540039 -2.4217474460601807
13.873222351074219 9.973512649536133 -2.420926570892334
13.457890510559082 10.520492553710938 -2.420339822769165
13.020861625671387 11.050089836120605 -2.419722080230713
12.79439640045166 11.30807113647461 -2.4194018840789795
12.562811851501465 11.56139850616455 -2.419074535369873
12.08462142944336 12.053629875183105 -2.41839861869812
11.8381929397583 12.292328834533691 -2.4180502891540527
5.880166053771973 6.356655597686768 -1.2269270420074463
5.79636812210083 6.524402141571045 -1.236562728881836
10.80609130859375 13.195502281188965 -2.416591167449951
10.263734817504883 13.614826202392578 -2.4158244132995605
9.705060958862305 14.01176929473877 -2.415034532546997
9.419882774353027 14.201635360717773 -2.4146313667297363
8.551471710205078 13.472684860229492 -2.2610018253326416
8.277522087097168 13.639506340026855 -2.2606143951416016
7.719919204711914 13.956310272216797 -2.2598259449005127
7.43651819229126 14.10617446899414 -2.259425163269043
7.150192737579346 14.250246047973633 -2.2590203285217285
6.861066818237305 14.38848876953125 -2.2586114406585693
6.569263935089111 14.520824432373047 -2.2581987380981445
6.274179458618164 14.645539283752441 -2.2575206756591797
5.976669788360596 14.7640962600708 -2.25681734085083
5.676924705505371 14.87658405303955 -2.256108522415161
5.375035285949707 14.982932090759277 -2.255394458770752
5.071178913116455 15.083136558532715 -2.254676103591919
10.386405944824219 -10.353696823120117 -2.415980577468872
10.593710899353027 -10.144070625305176 -2.416273832321167
10.796754837036133 -9.930272102355957 -2.4165611267089844
10.99544906616211 -9.71236515045166 -2.416842460632324
11.189736366271973 -9.490474700927734 -2.4171173572540283
11.564664840698242 -9.035038948059082 -2.4176480770111084
11.745182991027832 -8.801690101623535 -2.417903423309326
12.091906547546387 -8.324197769165039 -2.4183943271636963
12.419089317321777 -7.8329668045043945 -2.4188575744628906
12.575178146362305 -7.582449913024902 -2.4190785884857178
12.726171493530273 -7.32880163192749 -2.419292449951172
13.147985458374023 -6.550097942352295 -2.4198896884918213
13.277982711791992 -6.284971237182617 -2.4200737476348877
13.402619361877441 -6.017251491546631 -2.420250415802002
13.521806716918945 -5.747040271759033 -2.420419216156006
13.74364948272705 -5.1996002197265625 -2.4207334518432617
13.846220016479492 -4.922590732574463 -2.4208786487579346
13.943161010742188 -4.643542766571045 -2.421016216278076
14.034425735473633 -4.362579345703125 -2.4211456775665283
14.404459953308105 -2.9329943656921387 -2.421670436859131
14.460990905761719 -2.6429524421691895 -2.421750545501709
14.511615753173828 -2.351816415786743 -2.4218225479125977
14.556337356567383 -2.0597033500671387 -2.4218859672546387
14.595138549804688 -1.7667410373687744 -2.4219412803649902
14.65487003326416 -1.1787350177764893 -2.4220261573791504
14.675776481628418 -0.883941650390625 -2.422055959701538
14.690702438354492 -0.5887777805328369 -2.4220774173736572
14.702611923217773 0.0021575926803052425 -2.4220950603485107
14.690526962280273 0.5930859446525574 -2.4220786094665527
14.594615936279297 1.7710217237472534 -2.4219441413879395
14.555753707885742 2.0639781951904297 -2.421889543533325
14.403627395629883 2.937222719192505 -2.421675205230713
14.341154098510742 3.2260327339172363 -2.4215872287750244
14.11883544921875 4.083962440490723 -2.421273708343506
14.033151626586914 4.366706848144531 -2.4211511611938477
13.844794273376465 4.926660537719727 -2.420884847640991
13.633925437927246 5.478458881378174 -2.4205870628356934
13.520148277282715 5.751020908355713 -2.4204261302948
13.400880813598633 6.0211944580078125 -2.420257091522217
13.010665893554688 6.816349506378174 -2.4197030067443848
12.869973182678223 7.075915813446045 -2.419504404067993
12.7240571975708 7.332554340362549 -2.4192981719970703
12.416831016540527 7.83664083480835 -2.4188640117645264
11.562067985534668 9.038459777832031 -2.417656183242798
11.376811027526855 9.268021583557129 -2.4173943996429443
11.186991691589355 9.493782997131348 -2.417126178741455
10.590771675109863 10.147207260131836 -2.416283369064331
10.383410453796387 10.356781959533691 -2.4159903526306152
5.795968055725098 6.5239481925964355 -1.437626600265503
9.513161659240723 11.151639938354492 -2.414759874343872
8.037367820739746 11.1196870803833 -2.2602720260620117
7.114160060882568 11.722553253173828 -2.2589666843414307
6.63525390625 11.995417594909668 -2.258289337158203
6.391401290893555 12.123713493347168 -2.2577943801879883
6.144830226898193 12.246574401855469 -2.257211208343506
5.644684791564941 12.477107048034668 -2.256028652191162
4.878522872924805 12.784355163574219 -2.2542171478271484
9.096354484558105 -9.067703247070312 -2.4141573905944824
9.455439567565918 -8.696598052978516 -2.414665699005127
9.629321098327637 -8.505658149719238 -2.4149117469787598
10.127394676208496 -7.912149429321289 -2.415616750717163
10.28533935546875 -7.707700252532959 -2.4158401489257812
10.58870792388916 -7.28938627243042 -2.4162697792053223
10.733999252319336 -7.075673580169678 -2.416475296020508
11.2711763381958 -6.192594051361084 -2.417235851287842
11.512601852416992 -5.735380172729492 -2.4175779819488525
11.626330375671387 -5.503183364868164 -2.417738914489746
11.7353515625 -5.268715858459473 -2.417893409729004
12.20816421508789 -4.065738201141357 -2.4185631275177
12.362833976745605 -3.5721001625061035 -2.4187824726104736
12.432648658752441 -3.3230161666870117 -2.418881416320801
12.611647605895996 -2.5679478645324707 -2.419135332107544
12.66107177734375 -2.313991069793701 -2.419205665588379
12.705366134643555 -2.059086322784424 -2.4192683696746826
12.74447250366211 -1.8033281564712524 -2.4193239212036133
12.77840805053711 -1.546825885772705 -2.419372081756592
12.830646514892578 -1.0320076942443848 -2.4194467067718506
12.84893798828125 -0.773911714553833 -2.4194726943969727
12.869813919067383 -0.2568536400794983 -2.4195027351379395
12.87240219116211 0.0018865966703742743 -2.419506788253784
12.86184024810791 0.5192553400993347 -2.419492483139038
12.848708152770996 0.7776764035224915 -2.4194741249084473
12.83034610748291 1.0357738733291626 -2.4194483757019043
12.704777717590332 2.0628137588500977 -2.41927170753479
12.556266784667969 2.8245227336883545 -2.419062614440918
12.496525764465332 3.0762341022491455 -2.418978452682495
12.286911010742188 3.8233208656311035 -2.418682813644409
12.122118949890137 4.313657760620117 -2.4184491634368896
11.93768310546875 4.796865940093994 -2.4181876182556152
11.838151931762695 5.035555839538574 -2.4180469512939453
11.733842849731445 5.272171974182129 -2.4178996086120605
11.269389152526855 6.195913791656494 -2.4172396659851074
10.731943130493164 7.078834533691406 -2.4164798259735107
10.283098220825195 7.710729122161865 -2.4158453941345215
9.9630126953125 8.116286277770996 -2.415393114089966
9.79690933227539 8.31409740447998 -2.415158271789551
9.45291519165039 8.699396133422852 -2.4146721363067627
7.80327844619751 9.147261619567871 -2.2599387168884277
7.616943359375 9.301180839538574 -2.2596752643585205
7.235230445861816 9.597518920898438 -2.2591357231140137
7.039988994598389 9.739812850952148 -2.258859395980835
6.841950416564941 9.878129005432129 -2.2585794925689697
6.437469482421875 10.142111778259277 -2.257904291152954
6.230957984924316 10.267233848571777 -2.257416009902954
5.810687065124512 10.504748344421387 -2.2564220428466797
5.163515567779541 10.828513145446777 -2.254891872406006
4.046180248260498 11.278732299804688 -2.2522494792938232
8.244879722595215 -7.894930839538574 -2.412954568862915
8.708078384399414 -7.385685920715332 -2.4136102199554443
8.999428749084473 -7.030908584594727 -2.414022445678711
9.276249885559082 -6.664602279663086 -2.414414405822754
9.409070014953613 -6.477306365966797 -2.414602279663086
9.538081169128418 -6.287351131439209 -2.4147849082946777
9.66324234008789 -6.0948028564453125 -2.4149622917175293
9.78448486328125 -5.899750709533691 -2.4151339530944824
9.901789665222168 -5.702284812927246 -2.415299892425537
10.229426383972168 -5.096128463745117 -2.4157638549804688
10.330402374267578 -4.889772415161133 -2.4159069061279297
10.519753456115723 -4.471107006072998 -2.416175127029419
10.608044624328613 -4.258970260620117 -2.416300058364868
10.692035675048828 -4.045089244842529 -2.416419267654419
10.846962928771973 -3.6124064922332764 -2.4166388511657715
10.984274864196777 -3.1737802028656006 -2.4168334007263184
11.103744506835938 -2.729919910430908 -2.4170029163360596
11.156721115112305 -2.506260633468628 -2.4170777797698975
11.205161094665527 -2.281564235687256 -2.417146682739258
11.32308578491211 -1.6022006273269653 -2.417314052581787
11.353195190429688 -1.3743047714233398 -2.4173569679260254
11.427407264709473 -0.45799314975738525 -2.4174628257751465
11.43664264678955 0.001678466796875 -2.4174764156341553
11.434293746948242 0.2315569967031479 -2.417473316192627
11.427268028259277 0.4613378942012787 -2.417463541030884
11.399311065673828 0.9202496409416199 -2.4174246788024902
11.32262134552002 1.605526089668274 -2.4173169136047363
11.204504013061523 2.28485107421875 -2.4171504974365234
10.983366012573242 3.1770079135894775 -2.4168386459350586
10.690885543823242 4.048238277435303 -2.416425943374634
10.51846694946289 4.474206447601318 -2.4161806106567383
10.425837516784668 4.6844682693481445 -2.4160492420196533
10.227951049804688 5.0991387367248535 -2.415769577026367
10.013463973999023 5.50540828704834 -2.415463924407959
9.7827730178833 5.902629852294922 -2.4151363372802734
9.407177925109863 6.480070114135742 -2.414605140686035
9.137685775756836 6.851844787597656 -2.414224147796631
8.426347732543945 6.587162494659424 -2.260817527770996
8.291533470153809 6.754640579223633 -2.260627031326294
7.719457626342773 7.396149158477783 -2.2598183155059814
6.769455432891846 8.26629638671875 -2.2584753036499023
6.601237773895264 8.399812698364258 -2.258237361907959
6.430089950561523 8.529501914978027 -2.257892608642578
6.256198406219482 8.655441284179688 -2.257481098175049
5.1634202003479 9.33459186553955 -2.254894733428955
2.8882739543914795 5.478695392608643 -1.3091593980789185
4.782144546508789 9.530765533447266 -2.253992795944214
4.196469783782959 9.795626640319824 -2.25260591506958
3.9978930950164795 9.875940322875977 -2.252136468887329
3.797772169113159 9.952208518981934 -2.2516632080078125
3.393261671066284 10.092520713806152 -2.250706672668457
8.215788841247559 -6.156808853149414 -2.4129152297973633
8.338480949401855 -5.990860939025879 -2.4130890369415283
8.686152458190918 -5.478532791137695 -2.413581132888794
8.900458335876465 -5.125633239746094 -2.4138846397399902
9.100341796875 -4.764308452606201 -2.414167642593384
9.194782257080078 -4.58067512512207 -2.4143011569976807
9.28549575805664 -4.395175457000732 -2.4144296646118164
9.37243366241455 -4.207855224609375 -2.414552927017212
9.455583572387695 -4.0188140869140625 -2.414670705795288
9.61034870147705 -3.6358554363250732 -2.4148898124694824
9.681889533996582 -3.442091941833496 -2.4149911403656006
9.749506950378418 -3.246917724609375 -2.4150869846343994
9.813166618347168 -3.0504069328308105 -2.415177345275879
9.872843742370605 -2.8526453971862793 -2.41526198387146
9.980148315429688 -2.45367693901062 -2.4154140949249268
10.02773380279541 -2.2526421546936035 -2.4154815673828125
10.071242332458496 -2.050677537918091 -2.4155433177948
10.110663414001465 -1.8478683233261108 -2.4155993461608887
10.145976066589355 -1.6443008184432983 -2.4156494140625
10.204216003417969 -1.235221266746521 -2.4157321453094482
10.245863914489746 -0.8241055011749268 -2.4157915115356445
10.260451316833496 -0.6180008053779602 -2.4158124923706055
10.27709674835205 -0.20510680973529816 -2.4158363342285156
10.279157638549805 0.0015087890205904841 -2.415839433670044
10.277043342590332 0.20812438428401947 -2.415836811065674
10.260266304016113 0.6210101246833801 -2.415813446044922
10.24562931060791 0.8271142244338989 -2.415792942047119
10.176753044128418 1.4430450201034546 -2.415696144104004
10.145498275756836 1.647276520729065 -2.415652275085449
10.027090072631836 2.2555878162384033 -2.415485382080078
9.979440689086914 2.4566099643707275 -2.4154181480407715
9.927753448486328 2.656622886657715 -2.4153454303741455
9.812294960021973 3.0532946586608887 -2.41518235206604
9.74856948852539 3.249783754348755 -2.4150924682617188
9.533796310424805 3.8309240341186523 -2.4147894382476807
9.454435348510742 4.021602630615234 -2.414677381515503
9.371230125427246 4.210618019104004 -2.414559841156006
9.284211158752441 4.397909641265869 -2.414435863494873
9.19345474243164 4.5833892822265625 -2.414306163787842
9.098967552185059 4.7669901847839355 -2.414172649383545
9.00079345703125 4.948637962341309 -2.4140334129333496
8.793535232543945 5.305753707885742 -2.4137377738952637
8.684560775756836 5.4810895919799805 -2.413583278656006
8.572062492370605 5.654170513153076 -2.413423776626587
7.919443130493164 5.4552507400512695 -2.260101795196533
7.574618816375732 5.92134952545166 -2.259613513946533
7.453495979309082 6.0719475746154785 -2.259442090988159
7.329384803771973 6.22005033493042 -2.2592663764953613
7.07230806350708 6.508571147918701 -2.2589023113250732
6.939489364624023 6.6488518714904785 -2.258714437484741
6.803868293762207 6.786421298980713 -2.2585227489471436
6.665507793426514 6.921210289001465 -2.258327007293701
5.794745922088623 6.5225749015808105 -2.0505409240722656
6.234577655792236 7.308379173278809 -2.257720708847046
5.623108863830566 7.7795634269714355 -2.255988836288452
5.464695930480957 7.889707565307617 -2.2556140422821045
2.8233020305633545 5.355454444885254 -1.4228466749191284
2.7347216606140137 5.450259208679199 -1.4331382513046265
3.233201742172241 9.012551307678223 -2.2503340244293213
3.0508105754852295 9.073972702026367 -2.2499024868011475
6.593811988830566 -6.573019027709961 -2.410625696182251
6.725122928619385 -6.439666748046875 -2.410811185836792
7.339980125427246 -5.734549522399902 -2.4116787910461426
7.454257488250732 -5.586092948913574 -2.4118399620056152
7.5655198097229 -5.435514450073242 -2.411996603012085
7.778847694396973 -5.127684593200684 -2.4122984409332275
7.880815029144287 -4.970592021942139 -2.412442684173584
7.979597091674805 -4.811456680297852 -2.4125826358795166
8.256418228149414 -4.32249116897583 -2.4129745960235596
8.342050552368164 -4.15586519241333 -2.413095712661743
8.424301147460938 -3.987539052963257 -2.413212299346924
8.5785493850708 -3.646057605743408 -2.41343092918396
8.718881607055664 -3.2985942363739014 -2.4136297702789307
8.783754348754883 -3.122791051864624 -2.4137215614318848
8.845063209533691 -2.945706605911255 -2.4138083457946777
8.956901550292969 -2.5879924297332764 -2.4139668941497803
9.007377624511719 -2.4075067043304443 -2.4140384197235107
9.054201126098633 -2.226027488708496 -2.41410493850708
9.136792182922363 -1.8604061603546143 -2.414222002029419
9.20455265045166 -1.4917287826538086 -2.414318323135376
9.257363319396973 -1.1206035614013672 -2.414393424987793
9.295134544372559 -0.747636079788208 -2.414447069168091
9.308351516723633 -0.5606545805931091 -2.414466142654419
9.3253173828125 0.0013684082077816129 -2.4144906997680664
9.317678451538086 0.3761737048625946 -2.414480209350586
9.294909477233887 0.7503631711006165 -2.4144484996795654
9.257040977478027 1.1233196258544922 -2.414395332336426
9.232458114624023 1.3091448545455933 -2.414360761642456
9.05356216430664 2.228689432144165 -2.4141087532043457
9.006691932678223 2.410151243209839 -2.4140427112579346
8.956156730651855 2.5906267166137695 -2.413971424102783
8.84421157836914 2.9483063220977783 -2.413813352584839
8.782855987548828 3.1253721714019775 -2.413726806640625
8.71792984008789 3.301154613494873 -2.41363525390625
8.577499389648438 3.648582696914673 -2.4134368896484375
8.502055168151855 3.8200864791870117 -2.413330316543579
8.340861320495605 4.15833044052124 -2.413102865219116
8.255175590515137 4.324923038482666 -2.4129812717437744
8.073803901672363 4.6527299880981445 -2.4127228260040283
7.879372596740723 4.972909450531006 -2.4124467372894287
7.18528938293457 4.949530601501465 -2.259068012237549
6.762731552124023 5.5092082023620605 -2.258469820022583
6.650163650512695 5.64363431930542 -2.258310556411743
6.534919261932373 5.775737762451172 -2.2581474781036377
6.296552658081055 6.032831192016602 -2.257810115814209
6.173533916473389 6.157705783843994 -2.257636308670044
6.048039436340332 6.280055522918701 -2.2574586868286133
5.879889011383057 6.356354236602783 -2.241940975189209
5.789806842803955 6.5170159339904785 -2.257096290588379
5.522410869598389 6.74350643157959 -2.256774663925171
5.389640808105469 6.858102321624756 -2.2584075927734375
5.249671459197998 6.963678359985352 -2.257962942123413
4.963606834411621 7.166256427764893 -2.2570836544036865
4.817636489868164 7.263181686401367 -2.2566494941711426
4.520095348358154 7.448113441467285 -2.2557921409606934
2.9670567512512207 5.363931179046631 -1.58712899684906
3.9005627632141113 7.773728370666504 -2.2519173622131348
3.583747386932373 7.921586036682129 -2.2511677742004395
3.4232189655303955 7.990670680999756 -2.2507879734039307
3.261354923248291 8.05649185180664 -2.2504050731658936
3.0982322692871094 8.119027137756348 -2.250019073486328
2.9339001178741455 8.17824649810791 -2.2496304512023926
6.02872896194458 -6.009791851043701 -2.409827709197998
6.381289958953857 -5.636646747589111 -2.4103264808654785
6.493727684020996 -5.507602214813232 -2.4104855060577393
6.603549480438232 -5.3763041496276855 -2.4106407165527344
7.015729904174805 -4.829661846160889 -2.4112229347229004
7.111788272857666 -4.687842845916748 -2.41135835647583
7.382570743560791 -4.251484394073486 -2.411740303039551
7.54821252822876 -3.951724052429199 -2.411973714828491
7.773688793182373 -3.490081310272217 -2.412292718887329
7.908310413360596 -3.175067186355591 -2.4124834537506104
8.030104637145996 -2.854854106903076 -2.41265606880188
8.277234077453613 -2.0350093841552734 -2.41300630569458
8.316657066345215 -1.8682687282562256 -2.413062334060669
8.352706909179688 -1.7007473707199097 -2.413113594055176
8.440461158752441 -1.1943072080612183 -2.413238048553467
8.481852531433105 -0.8541259765625 -2.413296937942505
8.497387886047363 -0.6834655404090881 -2.4133191108703613
8.509467124938965 -0.5125320553779602 -2.4133365154266357
8.51809024810791 -0.3413934111595154 -2.41334867477417
8.523259162902832 -0.17010192573070526 -2.413356304168701
8.524970054626465 0.0012518310686573386 -2.4133589267730713
8.52321720123291 0.1726061999797821 -2.4133565425872803
8.517990112304688 0.34388792514801025 -2.413349151611328
8.440116882324219 1.1967926025390625 -2.4132401943206787
8.384923934936523 1.5350072383880615 -2.4131622314453125
8.352216720581055 1.703204870223999 -2.413116216659546
8.233818054199219 2.203333616256714 -2.412949323654175
8.18764591217041 2.368328094482422 -2.41288423538208
8.13814926147461 2.5323498249053955 -2.4128143787384033
8.085356712341309 2.69533371925354 -2.4127399921417236
7.70059061050415 3.647742748260498 -2.412196636199951
7.625378131866455 3.801626443862915 -2.412090539932251
7.547074794769287 3.953947067260742 -2.411980628967285
7.381345272064209 4.253682613372803 -2.4117467403411865
7.293976783752441 4.40096378326416 -2.411623239517212
6.746484279632568 4.257909297943115 -2.258450984954834
6.65917444229126 4.392415523529053 -2.2583274841308594
6.569167137145996 4.525125503540039 -2.2582004070281982
6.381235122680664 4.784939289093018 -2.2579345703125
6.28338098526001 4.911932945251465 -2.257796287536621
5.867018699645996 5.3993401527404785 -2.2572078704833984
5.75691032409668 5.515801429748535 -2.257052183151245
5.644482135772705 5.630006790161133 -2.2568933963775635
5.529776573181152 5.741910934448242 -2.2567312717437744
5.293742656707764 5.95864200592041 -2.2563977241516113
5.172509670257568 6.063389301300049 -2.256225109100342
5.049189567565918 6.165649890899658 -2.256049871444702
4.541196346282959 6.556393146514893 -2.257810592651367
4.407715797424316 6.645172595977783 -2.257413148880005
3.9971325397491455 6.895167827606201 -2.256241798400879
2.9671154022216797 5.364038467407227 -1.7353527545928955
2.823228597640991 5.355318069458008 -1.7138224840164185
3.572502374649048 7.1199493408203125 -2.25510573387146
3.4280993938446045 7.189138412475586 -2.2547357082366943
2.335223436355591 5.450997829437256 -1.678781270980835
2.2067248821258545 5.451235771179199 -1.664854645729065
1.8330260515213013 5.45192813873291 -1.6282998323440552
5.547233581542969 -5.529793739318848 -2.409147024154663
5.765740871429443 -5.3030686378479 -2.409456253051758
5.871536731719971 -5.186375141143799 -2.4096062183380127
5.974960803985596 -5.0676116943359375 -2.409752607345581
6.075981140136719 -4.946651458740234 -2.409895658493042
6.174539566040039 -4.823874473571777 -2.4100351333618164
6.270607948303223 -4.699111461639404 -2.4101710319519043
6.364144325256348 -4.57237434387207 -2.4103033542633057
6.455108642578125 -4.443737030029297 -2.4104321002960205
6.543465614318848 -4.313379287719727 -2.4105567932128906
6.712209224700928 -4.047259330749512 -2.4107954502105713
6.870090007781982 -3.774554967880249 -2.4110186100006104
7.016855239868164 -3.495758533477783 -2.4112260341644287
7.276058197021484 -2.9212300777435303 -2.4115917682647705
7.439606666564941 -2.477642059326172 -2.411822557449341
7.533581256866455 -2.1767425537109375 -2.4119551181793213
7.576003074645996 -2.024925470352173 -2.412014961242676
7.741703987121582 -1.2546539306640625 -2.412249803543091
7.765468597412109 -1.0988030433654785 -2.4122836589813232
7.786081314086914 -0.9425069689750671 -2.4123129844665527
7.803532600402832 -0.7858178615570068 -2.4123377799987793
7.817814826965332 -0.6288095116615295 -2.412358283996582
7.828927993774414 -0.47154539823532104 -2.4123740196228027
7.817629337310791 0.6311108469963074 -2.4123592376708984
7.684309005737305 1.5670013427734375 -2.4121716022491455
7.614811897277832 1.8745158910751343 -2.4120736122131348
7.532961368560791 2.178955554962158 -2.411958694458008
7.387319087982178 2.628772497177124 -2.4117541313171387
7.332748889923096 2.776637554168701 -2.411677598953247
7.275217056274414 2.9233696460723877 -2.4115967750549316
7.151320457458496 3.213184118270874 -2.4114224910736084
7.085015773773193 3.356149196624756 -2.4113292694091797
7.015843391418457 3.497744083404541 -2.4112319946289062
6.943828105926514 3.637903928756714 -2.411130428314209
6.791393756866455 3.9137089252471924 -2.410914897918701
6.20732307434082 3.9176318645477295 -2.257690191268921
6.044233322143555 4.163525104522705 -2.2574594020843506
5.959001541137695 4.283946514129639 -2.2573392391204834
5.781362056732178 4.519488334655762 -2.2570881843566895
5.594387054443359 4.747650623321533 -2.256824254989624
5.497493743896484 4.8588480949401855 -2.2566871643066406
5.398382663726807 4.968061923980713 -2.256547212600708
5.297095775604248 5.0752410888671875 -2.256404161453247
4.646065711975098 5.673391819000244 -2.2554821968078613
4.058003902435303 6.117936134338379 -2.2580647468566895
3.933573007583618 6.197274684906006 -2.257701873779297
2.9671764373779297 5.3641486167907715 -1.8854871988296509
3.1564061641693115 6.619363307952881 -2.255598783493042
3.022264242172241 6.680471420288086 -2.2552618980407715
2.750511407852173 6.794557571411133 -2.254601001739502
5.131663799285889 -5.115489482879639 -2.408559560775757
5.233763217926025 -5.011617660522461 -2.4087040424346924
5.431593894958496 -4.7977705001831055 -2.4089841842651367
5.711817264556885 -4.462425231933594 -2.4093809127807617
5.887163162231445 -4.229683876037598 -2.4096293449401855
5.971289157867432 -4.1107001304626465 -2.4097483158111572
6.052998065948486 -3.9900474548339844 -2.4098641872406006
6.209047794342041 -3.743868827819824 -2.4100849628448486
6.283317565917969 -3.6184628009796143 -2.4101901054382324
6.355050086975098 -3.491583824157715 -2.4102916717529297
6.424208641052246 -3.3633391857147217 -2.4103894233703613
6.490773677825928 -3.233590602874756 -2.4104835987091064
6.554701805114746 -3.1026530265808105 -2.410574197769165
6.674574851989746 -2.836829423904419 -2.4107437133789062
6.730469703674316 -2.7021820545196533 -2.410822629928589
6.783632755279541 -2.5665111541748047 -2.410897970199585
6.834053993225098 -2.4296350479125977 -2.4109692573547363
6.88170051574707 -2.291839838027954 -2.411036729812622
6.96860933303833 -2.0134997367858887 -2.4111595153808594
7.007835388183594 -1.8731133937835693 -2.41121506690979
7.077746391296387 -1.589953899383545 -2.411313772201538
7.108401775360107 -1.4473642110824585 -2.4113571643829346
7.136176586151123 -1.3042831420898438 -2.4113965034484863
7.16105318069458 -1.1605514287948608 -2.4114317893981934
7.183027267456055 -1.0163887739181519 -2.4114627838134766
7.218225002288818 -0.726877748966217 -2.411512613296509
7.231436729431152 -0.5816460847854614 -2.411531448364258
7.253398418426514 0.14689086377620697 -2.4115631580352783
7.241580486297607 0.4383013844490051 -2.4115467071533203
7.231266975402832 0.583768904209137 -2.411532402038574
7.182735443115234 1.0184985399246216 -2.4114644527435303
7.13579797744751 1.3063000440597534 -2.4113986492156982
7.043720722198486 1.7339324951171875 -2.411269426345825
6.96803092956543 2.01554799079895 -2.411162853240967
6.881041049957275 2.2938623428344727 -2.4110405445098877
6.782895565032959 2.5684289932250977 -2.410902261734009
6.423242092132568 3.365166664123535 -2.410395383834839
6.354043006896973 3.4934563636779785 -2.410297393798828
6.28227424621582 3.6203179359436035 -2.41019606590271
6.107117652893066 3.684849262237549 -2.370941162109375
5.742029666900635 3.623969554901123 -2.2570321559906006
5.591206073760986 3.85146164894104 -2.256819009780884
5.512386322021484 3.962876558303833 -2.2567076683044434
5.431341648101807 4.072667121887207 -2.2565932273864746
5.348106384277344 4.1807966232299805 -2.2564754486083984
5.26270866394043 4.287222862243652 -2.256354808807373
5.0855712890625 4.49479341506958 -2.2561044692993164
4.804589748382568 4.792268753051758 -2.255707263946533
4.707003116607666 4.88757848739624 -2.2555692195892334
4.607522010803223 4.980890274047852 -2.2554287910461426
4.506192684173584 5.072175979614258 -2.2552855014801025
4.191475868225098 5.333484172821045 -2.254840612411499
4.090576171875 5.426143169403076 -2.2587900161743164
3.8694872856140137 5.586604595184326 -2.2589664459228516
3.4062488079071045 5.8758769035339355 -2.257629156112671
2.967238664627075 5.364258289337158 -2.03772234916687
2.823155403137207 5.355175018310547 -2.012305736541748
3.04461669921875 6.06787633895874 -2.256660223007202
2.797492504119873 6.183624744415283 -2.256032705307007
2.6722705364227295 6.237758159637451 -2.2557246685028076
2.546006917953491 6.289365768432617 -2.255420684814453
2.4187512397766113 6.338425636291504 -2.2551209926605225
2.2905566692352295 6.384925842285156 -2.2548255920410156
4.769003868103027 -4.753986358642578 -2.4080467224121094
4.956769943237305 -4.5589680671691895 -2.4083127975463867
5.223344802856445 -4.25260591506958 -2.4086902141571045
5.308032035827637 -4.1468915939331055 -2.4088101387023926
5.390578269958496 -4.039628982543945 -2.4089269638061523
5.470944881439209 -3.9306459426879883 -2.409040689468384
5.549100399017334 -3.820110321044922 -2.409151315689087
5.62501335144043 -3.707916736602783 -2.409259080886841
5.698654651641846 -3.594257116317749 -2.409363269805908
5.905637264251709 -3.2446670532226562 -2.409656524658203
5.969888687133789 -3.1254210472106934 -2.409747362136841
6.031723499298096 -3.0048775672912598 -2.40983510017395
6.148043155670166 -2.760239601135254 -2.4099998474121094
6.254406452178955 -2.511051893234253 -2.4101502895355225
6.350636959075928 -2.2577719688415527 -2.4102866649627686
6.394903659820557 -2.129819393157959 -2.4103493690490723
6.475640773773193 -1.8710622787475586 -2.410463809967041
6.5120849609375 -1.7405773401260376 -2.410515308380127
6.54588508605957 -1.609405517578125 -2.4105632305145264
6.5770263671875 -1.4774715900421143 -2.41060733795166
6.605507850646973 -1.3449938297271729 -2.4106476306915283
6.6544189453125 -1.0784432888031006 -2.410717010498047
6.674832820892334 -0.9444793462753296 -2.410745859146118
6.707531452178955 -0.6754513382911682 -2.410792589187622
6.729344367980957 -0.4053170680999756 -2.4108235836029053
6.741592884063721 0.0009899901924654841 -2.410841226577759
6.70733642578125 0.6774188280105591 -2.4107935428619385
6.692306995391846 0.8120953440666199 -2.4107725620269775
6.65410852432251 1.0803966522216797 -2.4107189178466797
6.630959510803223 1.2139123678207397 -2.410686492919922
6.511579513549805 1.7424700260162354 -2.410518169403076
6.475102424621582 1.8729643821716309 -2.4104669094085693
6.436002254486084 2.002692222595215 -2.410411834716797
6.253682613372803 2.5128912925720215 -2.4101548194885254
6.147247314453125 2.762040853500366 -2.4100046157836914
5.904695987701416 3.246403694152832 -2.4096620082855225
5.838017463684082 3.3643059730529785 -2.4095678329467773
5.76898193359375 3.4808294773101807 -2.409470319747925
5.412245750427246 3.415830612182617 -2.2886953353881836
5.267012596130371 3.47414231300354 -2.2563600540161133
5.122657299041748 3.682703733444214 -2.2561559677124023
4.726114273071289 4.177073955535889 -2.2555954456329346
4.640945911407471 4.271003723144531 -2.2554750442504883
4.187788009643555 4.71378231048584 -2.2548346519470215
4.098411560058594 4.804296016693115 -2.258260488510132
3.9021971225738525 4.965389728546143 -2.258375406265259
3.801678419113159 5.042919158935547 -2.2584187984466553
3.6996045112609863 5.118396282196045 -2.2584545612335205
3.5960192680358887 5.1917877197265625 -2.2584829330444336
3.384495735168457 5.332210063934326 -2.258517265319824
3.1669859886169434 5.463143825531006 -2.258190631866455
2.8231163024902344 5.355103015899658 -2.164839506149292
2.8308422565460205 5.6418328285217285 -2.2572896480560303
2.716510057449341 5.696849822998047 -2.2569961547851562
2.6011204719543457 5.749566078186035 -2.2567059993743896
2.484710693359375 5.799951553344727 -2.2564196586608887
4.537941932678223 -4.3453288078308105 -2.4077203273773193
4.709395408630371 -4.159846305847168 -2.407963275909424
4.792298316955566 -4.064547538757324 -2.408080577850342
4.873261451721191 -3.9674689769744873 -2.4081950187683105
4.952258110046387 -3.8690080642700195 -2.4083070755004883
5.029250144958496 -3.7688546180725098 -2.4084160327911377
5.104215145111084 -3.667104482650757 -2.408522367477417
5.177117824554443 -3.5639824867248535 -2.408625364303589
5.316612243652344 -3.3532488346099854 -2.408823013305664
5.383155345916748 -3.2458794116973877 -2.4089174270629883
5.447515964508057 -3.1371378898620605 -2.409008502960205
5.509671688079834 -3.027116060256958 -2.4090964794158936
5.627281188964844 -2.8034145832061768 -2.4092631340026855
5.735772609710693 -2.5751376152038574 -2.409416913986206
5.834981441497803 -2.3426573276519775 -2.409557342529297
5.966025352478027 -1.9868896007537842 -2.409743070602417
6.041326999664307 -1.745572805404663 -2.4098498821258545
6.075314998626709 -1.623818278312683 -2.409898281097412
6.135888576507568 -1.3783849477767944 -2.4099841117858887
6.186519622802734 -1.1306750774383545 -2.4100558757781982
6.208072185516357 -1.0061074495315552 -2.4100863933563232
6.227112770080566 -0.8811278939247131 -2.410113573074341
6.257608413696289 -0.630143404006958 -2.4101569652557373
6.269049167633057 -0.5042392015457153 -2.410173177719116
6.284311294555664 -0.2518640160560608 -2.4101951122283936
6.288116455078125 -0.12549620866775513 -2.410200595855713
6.277843952178955 0.3799706995487213 -2.410186529159546
6.268908500671387 0.5060796737670898 -2.4101741313934326
6.257426738739014 0.6319793462753296 -2.4101579189300537
6.243406772613525 0.7576226592063904 -2.4101383686065674
6.186188697814941 1.1324901580810547 -2.41005802154541
6.135494232177734 1.3801751136779785 -2.4099864959716797
6.040822505950928 1.7473461627960205 -2.409852981567383
5.880403995513916 2.226688861846924 -2.4096264839172363
5.834303855895996 2.3443732261657715 -2.4095613956451416
5.785836219787598 2.4611029624938965 -2.4094929695129395
5.735030174255371 2.5768260955810547 -2.409421443939209
5.681899070739746 2.6914966106414795 -2.409346342086792
5.568759441375732 2.917499303817749 -2.409186601638794
5.508800029754639 3.0287420749664307 -2.409101724624634
5.446606159210205 3.1387414932250977 -2.4090139865875244
5.019407749176025 3.3108227252960205 -2.304285764694214
4.847578048706055 3.339223623275757 -2.2557666301727295
4.786457538604736 3.4410033226013184 -2.2590603828430176
4.636909008026123 3.624821186065674 -2.2554688453674316
4.409382343292236 3.8971519470214844 -2.2551472187042236
4.329941272735596 3.9847912788391113 -2.255034923553467
4.165856838226318 4.155182361602783 -2.254802942276001
3.9992148876190186 4.323284149169922 -2.2569069862365723
3.8224339485168457 4.480784893035889 -2.2570364475250244
3.73168683052063 4.556827068328857 -2.2570908069610596
3.6394126415252686 4.631009578704834 -2.257138252258301
3.450456380844116 4.77370023727417 -2.2572124004364014
3.3538451194763184 4.8421478271484375 -2.2572386264801025
3.255869150161743 4.908623695373535 -2.257258176803589
3.156562328338623 4.973104953765869 -2.257270574569702
3.055971622467041 5.03555965423584 -2.2572760581970215
2.427767276763916 5.366393089294434 -2.2571609020233154
2.319284677505493 5.4138031005859375 -2.2570323944091797
2.2097363471984863 5.458688259124756 -2.2567687034606934
1.9880993366241455 5.541822910308838 -2.256251811981201
1.8760961294174194 5.5800395011901855 -2.2559990882873535
4.16547966003418 -4.15236234664917 -2.407193660736084
4.248306751251221 -4.067987442016602 -2.407310962677002
4.636102199554443 -3.622009754180908 -2.407860040664673
4.778334617614746 -3.433035135269165 -2.4080615043640137
4.846569538116455 -3.336430549621582 -2.40815806388855
5.099653244018555 -2.9367709159851074 -2.4085166454315186
5.267903804779053 -2.624379873275757 -2.40875506401062
5.416968822479248 -2.3023202419281006 -2.408966064453125
5.462297439575195 -2.193030595779419 -2.4090304374694824
5.58494234085083 -1.8599752187728882 -2.4092042446136475
5.621321678161621 -1.747377872467041 -2.4092557430267334
5.76878023147583 -1.1746008396148682 -2.4094650745391846
5.811479568481445 -0.9418328404426575 -2.4095256328582764
5.829296588897705 -0.8248382210731506 -2.4095511436462402
5.857838153839111 -0.5898867845535278 -2.4095916748046875
5.868546009063721 -0.472024530172348 -2.40960693359375
5.87687873840332 -0.35397276282310486 -2.409618854522705
5.886391639709473 -0.11747924238443375 -2.409632444381714
5.887565612792969 0.0008636474376544356 -2.4096343517303467
5.868410587310791 0.4737469255924225 -2.4096078872680664
5.829057693481445 0.8265490531921387 -2.4095523357391357
5.811203479766846 0.9435375928878784 -2.40952730178833
5.790998458862305 1.0601427555084229 -2.409498929977417
5.768441200256348 1.1763147115707397 -2.4094672203063965
5.743549823760986 1.2920074462890625 -2.4094319343566895
5.686790466308594 1.5217602252960205 -2.4093518257141113
5.65494966506958 1.6357293128967285 -2.4093070030212402
5.584403038024902 1.8616149425506592 -2.409207344055176
5.504811763763428 2.0844671726226807 -2.409095048904419
5.461661338806152 2.1946356296539307 -2.409034252166748
5.41630220413208 2.303914785385132 -2.4089701175689697
5.368747234344482 2.4122509956359863 -2.408902883529663
5.319022178649902 2.519604444503784 -2.408832550048828
5.267142295837402 2.625929594039917 -2.408759355545044
5.038531303405762 3.0400969982147217 -2.4084365367889404
4.976222038269043 3.140645742416382 -2.408348560333252
4.719548225402832 3.2510271072387695 -2.345518112182617
4.508242130279541 3.240993022918701 -2.2724273204803467
3.90214467048645 3.8921384811401367 -2.255676507949829
3.823254346847534 3.969923734664917 -2.2557530403137207
3.660820245742798 4.1206254959106445 -2.255887269973755
3.577343702316284 4.193483829498291 -2.2559447288513184
3.4924097061157227 4.264639377593994 -2.255995512008667
3.3183019161224365 4.401721000671387 -2.256077766418457
3.138784170150757 4.531646728515625 -2.256133794784546
2.860006093978882 4.712652683258057 -2.2561686038970947
2.668266534805298 4.823777198791504 -2.2561590671539307
2.570751905441284 4.876402854919434 -2.2561442852020264
2.472191095352173 4.9270477294921875 -2.2561230659484863
2.372624397277832 4.975681781768799 -2.2560954093933105
2.272102117538452 5.022289276123047 -2.256060838699341
1.8611998558044434 5.188093662261963 -2.2558584213256836
3.9889721870422363 -3.8196606636047363 -2.4069442749023438
4.065123081207275 -3.738879680633545 -2.4070522785186768
4.139638423919678 -3.6565775871276855 -2.4071576595306396
4.212480545043945 -3.572777271270752 -2.4072608947753906
4.283625602722168 -3.487527370452881 -2.4073615074157715
4.353036880493164 -3.400860548019409 -2.4074597358703613
4.550617694854736 -3.1326892375946045 -2.4077396392822266
4.612833023071289 -3.0407023429870605 -2.407827615737915
4.842814922332764 -2.6607329845428467 -2.408153533935547
4.895468711853027 -2.562929630279541 -2.4082281589508057
4.946145057678223 -2.464085102081299 -2.4082999229431152
5.041471004486084 -2.2634224891662598 -2.408435106277466
5.128629207611084 -2.059068202972412 -2.4085583686828613
5.169105052947998 -1.955613374710083 -2.408615827560425
5.207486629486084 -1.851359486579895 -2.40867018699646
5.24376106262207 -1.7463512420654297 -2.408721685409546
5.277910232543945 -1.6406301259994507 -2.4087700843811035
5.309920310974121 -1.5342501401901245 -2.408815622329712
5.339777946472168 -1.427223801612854 -2.408857822418213
5.367477893829346 -1.3196252584457397 -2.4088971614837646
5.392997741699219 -1.211489200592041 -2.408933401107788
5.437476634979248 -0.9937756061553955 -2.40899658203125
5.456414699554443 -0.8842895030975342 -2.4090232849121094
5.499931335449219 -0.553845226764679 -2.409085273742676
5.509985446929932 -0.4431841969490051 -2.409099578857422
5.517805099487305 -0.3323443531990051 -2.4091107845306396
5.526735782623291 -0.11034179478883743 -2.4091238975524902
5.527838230133057 0.0008355712634511292 -2.409125566482544
5.526703834533691 0.11185851693153381 -2.4091238975524902
5.487458229064941 0.6658905148506165 -2.409069061279297
5.456157207489014 0.8858910799026489 -2.409024953842163
5.392647743225098 1.2130712270736694 -2.408935546875
5.36709451675415 1.3212010860443115 -2.4088995456695557
5.33936882019043 1.428790807723999 -2.408860206604004
5.309474945068359 1.5357989072799683 -2.408818244934082
5.277436256408691 1.6421808004379272 -2.4087729454040527
5.243257999420166 1.7478911876678467 -2.408724784851074
5.20695161819458 1.8528894186019897 -2.4086735248565674
5.168538570404053 1.9571318626403809 -2.4086191654205322
4.945429801940918 2.465540647506714 -2.40830397605896
4.89472770690918 2.564371347427368 -2.4082324504852295
4.6723313331604 2.9488513469696045 -2.4079184532165527
4.549705505371094 3.1340343952178955 -2.407744884490967
4.471614837646484 3.2146599292755127 -2.4001355171203613
4.288742542266846 3.2158915996551514 -2.3362085819244385
3.8760411739349365 3.425762176513672 -2.254464626312256
3.6629369258880615 3.6535449028015137 -2.254715919494629
3.5133471488952637 3.7980473041534424 -2.2548537254333496
3.3580260276794434 3.9363903999328613 -2.25496768951416
3.197221517562866 4.068338394165039 -2.255056858062744
3.1148521900177 4.131845474243164 -2.2550923824310303
3.031212091445923 4.193675518035889 -2.2551217079162598
2.860260009765625 4.312195301055908 -2.255162239074707
1.8446825742721558 4.834053039550781 -2.254943370819092
3.6819982528686523 -3.6704018115997314 -2.406510353088379
3.8268699645996094 -3.519749402999878 -2.4067153930664062
3.8970091342926025 -3.442253351211548 -2.4068145751953125
4.032536506652832 -3.28310489654541 -2.4070067405700684
4.097872257232666 -3.201509714126587 -2.4070990085601807
4.161551475524902 -3.118608236312866 -2.40718936920166
4.283840179443359 -2.9490394592285156 -2.407362461090088
4.399205207824707 -2.7746667861938477 -2.4075257778167725
4.454232215881348 -2.6857669353485107 -2.4076037406921387
4.608420372009277 -2.4126505851745605 -2.4078221321105957
4.656116962432861 -2.3195977210998535 -2.4078898429870605
4.701924800872803 -2.225644588470459 -2.407954692840576
4.74583625793457 -2.1306962966918945 -2.4080169200897217
4.78782320022583 -2.0349206924438477 -2.408076524734497
4.865965366363525 -1.8410106897354126 -2.4081871509552
4.902091979980469 -1.7427855730056763 -2.408238410949707
4.968372821807861 -1.5444107055664062 -2.408332347869873
4.998496055603027 -1.4442590475082397 -2.4083750247955322
5.026601314544678 -1.3435170650482178 -2.408414840698242
5.07668924331665 -1.140371322631836 -2.4084858894348145
5.098652362823486 -1.0381726026535034 -2.408517360687256
5.136374473571777 -0.8324230909347534 -2.4085707664489746
5.177331447601318 -0.5213595628738403 -2.4086291790008545
5.186794281005859 -0.41718992590904236 -2.408642530441284
5.199408054351807 -0.20838317275047302 -2.408660411834717
5.20359992980957 0.0007635497604496777 -2.4086668491363525
5.199349403381348 0.20990844070911407 -2.408660888671875
5.194064617156982 0.3143743872642517 -2.408653736114502
5.136135101318359 0.8339306712150574 -2.408572196960449
5.098353385925293 1.039669156074524 -2.4085190296173096
5.076359748840332 1.1419769525527954 -2.4084880352020264
5.026214599609375 1.344993233680725 -2.408417224884033
4.967923641204834 1.5458714962005615 -2.408334970474243
4.935754299163818 1.645382046699524 -2.408289670944214
4.901587009429932 1.7442253828048706 -2.4082412719726562
4.865433216094971 1.8423571586608887 -2.4081902503967285
4.827310562133789 1.9397368431091309 -2.4081366062164307
4.745217323303223 2.1320879459381104 -2.408020496368408
4.607722282409668 2.414008140563965 -2.4078264236450195
4.558136940002441 2.50606632232666 -2.4077563285827637
4.506705284118652 2.597102642059326 -2.4076836109161377
4.453452110290527 2.6870782375335693 -2.4076085090637207
4.341568470001221 2.863717555999756 -2.4074504375457764
4.160642147064209 3.119837522506714 -2.4071946144104004
3.6594395637512207 3.2343242168426514 -2.260678291320801
3.3777050971984863 3.5072827339172363 -2.253918170928955
3.3066186904907227 3.574564218521118 -2.2539801597595215
3.1604247093200684 3.7047550678253174 -2.254087209701538
3.0853796005249023 3.7676074504852295 -2.254132032394409
3.009075880050659 3.8289310932159424 -2.254171133041382
2.9315502643585205 3.8886969089508057 -2.254204750061035
2.8528294563293457 3.9468846321105957 -2.254232168197632
2.691934823989868 4.058425426483154 -2.254270315170288
2.609825372695923 4.111732006072998 -2.2542805671691895
2.4424595832824707 4.213313579559326 -2.2542836666107178
2.1840476989746094 4.352784156799316 -2.254244804382324
2.0960888862609863 4.395756721496582 -2.2542202472686768
2.0072875022888184 4.4369425773620605 -2.254189968109131
1.551790714263916 4.615470886230469 -2.2539520263671875
3.804814338684082 -3.0977063179016113 -2.406684637069702
3.86645245552063 -3.0207087993621826 -2.4067718982696533
3.926525831222534 -2.9424867630004883 -2.4068570137023926
4.041893005371094 -2.7824816703796387 -2.407020330429077
4.097137451171875 -2.7007646560668945 -2.4070985317230225
4.202639102935791 -2.5340688228607178 -2.407248020172119
4.301341533660889 -2.3632426261901855 -2.4073877334594727
4.393093109130859 -2.188565254211426 -2.407517910003662
4.436305999755859 -2.099871873855591 -2.407578945159912
4.477726936340332 -2.010324001312256 -2.40763783454895
4.555117130279541 -1.8288134336471558 -2.407747507095337
4.657337665557861 -1.5510512590408325 -2.4078922271728516
4.74258279800415 -1.2677520513534546 -2.408013343811035
4.789834022521973 -1.0759942531585693 -2.4080803394317627
4.86099100112915 -0.6877431869506836 -2.4081814289093018
4.873870849609375 -0.589982271194458 -2.4081997871398926
4.884775161743164 -0.491899698972702 -2.408215045928955
4.900645732879639 -0.2951721251010895 -2.408237934112549
4.905601501464844 -0.1966082751750946 -2.408245086669922
4.908572673797607 -0.0979638621211052 -2.4082493782043457
4.90554666519165 0.19804747402668 -2.408245325088501
4.900561332702637 0.2966107130050659 -2.408238410949707
4.893587589263916 0.3950512707233429 -2.408228635787964
4.884637355804443 0.49333250522613525 -2.4082159996032715
4.8102707862854 0.980924665927887 -2.408111333847046
4.789526462554932 1.077376127243042 -2.4080820083618164
4.766837120056152 1.1734380722045898 -2.408050060272217
4.742221355438232 1.2689965963363647 -2.408015489578247
4.656887054443359 1.552418828010559 -2.407895088195801
4.624655723571777 1.645679235458374 -2.4078495502471924
4.554587364196777 1.830149531364441 -2.4077506065368652
4.477143287658691 2.011641263961792 -2.4076411724090576
4.43569803237915 2.1011760234832764 -2.4075827598571777
4.392453670501709 2.1898553371429443 -2.4075217247009277
4.149966716766357 2.619171142578125 -2.407179117202759
4.096352577209473 2.701972007751465 -2.4071033000946045
4.041083812713623 2.783673048019409 -2.407025098800659
3.9841794967651367 2.8642406463623047 -2.406944751739502
3.9256701469421387 2.943643808364868 -2.4068620204925537
3.865570068359375 3.0218505859375 -2.4067771434783936
3.8039135932922363 3.098828077316284 -2.4066901206970215
3.7407164573669434 3.1745426654815674 -2.4066004753112793
3.4934849739074707 3.2150115966796875 -2.3288614749908447
3.3642358779907227 3.2233331203460693 -2.2854368686676025
3.25268292427063 3.244340658187866 -2.2535102367401123
3.1866819858551025 3.308929443359375 -2.2534167766571045
3.1193981170654297 3.372171640396118 -2.253321886062622
3.050875186920166 3.4340691566467285 -2.2532413005828857
2.838519334793091 3.611903667449951 -2.253368377685547
2.691124200820923 3.72316575050354 -2.2534260749816895
2.383437395095825 3.927372932434082 -2.2534756660461426
2.3040122985839844 3.9744884967803955 -2.253474473953247
2.060251474380493 4.106058120727539 -2.2534377574920654
1.8935106992721558 4.185451507568359 -2.2533860206604004
1.8089721202850342 4.222601890563965 -2.253351926803589
1.5510985851287842 4.323690891265869 -2.2532174587249756
1.463842749595642 4.35388708114624 -2.253161907196045
3.349802255630493 -3.2076213359832764 -2.406040906906128
3.4762768745422363 -3.070622205734253 -2.406219959259033
3.655405282974243 -2.8558294773101807 -2.406473398208618
3.712195873260498 -2.7818710803985596 -2.4065539836883545
3.821248769760132 -2.6305882930755615 -2.406708240509033
4.020665168762207 -2.315436601638794 -2.4069910049438477
4.110698223114014 -2.15207839012146 -2.407118320465088
4.153231143951416 -2.0690643787384033 -2.4071786403656006
