ply
format ascii 1.0
element vertex 451
property float x
property float y
property float z
end_header
-46.813934326171875 -15.458105087280273 -1.3881858587265015
-42.44650650024414 -23.2154483795166 -1.3622878789901733
-36.99164962768555 -28.820375442504883 -1.3204197883605957
-36.341407775878906 -29.510848999023438 -1.3181926012039185
-46.93980026245117 -3.6147494316101074 -2.387559413909912
-46.63690185546875 -6.447336196899414 -2.387647867202759
-17.98546028137207 -3.230473518371582 -0.926714301109314
-46.16447067260742 -9.256789207458496 -2.3877875804901123
-45.96931838989258 -10.186348915100098 -2.387845754623413
-45.75566482543945 -11.111839294433594 -2.387909173965454
-45.52350616455078 -12.032876014709473 -2.3879785537719727
-44.1268310546875 -12.621292114257812 -2.3275957107543945
-40.91268539428711 -15.365803718566895 -2.21635103225708
-40.55652618408203 -16.172889709472656 -2.2142956256866455
-39.51731491088867 -18.602420806884766 -2.215038299560547
-38.7454719543457 -20.186750411987305 -2.215646266937256
-25.682523727416992 -15.4239501953125 -1.5193028450012207
-37.01287078857422 -23.257083892822266 -2.2168784141540527
-36.05632400512695 -24.739038467407227 -2.21759295463562
-32.61228561401367 0.7831170558929443 -2.391895294189453
-32.62144470214844 0.12513427436351776 -2.3918919563293457
-32.569496154785156 -1.8481261730194092 -2.3919055461883545
-16.783952713012695 -2.3202993869781494 -1.2423385381698608
-16.64324951171875 -2.989391326904297 -1.2398481369018555
-16.67906379699707 -3.3444535732269287 -1.2472875118255615
-31.70387840270996 -7.69933557510376 -2.3921608924865723
-31.542911529541016 -8.337469100952148 -2.392209053039551
-31.182130813598633 -9.60335636138916 -2.3923165798187256
-30.771060943603516 -10.853842735290527 -2.392439603805542
-30.54669761657715 -11.47264575958252 -2.3925068378448486
-30.309913635253906 -12.08681869506836 -2.392577648162842
-29.94253158569336 -12.64616870880127 -2.3832316398620605
-27.393192291259766 -13.576740264892578 -2.2416889667510986
-27.13197898864746 -14.136012077331543 -2.243194341659546
-26.85927391052246 -14.69024658203125 -2.2446913719177246
-25.465723037719727 -16.727262496948242 -2.2339823246002197
-24.417423248291016 -18.24433135986328 -2.2349023818969727
-24.04773712158203 -18.735708236694336 -2.2352070808410645
-22.88081932067871 -20.164947509765625 -2.2362117767333984
-22.47304344177246 -20.625707626342773 -2.236576557159424
-24.93129539489746 0.5986688137054443 -2.3942172527313232
-24.93827247619629 0.09566039592027664 -2.394214630126953
-24.89852523803711 -1.4128490686416626 -2.3942248821258545
-24.86506462097168 -1.9148080348968506 -2.3942346572875977
-15.737053871154785 -2.500058174133301 -1.5297826528549194
-15.680212020874023 -2.8164148330688477 -1.5294690132141113
-15.659052848815918 -3.1399242877960205 -1.5332704782485962
-15.681035995483398 -3.474759101867676 -1.5419741868972778
-15.765094757080078 -3.828578472137451 -1.5575180053710938
-24.11290168762207 -6.373572826385498 -2.3944571018218994
-23.97978401184082 -6.858775615692139 -2.3944969177246094
-23.836994171142578 -7.341226100921631 -2.3945395946502686
-23.522401809692383 -8.29703140258789 -2.3946337699890137
-23.350770950317383 -8.770012855529785 -2.3946850299835205
-23.169593811035156 -9.239439010620117 -2.3947393894195557
-22.979108810424805 -9.705174446105957 -2.394796371459961
-22.77922821044922 -10.166977882385254 -2.3948564529418945
-22.351797103881836 -11.07809829711914 -2.394984722137451
-22.124399185180664 -11.527009010314941 -2.395052909851074
-21.099950790405273 -12.671857833862305 -2.362942695617676
-20.19207191467285 -12.68771743774414 -2.2894668579101562
-19.531301498413086 -12.829211235046387 -2.2434353828430176
-19.272619247436523 -13.223381042480469 -2.243910789489746
-18.741615295410156 -14.00345230102539 -2.2460744380950928
-17.54132652282715 -15.459230422973633 -2.2447197437286377
-20.16206169128418 0.4841521978378296 -2.3956589698791504
-20.165142059326172 -0.32948118448257446 -2.3956570625305176
-20.15443229675293 -0.7361767292022705 -2.395659923553467
-20.13552474975586 -1.1425732374191284 -2.395665168762207
-20.108440399169922 -1.548513412475586 -2.3956730365753174
-20.073213577270508 -1.9538296461105347 -2.3956832885742188
-15.463000297546387 -2.1376848220825195 -1.8542563915252686
-15.272916793823242 -2.4263217449188232 -1.836959958076477
-15.216448783874512 -3.3718175888061523 -1.8513442277908325
-18.88315200805664 -7.092080116271973 -2.3960375785827637
-18.58243751525879 -7.848249435424805 -2.396127462387085
-18.420711517333984 -8.221656799316406 -2.3961760997772217
-18.251502990722656 -8.591729164123535 -2.3962268829345703
-17.890911102294922 -9.321333885192871 -2.3963351249694824
-17.501232147216797 -10.035872459411621 -2.3964521884918213
-17.083086013793945 -10.734174728393555 -2.396577835083008
-16.863550186157227 -11.076899528503418 -2.396643877029419
-16.164152145385742 -12.077601432800293 -2.3968541622161865
-15.001274108886719 -12.69231128692627 -2.334177255630493
-13.924830436706543 -12.780187606811523 -2.2451303005218506
-16.912506103515625 -0.2763354480266571 -2.3966405391693115
-16.903505325317383 -0.6174261569976807 -2.3966429233551025
-16.86492919921875 -1.2987359762191772 -2.396653890609741
-16.70569610595703 -2.653937339782715 -2.396700620651245
-16.354251861572266 -4.3227972984313965 -2.3968048095703125
-16.166967391967773 -4.979037761688232 -2.3968608379364014
-16.063457489013672 -5.304205417633057 -2.3968918323516846
-15.836881637573242 -5.947969913482666 -2.3969595432281494
-15.584586143493652 -6.582116603851318 -2.3970351219177246
-15.44890308380127 -6.895256042480469 -2.397075891494751
-15.3069429397583 -7.205606460571289 -2.39711856842041
-15.15876293182373 -7.51305627822876 -2.397162914276123
-15.004417419433594 -7.817441940307617 -2.3972091674804688
-14.677507400512695 -8.416629791259766 -2.3973076343536377
-14.1425142288208 -9.289568901062012 -2.397468328475952
-13.75698184967041 -9.852922439575195 -2.3975844383239746
-13.555784225463867 -10.12867259979248 -2.3976447582244873
-13.349047660827637 -10.400312423706055 -2.397706985473633
-13.136898040771484 -10.667746543884277 -2.397770881652832
-12.919407844543457 -10.930877685546875 -2.397836208343506
-12.69662094116211 -11.1895751953125 -2.3979034423828125
-12.468680381774902 -11.443735122680664 -2.3979721069335938
-14.548235893249512 0.34934812784194946 -2.397355794906616
-14.509535789489746 -1.1173547506332397 -2.3973660469055176
-14.484091758728027 -1.4098098278045654 -2.3973734378814697
-14.41556453704834 -1.9928863048553467 -2.3973937034606934
-14.32359790802002 -2.572744369506836 -2.397420644760132
-14.268895149230957 -2.8611669540405273 -2.3974368572235107
-14.208377838134766 -3.14843487739563 -2.3974549770355225
-14.14210319519043 -3.434431314468384 -2.397474527359009
-13.819816589355469 -4.563348293304443 -2.397570848464966
-13.725119590759277 -4.841250419616699 -2.397599220275879
-13.519017219543457 -5.391036033630371 -2.397660970687866
-13.40771484375 -5.662726402282715 -2.3976943492889404
-13.168790817260742 -6.199081897735596 -2.397765874862671
-13.041268348693848 -6.463566780090332 -2.3978042602539062
-12.62712574005127 -7.24070930480957 -2.397928476333618
-11.835015296936035 -8.476459503173828 -2.3981666564941406
-11.661873817443848 -8.71357250213623 -2.398218870162964
-11.483992576599121 -8.947237014770508 -2.3982722759246826
-11.30143928527832 -9.17723274230957 -2.398327350616455
-11.114285469055176 -9.403603553771973 -2.398383378982544
-10.726454734802246 -9.844718933105469 -2.3984994888305664
-12.75375747680664 0.3062554895877838 -2.3978984355926514
-12.757328987121582 0.04893188551068306 -2.3978970050811768
-12.755720138549805 -0.20842283964157104 -2.397897243499756
-12.719801902770996 -0.9798004031181335 -2.397907257080078
-12.599671363830566 -2.00162935256958 -2.397942543029785
-12.455763816833496 -2.760075330734253 -2.3979852199554443
-12.397647857666016 -3.0107884407043457 -2.3980026245117188
-12.26632308959961 -3.5083112716674805 -2.3980417251586914
-12.1150484085083 -4.000427722930908 -2.3980867862701416
-12.032010078430176 -4.24407958984375 -2.398111581802368
-11.753701210021973 -4.964151859283447 -2.3981950283050537
-11.54421615600586 -5.434355735778809 -2.3982577323913574
-11.432413101196289 -5.6662116050720215 -2.3982913494110107
-11.315958023071289 -5.8957977294921875 -2.3983263969421387
-11.069279670715332 -6.347612380981445 -2.39840030670166
-10.939166069030762 -6.569681167602539 -2.3984391689300537
-10.804595947265625 -6.789084434509277 -2.398479461669922
-9.74283218383789 -8.243243217468262 -2.3987936973571777
-9.574763298034668 -8.43828010559082 -2.3988442420959473
-9.402807235717773 -8.629881858825684 -2.398895740509033
-11.345949172973633 0.04352172836661339 -2.3983235359191895
-11.338479042053223 -0.41415923833847046 -2.3983254432678223
-11.327836990356445 -0.6427856087684631 -2.3983283042907715
-11.312576293945312 -0.871159017086029 -2.3983328342437744
-11.26829719543457 -1.3267507553100586 -2.398345470428467
-11.239286422729492 -1.553704857826233 -2.3983540534973145
-11.20570182800293 -1.7800942659378052 -2.3983640670776367
-11.167561531066895 -2.0058703422546387 -2.3983752727508545
-11.077698707580566 -2.454709053039551 -2.398401975631714
-11.02599811553955 -2.6776788234710693 -2.3984172344207764
-10.96981430053711 -2.899561643600464 -2.3984339237213135
-10.54002571105957 -4.203089237213135 -2.3985612392425537
-10.362143516540527 -4.624780178070068 -2.398613929748535
-10.063817977905273 -5.243342399597168 -2.3987016677856445
-9.956134796142578 -5.445352554321289 -2.398733377456665
-9.844399452209473 -5.645242214202881 -2.398766040802002
-9.72866153717041 -5.84266996383667 -2.3988003730773926
-9.48537540435791 -6.230517387390137 -2.3988733291625977
-9.357914924621582 -6.4206767082214355 -2.398911714553833
-8.95290470123291 -6.975255966186523 -2.399033546447754
-8.51510238647461 -7.504390716552734 -2.399164915084839
-8.362153053283691 -7.674774646759033 -2.3992109298706055
-10.206011772155762 0.03914855793118477 -2.398665189743042
-10.18970775604248 -0.5782070755958557 -2.398669481277466
-10.15812873840332 -0.988743245601654 -2.3986783027648926
-10.136149406433105 -1.193448781967163 -2.3986847400665283
-10.1100435256958 -1.397666573524475 -2.3986921310424805
-10.079826354980469 -1.6013240814208984 -2.3987009525299072
-9.813055992126465 -2.8067626953125 -2.3987784385681152
-9.754511833190918 -3.004154682159424 -2.3987956047058105
-9.692007064819336 -3.200328826904297 -2.3988142013549805
-9.625554084777832 -3.395212411880493 -2.398834228515625
-9.555194854736328 -3.588714599609375 -2.398854970932007
-9.480952262878418 -3.7807512283325195 -2.3988773822784424
-9.235209465026855 -4.347390174865723 -2.3989508152008057
-9.145742416381836 -4.5328521728515625 -2.398977756500244
-9.0525484085083 -4.716461181640625 -2.399005651473999
-8.643366813659668 -5.431071758270264 -2.3991284370422363
-8.417510032653809 -5.775450706481934 -2.399196147918701
-8.177961349487305 -6.110453128814697 -2.39926815032959
-7.925092697143555 -6.43552827835083 -2.3993442058563232
-7.793793678283691 -6.5941948890686035 -2.399383544921875
-7.521720886230469 -6.903427600860596 -2.399465322494507
-9.265210151672363 0.03554138168692589 -2.398946523666382
-9.221742630004883 -0.8976010084152222 -2.398958444595337
-9.084650993347168 -1.821632981300354 -2.398998975753784
-9.046095848083496 -2.0045225620269775 -2.399010419845581
-8.7382173538208 -3.082226514816284 -2.399102210998535
-8.674333572387695 -3.2578845024108887 -2.3991212844848633
-8.606925964355469 -3.432220697402954 -2.399141550064087
-8.461638450622559 -3.776644706726074 -2.3991849422454834
-8.38381576538086 -3.9466042518615723 -2.3992083072662354
-8.302587509155273 -4.114956378936768 -2.3992326259613037
-8.21798324584961 -4.281641960144043 -2.3992581367492676
-8.13003158569336 -4.446590900421143 -2.3992843627929688
-8.038771629333496 -4.609736442565918 -2.3993117809295654
-7.944245338439941 -4.771007061004639 -2.3993401527404785
-7.0751633644104 -5.986177921295166 -2.3996009826660156
-6.828161239624023 -6.266876220703125 -2.3996753692626953
-8.469257354736328 -0.3093554675579071 -2.399186372756958
-8.449904441833496 -0.650714099407196 -2.3991918563842773
-8.341545104980469 -1.4982720613479614 -2.399223566055298
-8.148476600646973 -2.330656051635742 -2.3992810249328613
-8.099855422973633 -2.4945640563964844 -2.3992953300476074
-7.807790279388428 -3.2976036071777344 -2.3993828296661377
-7.739748477935791 -3.4544594287872314 -2.3994030952453613
-7.668557167053223 -3.609907865524292 -2.3994245529174805
-7.594252586364746 -3.763899803161621 -2.399446725845337
-7.516857624053955 -3.9163568019866943 -2.399470090866089
-7.177026271820068 -4.509699821472168 -2.3995718955993652
-7.084677696228027 -4.653603553771973 -2.39959979057312
-6.989455223083496 -4.795622825622559 -2.399628162384033
-6.891381740570068 -4.935695648193359 -2.399657726287842
-6.580507755279541 -5.343667507171631 -2.3997511863708496
-6.471462249755859 -5.475394248962402 -2.3997838497161865
-6.359789848327637 -5.604903221130371 -2.39981746673584
-7.798652172088623 0.1872698962688446 -2.3993890285491943
-7.799858093261719 -0.12744323909282684 -2.399388551712036
-7.72747278213501 -1.0682891607284546 -2.399409532546997
-7.678142070770264 -1.3791155815124512 -2.399423837661743
-7.616318225860596 -1.687699794769287 -2.399442195892334
-7.580759048461914 -1.840997576713562 -2.3994529247283936
-7.542121410369873 -1.9935522079467773 -2.3994643688201904
-7.500410079956055 -2.145293951034546 -2.3994767665863037
-7.357060432434082 -2.595050096511841 -2.399519681930542
-7.246503829956055 -2.8897206783294678 -2.399552822113037
-7.124159812927246 -3.17970609664917 -2.3995893001556396
-7.058629989624023 -3.322789192199707 -2.399608850479126
-6.990226745605469 -3.464526891708374 -2.3996293544769287
-6.844921588897705 -3.743722438812256 -2.3996729850769043
-6.688481330871582 -4.016849040985107 -2.3997199535369873
-6.606157302856445 -4.150990009307861 -2.399744749069214
-6.521152019500732 -4.283447265625 -2.3997702598571777
-6.433491230010986 -4.414167881011963 -2.399796485900879
-6.343214988708496 -4.543092727661133 -2.3998236656188965
-6.154955863952637 -4.795357704162598 -2.3998801708221436
-7.216701507568359 0.17329467833042145 -2.399564743041992
-7.217819690704346 -0.11793273687362671 -2.399564266204834
-7.197487831115723 -0.5542663335800171 -2.3995697498321533
-7.184853553771973 -0.6993392705917358 -2.399573564529419
-7.129453182220459 -1.1326162815093994 -2.399589776992798
-7.078014850616455 -1.4192708730697632 -2.3996050357818604
-6.899279594421387 -2.124814033508301 -2.399658203125
-6.855055809020996 -2.263564348220825 -2.3996713161468506
-6.808036804199219 -2.401394844055176 -2.3996853828430176
-6.705724716186523 -2.6740732192993164 -2.3997161388397217
-6.592504501342773 -2.942411184310913 -2.399749994277954
-6.5318603515625 -3.0748143196105957 -2.399768114089966
-6.468556880950928 -3.20597767829895 -2.399787187576294
-6.402624130249023 -3.335829973220825 -2.3998069763183594
-6.262970924377441 -3.59142804145813 -2.399848699569702
-6.113131999969482 -3.841193675994873 -2.3998937606811523
-6.034462928771973 -3.963762044906616 -2.3999173641204834
-5.953341960906982 -4.084721565246582 -2.3999416828155518
-5.695578575134277 -4.437454700469971 -2.4000191688537598
-5.604972839355469 -4.551486968994141 -2.4000463485717773
-5.416950702667236 -4.773981094360352 -2.4001028537750244
-6.708549499511719 0.16109129786491394 -2.3997180461883545
-6.710434436798096 0.025739135220646858 -2.3997175693511963
-6.706015586853027 -0.24494995176792145 -2.3997185230255127
-6.699709415435791 -0.38016843795776367 -2.3997201919555664
-6.690688133239746 -0.5152373909950256 -2.3997228145599365
-6.678937911987305 -0.650095522403717 -2.399726152420044
-6.664482116699219 -0.7846878170967102 -2.3997304439544678
-6.647311687469482 -0.9189620614051819 -2.399735450744629
-6.62743616104126 -1.0528652667999268 -2.3997414112091064
-6.579611778259277 -1.3193310499191284 -2.3997554779052734
-6.521093368530273 -1.5836608409881592 -2.399772882461548
-6.413461685180664 -1.9751946926116943 -2.3998048305511475
-6.328639984130859 -2.232297420501709 -2.3998303413391113
-6.182153224945068 -2.611022472381592 -2.399874210357666
-6.128271579742432 -2.735215187072754 -2.399890184402466
-6.071889400482178 -2.858290433883667 -2.399907112121582
-5.9517502784729 -3.1009199619293213 -2.3999431133270264
-5.75344705581665 -3.4553027153015137 -2.4000027179718018
-5.682629108428955 -3.570688486099243 -2.400023937225342
-5.609494686126709 -3.684622049331665 -2.400045871734619
-5.294457912445068 -4.124941825866699 -2.4001405239105225
-5.210231781005859 -4.230945110321045 -2.4001657962799072
-6.232927322387695 -0.6066830158233643 -2.3998608589172363
-6.140234470367432 -1.2312283515930176 -2.399888277053833
-6.054584980010986 -1.6003668308258057 -2.399913787841797
-5.98516321182251 -1.843290090560913 -2.3999342918395996
-5.946791648864746 -1.963650107383728 -2.3999459743499756
-5.905998229980469 -2.0832176208496094 -2.3999578952789307
-5.862810134887695 -2.2019383907318115 -2.3999710083007812
-5.817231178283691 -2.31976580619812 -2.39998459815979
-5.554262638092041 -2.8938255310058594 -2.4000635147094727
-5.494807243347168 -3.0052990913391113 -2.400081157684326
-5.43310546875 -3.115550994873047 -2.400099754333496
-5.234855651855469 -3.4385387897491455 -2.4001593589782715
-5.091991901397705 -3.646949291229248 -2.4002020359039307
-4.862238883972168 -3.9483609199523926 -2.40027117729187
-4.781650066375732 -4.045677185058594 -2.4002952575683594
-4.614675045013428 -4.235343933105469 -2.40034556388855
-5.862267971038818 0.14076964557170868 -2.3999736309051514
-5.863915920257568 0.022491455078125 -2.399972915649414
-5.863176345825195 -0.09580139070749283 -2.399973154067993
-5.860053539276123 -0.2140490710735321 -2.3999738693237305
-5.725183010101318 -1.2686456441879272 -2.4000134468078613
-5.669396877288818 -1.4985510110855103 -2.4000298976898193
-5.568444728851318 -1.8387194871902466 -2.4000601768493652
-5.530249118804932 -1.9506795406341553 -2.400071620941162
-5.489809513092041 -2.0618486404418945 -2.4000837802886963
-5.447126388549805 -2.172175168991089 -2.4000964164733887
-5.402235984802246 -2.2816240787506104 -2.4001097679138184
-5.200878620147705 -2.709707260131836 -2.40017032623291
-5.027577877044678 -3.01937198638916 -2.4002223014831543
-4.768000602722168 -3.414902925491333 -2.4003000259399414
-4.698190689086914 -3.5104167461395264 -2.4003212451934814
-4.626462459564209 -3.604506254196167 -2.4003427028656006
-4.5528564453125 -3.697127342224121 -2.400364875793457
-4.477397441864014 -3.78825044631958 -2.4003875255584717
-4.321032524108887 -3.9658432006835938 -2.4004344940185547
-5.507045745849609 0.021121826022863388 -2.400080680847168
-5.498244285583496 -0.31199461221694946 -2.400083065032959
-5.4693284034729 -0.6439706087112427 -2.4000914096832275
-5.438920974731445 -0.8640521168708801 -2.4001002311706543
-5.420397758483887 -0.9735903739929199 -2.4001057147979736
-5.376745700836182 -1.1914355754852295 -2.400118589401245
-5.324350357055664 -1.4073476791381836 -2.400134325027466
-5.294897556304932 -1.51446533203125 -2.4001431465148926
-5.229545593261719 -1.7268139123916626 -2.400162696838379
-5.193669319152832 -1.8319604396820068 -2.4001731872558594
-5.155685901641846 -1.9363601207733154 -2.4001846313476562
-5.073439598083496 -2.1427595615386963 -2.4002091884613037
-5.029213905334473 -2.2446749210357666 -2.4002225399017334
-4.934640884399414 -2.445730447769165 -2.4002509117126465
-4.884333610534668 -2.544785499572754 -2.40026593208313
-4.832038402557373 -2.642808198928833 -2.4002816677093506
-4.777778148651123 -2.739762306213379 -2.4002978801727295
-4.603425025939941 -3.0237808227539062 -2.4003500938415527
-4.477787971496582 -3.207047939300537 -2.40038800239563
-4.344858169555664 -3.385105609893799 -2.40042781829834
-4.275729656219482 -3.4720890522003174 -2.400448799133301
-4.204860687255859 -3.55766224861145 -2.400470018386841
-4.132275104522705 -3.6417925357818604 -2.400491714477539
-4.05801248550415 -3.724440574645996 -2.4005141258239746
-5.185219764709473 0.01988830603659153 -2.4001777172088623
-5.181804180145264 -0.18927733600139618 -2.4001786708831787
-5.160881042480469 -0.5023367404937744 -2.4001846313476562
-5.136435508728027 -0.7100875973701477 -2.4001917839050293
-5.062526702880859 -1.1218066215515137 -2.4002134799957275
-5.013195514678955 -1.3251012563705444 -2.400228261947632
-4.955702781677246 -1.5262402296066284 -2.400245428085327
-4.854382038116455 -1.823197603225708 -2.400275707244873
-4.735295295715332 -2.1134896278381348 -2.4003114700317383
-4.646247386932373 -2.3027937412261963 -2.4003381729125977
-4.390893459320068 -2.759025812149048 -2.4004147052764893
-4.276095867156982 -2.933929681777954 -2.40044903755188
-4.154340744018555 -3.104063034057617 -2.4004855155944824
-3.8208301067352295 -3.5067520141601562 -2.400585889816284
-4.890017032623291 -0.17861755192279816 -2.400266647338867
-4.885419845581055 -0.2772192358970642 -2.4002678394317627
-4.878835201263428 -0.3757116496562958 -2.4002699851989746
-4.859721660614014 -0.5721908211708069 -2.400275468826294
-4.847199440002441 -0.6701043844223022 -2.4002790451049805
-4.83270263671875 -0.7677456736564636 -2.4002833366394043
-4.777451038360596 -1.058637022972107 -2.4002997875213623
-4.755138874053955 -1.154797077178955 -2.400306224822998
-4.704719066619873 -1.3456616401672363 -2.4003212451934814
-4.646652698516846 -1.5343414545059204 -2.400338649749756
-4.614770412445068 -1.6277657747268677 -2.40034818649292
-4.581020355224609 -1.7205278873443604 -2.4003584384918213
-4.545402526855469 -1.8125905990600586 -2.4003689289093018
-4.507936954498291 -1.9039199352264404 -2.4003801345825195
-4.468635082244873 -1.99447500705719 -2.4003920555114746
-4.384597301483154 -2.1731173992156982 -2.4004170894622803
-4.339897155761719 -2.2611289024353027 -2.40043044090271
-4.245214939117432 -2.43436861038208 -2.400458812713623
-4.143618106842041 -2.6036531925201416 -2.400489330291748
-4.090282917022705 -2.6867222785949707 -2.400505542755127
-3.978642463684082 -2.8495564460754395 -2.400538921356201
-3.9203832149505615 -2.929252862930298 -2.4005563259124756
-3.860529661178589 -3.0077593326568604 -2.4005744457244873
-4.626877307891846 0.0177465807646513 -2.400346279144287
-4.626291275024414 -0.07559020817279816 -2.400346279144287
-4.623830318450928 -0.16889525949954987 -2.4003469944000244
-4.613259315490723 -0.3552587926387787 -2.4003500938415527
-4.605153560638428 -0.4482437074184418 -2.4003524780273438
-4.5833420753479 -0.6336266994476318 -2.4003586769104004
-4.496294021606445 -1.0919342041015625 -2.4003844261169434
-4.473364353179932 -1.1824123859405518 -2.4003913402557373
-4.448617935180664 -1.2724071741104126 -2.4003987312316895
-4.42205810546875 -1.3618923425674438 -2.4004065990448
-4.363562107086182 -1.539156198501587 -2.4004242420196533
-4.331645488739014 -1.6268692016601562 -2.4004335403442383
-4.297963619232178 -1.7139174938201904 -2.4004437923431396
-4.225373268127441 -1.8858999013900757 -2.400465488433838
-4.1864914894104 -1.9707579612731934 -2.400477170944214
-4.1036376953125 -2.1380364894866943 -2.4005019664764404
-4.059699535369873 -2.220391273498535 -2.400515079498291
-3.918044328689575 -2.4619085788726807 -2.40055775642395
-3.86761212348938 -2.540457010269165 -2.4005727767944336
-3.7069554328918457 -2.7697808742523193 -2.400620937347412
-3.5922703742980957 -2.917088270187378 -2.400655508041382
-3.47174072265625 -3.059659004211426 -2.4006917476654053
-4.382666110992432 0.016808470711112022 -2.4004199504852295
-4.382111549377441 -0.07160278409719467 -2.4004199504852295
-4.379780292510986 -0.15998046100139618 -2.400420665740967
-4.362092018127441 -0.4245861768722534 -2.400425672531128
-4.352646350860596 -0.5124890208244324 -2.400428533554077
-4.341428279876709 -0.6001855134963989 -2.4004318714141846
-4.328444957733154 -0.6876367330551147 -2.40043568611145
-4.313701152801514 -0.7748092412948608 -2.400439977645874
-4.297202110290527 -0.8616668581962585 -2.400444984436035
-4.188654899597168 -1.2900079488754272 -2.400477170944214
-4.161794185638428 -1.3742406368255615 -2.4004852771759033
-4.133242130279541 -1.4579159021377563 -2.400493621826172
-4.103010177612305 -1.540997862815857 -2.4005026817321777
-4.071103572845459 -1.623454213142395 -2.400512218475342
-4.002346038818359 -1.786357045173645 -2.4005329608917236
-3.927072763442993 -1.946356177330017 -2.4005556106567383
-3.887036085128784 -2.0251829624176025 -2.4005675315856934
-3.845412492752075 -2.1031887531280518 -2.4005799293518066
-3.8022289276123047 -2.1803414821624756 -2.400592803955078
-3.7574925422668457 -2.256608724594116 -2.400606393814087
-3.61419415473938 -2.4797799587249756 -2.400649309158325
-3.5634617805480957 -2.552197217941284 -2.4006645679473877
-3.5112791061401367 -2.6235733032226562 -2.4006800651550293
-3.40264892578125 -2.7631032466888428 -2.400712728500366
-3.3462400436401367 -2.831197500228882 -2.4007296562194824
-3.229365110397339 -2.963909864425659 -2.4007649421691895
-2.227177619934082 -0.12637999653816223 -1.2879295349121094
-2.227358341217041 -0.26225340366363525 -1.2948471307754517
-2.236083984375 -0.30912840366363525 -1.3032814264297485
-4.076655387878418 -0.8174450397491455 -2.4005115032196045
-4.040388107299805 -0.9812151789665222 -2.400522232055664
-4.019777774810791 -1.0625197887420654 -2.4005284309387207
-3.948190927505493 -1.3037078380584717 -2.4005496501922607
-3.9211058616638184 -1.3830899000167847 -2.40055775642395
-3.8621604442596436 -1.5401302576065063 -2.4005753993988037
-3.7619872093200684 -1.7709227800369263 -2.4006054401397705
-3.725515127182007 -1.8464590311050415 -2.400616407394409
-3.607072591781616 -2.0684337615966797 -2.4006519317626953
-3.564631223678589 -2.1407861709594727 -2.4006645679473877
-3.520744562149048 -2.212266206741333 -2.4006776809692383
-3.4754223823547363 -2.2828469276428223 -2.400691509246826
-3.4286863803863525 -2.352501392364502 -2.400705575942993
-3.380556583404541 -2.4211983680725098 -2.4007198810577393
-3.1744823455810547 -2.6858749389648438 -2.4007818698883057
-3.119680166244507 -2.7493844032287598 -2.4007983207702637
-3.063603401184082 -2.8117735385894775 -2.40081524848938
