ply
format ascii 1.0
element vertex 267
property float x
property float y
property float z
end_header
-35.16725158691406 -24.074472427368164 -1.2000397443771362
-45.639007568359375 -11.108322143554688 -2.3821208477020264
-45.408504486083984 -12.023172378540039 -2.382218599319458
-44.00726318359375 -12.60324764251709 -2.3215160369873047
-42.04510498046875 -12.960497856140137 -2.231292724609375
-41.52363586425781 -14.650192260742188 -2.2330641746520996
-38.788299560546875 -15.463422775268555 -2.1176750659942627
-40.00348663330078 -16.886686325073242 -2.2020955085754395
-39.661460876464844 -17.68905258178711 -2.2023825645446777
-39.30373764038086 -18.48468017578125 -2.2026939392089844
-38.93046188354492 -19.273263931274414 -2.2030293941497803
-38.54194641113281 -20.054609298706055 -2.2033886909484863
-37.71888732910156 -21.59401512145996 -2.2041797637939453
-36.83480453491211 -23.09992218017578 -2.2049925327301025
-23.51580047607422 -15.413857460021973 -1.4259421825408936
-35.89068603515625 -24.569686889648438 -2.205814838409424
-34.9585075378418 -24.977319717407227 -2.1789186000823975
-34.88950729370117 -26.002065658569336 -2.2067313194274902
-31.646425247192383 -7.702597618103027 -2.3881258964538574
-31.486270904541016 -8.336870193481445 -2.3881938457489014
-31.128002166748047 -9.595273971557617 -2.3883464336395264
-30.93011474609375 -10.218873023986816 -2.388430595397949
-30.49703598022461 -11.45364761352539 -2.3886148929595947
-30.2619571685791 -12.064383506774902 -2.3887152671813965
-28.36469268798828 -12.650662422180176 -2.2772293090820312
-27.614248275756836 -12.987071990966797 -2.237480878829956
-27.089094161987305 -14.095324516296387 -2.2390248775482178
-26.81875991821289 -14.646520614624023 -2.2405476570129395
-25.72227668762207 -15.420039176940918 -2.198948860168457
-25.684417724609375 -16.107267379760742 -2.2229230403900146
-24.67954444885254 -17.633142471313477 -2.2239792346954346
-20.692750930786133 -15.42169189453125 -1.8922301530838013
-10.023180961608887 -2.4395949840545654 -0.9903674125671387
-9.839853286743164 -3.0331530570983887 -0.9885371327400208
-9.821940422058105 -3.2450320720672607 -0.9930859208106995
-23.32167625427246 -8.758824348449707 -2.391695499420166
-23.141822814941406 -9.225772857666016 -2.3917720317840576
-22.95264434814453 -9.689016342163086 -2.391852617263794
-22.329957962036133 -11.054872512817383 -2.392118215560913
-22.10432243347168 -11.501593589782715 -2.39221453666687
-21.86970329284668 -11.943735122680664 -2.392314910888672
-21.62627601623535 -12.381083488464355 -2.39241886138916
-19.262393951416016 -13.186470985412598 -2.2410969734191895
-9.32669448852539 -2.8749732971191406 -1.1593217849731445
-9.306253433227539 -3.074655771255493 -1.164223074913025
-9.32763385772705 -3.503141403198242 -1.183556318283081
-9.35805892944336 -3.730703353881836 -1.196686029434204
-18.565351486206055 -7.837001800537109 -2.3937366008758545
-18.23668670654297 -8.576770782470703 -2.393876552581787
-17.287811279296875 -10.36373233795166 -2.3942816257476807
-17.076826095581055 -10.70925521850586 -2.39437198638916
-16.164897918701172 -12.047189712524414 -2.394761562347412
-9.130109786987305 -2.2222251892089844 -1.3314063549041748
-9.035558700561523 -2.3924202919006348 -1.32435941696167
-8.895406723022461 -2.938915252685547 -1.3273911476135254
-8.897089958190918 -3.1390321254730225 -1.3367812633514404
-8.913006782531738 -3.3474206924438477 -1.349005103111267
-8.93668270111084 -3.562716007232666 -1.3631454706192017
-9.14488410949707 -3.8603365421295166 -1.4064486026763916
-15.437907218933105 -6.885324478149414 -2.3950788974761963
-15.149699211120605 -7.500150203704834 -2.3952019214630127
-14.996424674987793 -7.803123474121094 -2.3952672481536865
-14.671794891357422 -8.399584770202637 -2.3954057693481445
-14.50057315826416 -8.692832946777344 -2.3954789638519287
-13.952129364013672 -9.551214218139648 -2.3957133293151855
-13.75796890258789 -9.829855918884277 -2.395796298980713
-8.556424140930176 -2.450472593307495 -1.4662452936172485
-8.500600814819336 -2.620328426361084 -1.4654045104980469
-8.44245719909668 -2.7892696857452393 -1.464745283126831
-8.39356517791748 -2.9613823890686035 -1.4662874937057495
-8.370574951171875 -3.143702983856201 -1.4730056524276733
-8.353530883789062 -3.725680351257324 -1.5068200826644897
-13.034934043884277 -6.453189373016357 -2.3961100578308105
-12.32381820678711 -7.72853422164917 -2.396413564682007
-12.166451454162598 -7.974725723266602 -2.3964810371398926
-12.004172325134277 -8.217704772949219 -2.396550178527832
-11.83705997467041 -8.457393646240234 -2.3966217041015625
-11.665180206298828 -8.693686485290527 -2.396695137023926
-8.41539192199707 -2.048266887664795 -1.6279422044754028
-8.140734672546387 -2.1554901599884033 -1.582868218421936
-8.068490982055664 -2.310737371444702 -1.577527642250061
-8.00234603881836 -2.6438632011413574 -1.5840927362442017
-7.937322616577148 -2.9809868335723877 -1.5936537981033325
-7.911291122436523 -3.5284435749053955 -1.628206729888916
-7.945778846740723 -3.7369260787963867 -1.6504197120666504
-11.19186019897461 -6.112207412719727 -2.3969008922576904
-10.937907218933105 -6.557064533233643 -2.3970093727111816
-10.804218292236328 -6.775563716888428 -2.397066354751587
-10.523905754089355 -7.204355716705322 -2.397186279296875
-10.377365112304688 -7.414470195770264 -2.3972489833831787
-8.402517318725586 -2.0451314449310303 -1.827975869178772
-7.973799705505371 -2.1112897396087646 -1.7435827255249023
-7.789765357971191 -2.401211738586426 -1.72305428981781
-7.75575065612793 -2.562389850616455 -1.7265676259994507
-7.72113037109375 -2.724137544631958 -1.7306939363479614
-7.687624454498291 -2.887209177017212 -1.7358343601226807
-7.684566497802734 -3.2438926696777344 -1.7631587982177734
-7.702729225158691 -3.4354259967803955 -1.7828012704849243
-10.164015769958496 -5.031887531280518 -2.3973429203033447
-10.061088562011719 -5.235108375549316 -2.3973867893218994
-9.954108238220215 -5.4362311363220215 -2.397432565689087
-9.728140830993652 -5.831845760345459 -2.397529125213623
-9.60925006866455 -6.026175022125244 -2.3975796699523926
-9.486490249633789 -6.2180962562561035 -2.397632122039795
-9.35991096496582 -6.407516956329346 -2.39768648147583
-9.22953987121582 -6.594360828399658 -2.3977420330047607
-9.09545612335205 -6.778563499450684 -2.397799253463745
-8.402517318725586 -2.0451314449310303 -2.0324366092681885
-7.825974941253662 -2.241281032562256 -1.913226842880249
-7.743984222412109 -2.3870997428894043 -1.904520869255066
-7.682568073272705 -2.538212299346924 -1.9015721082687378
-7.662995338439941 -2.7036218643188477 -1.9097862243652344
-7.646529197692871 -2.8717727661132812 -1.919671893119812
-7.638261318206787 -3.045084238052368 -1.9325631856918335
-7.656322956085205 -3.231966733932495 -1.95316481590271
-7.674727439880371 -3.4229347705841064 -1.9750034809112549
-7.765357494354248 -3.652069091796875 -2.0167980194091797
-9.143200874328613 -4.526511192321777 -2.3977813720703125
-9.050589561462402 -4.709312438964844 -2.3978209495544434
-8.954334259033203 -4.890225887298584 -2.397861957550049
-8.85446834564209 -5.06917142868042 -2.397904634475708
-8.751030921936035 -5.246087074279785 -2.397948741912842
-8.644072532653809 -5.420886039733887 -2.3979945182800293
-8.302430152893066 -5.9319586753845215 -2.3981404304504395
-7.832855224609375 -2.2432494163513184 -2.1095967292785645
-7.751330375671387 -2.3893606662750244 -2.1001434326171875
-7.69196891784668 -2.5413196086883545 -2.0974693298339844
-7.655311107635498 -2.875073194503784 -2.1172749996185303
-8.318371772766113 -3.7100002765655518 -2.3582763671875
-8.270560264587402 -3.8896703720092773 -2.366396427154541
-8.300654411315918 -4.1093950271606445 -2.3981430530548096
-8.216567039489746 -4.275343894958496 -2.398179054260254
-8.038487434387207 -4.602022171020508 -2.3982551097869873
-7.944570064544678 -4.762627601623535 -2.3982951641082764
-7.847432613372803 -4.9213104248046875 -2.39833664894104
-7.747161865234375 -5.07802152633667 -2.3983795642852783
-7.643753528594971 -5.232686519622803 -2.398423671722412
-7.427789211273193 -5.535680294036865 -2.3985159397125244
-8.231033325195312 -2.0033931732177734 -2.3981752395629883
-8.095643043518066 -2.4954988956451416 -2.398232936859131
-8.043962478637695 -2.6576123237609863 -2.398254871368408
-7.930900573730469 -2.978574514389038 -2.3983027935028076
-7.73740816116333 -3.4508910179138184 -2.398385524749756
-7.666631698608398 -3.605640172958374 -2.3984155654907227
-7.592765808105469 -3.758941650390625 -2.398447036743164
-7.515844345092773 -3.9107353687286377 -2.39847993850708
-7.435885906219482 -4.060955047607422 -2.3985140323638916
-7.352931976318359 -4.209541320800781 -2.3985495567321777
-6.894521236419678 -4.925940990447998 -2.39874529838562
-7.576668739318848 -1.8441274166107178 -2.39845609664917
-7.496602535247803 -2.1469528675079346 -2.3984901905059814
-7.300368309020996 -2.741769552230835 -2.398573637008667
-7.243902206420898 -2.8878676891326904 -2.3985977172851562
-7.122238636016846 -3.176525831222534 -2.3986494541168213
-6.918267726898193 -3.5997962951660156 -2.3987367153167725
-6.768294334411621 -3.874840259552002 -2.3988006114959717
-6.689200401306152 -4.010054111480713 -2.398834466934204
-6.607404708862305 -4.143651008605957 -2.398869514465332
-7.011483192443848 -1.7065627574920654 -2.398698568344116
-6.852099418640137 -2.263836622238159 -2.39876651763916
-6.805302619934082 -2.401015281677246 -2.3987863063812256
-6.755767822265625 -2.537235736846924 -2.3988075256347656
-6.467674255371094 -3.201943874359131 -2.398930311203003
-6.402135848999023 -3.331239938735962 -2.398958206176758
-6.114444255828857 -3.8345048427581787 -2.399080991744995
-5.955687046051025 -4.077085494995117 -2.399148941040039
-5.872681617736816 -4.195940017700195 -2.399184465408325
-5.787317752838135 -4.313107013702393 -2.3992209434509277
-6.51793909072876 -1.5864355564117432 -2.3989105224609375
-6.484799861907959 -1.7170339822769165 -2.3989245891571045
-6.44904899597168 -1.846942663192749 -2.398939847946167
-6.410694599151611 -1.9761098623275757 -2.398956060409546
-6.369759559631348 -2.104480028152466 -2.3989734649658203
-6.231622219085693 -2.484311819076538 -2.3990321159362793
-6.070878982543945 -2.855149269104004 -2.3991007804870605
-6.012370586395264 -2.976531982421875 -2.399125814437866
-5.951441287994385 -3.0967228412628174 -2.3991518020629883
-5.822407245635986 -3.333317756652832 -2.3992068767547607
-5.754353046417236 -3.44963002204895 -2.399235963821411
-5.459219932556152 -3.900529384613037 -2.399362087249756
-6.082808494567871 -1.480521559715271 -2.399097204208374
-6.018513202667236 -1.7236342430114746 -2.3991246223449707
-5.982718467712402 -1.844185709953308 -2.399139881134033
-5.944516658782959 -1.9639726877212524 -2.399156093597412
-5.903909683227539 -2.082987070083618 -2.3991732597351074
-5.767897605895996 -2.4348068237304688 -2.399231195449829
-5.717885494232178 -2.550182819366455 -2.3992526531219482
-5.665565013885498 -2.664536476135254 -2.3992748260498047
-5.554099082946777 -2.889979124069214 -2.399322509765625
-5.494985103607178 -3.0009732246398926 -2.3993475437164307
-5.433666706085205 -3.1107678413391113 -2.399373769760132
-5.370152473449707 -3.2193098068237305 -2.3994009494781494
-5.304470062255859 -3.3265492916107178 -2.3994290828704834
-5.166723728179932 -3.5369863510131836 -2.3994879722595215
-5.666975975036621 -1.5004863739013672 -2.399275541305542
-5.602205753326416 -1.7268966436386108 -2.3993029594421387
-5.566424369812012 -1.8390746116638184 -2.399318218231201
-5.528404235839844 -1.9505053758621216 -2.39933443069458
-5.488155364990234 -2.0611648559570312 -2.3993515968322754
-5.44569206237793 -2.1709840297698975 -2.399369716644287
-5.401033878326416 -2.279942512512207 -2.3993887901306152
-5.305202484130859 -2.495054006576538 -2.3994295597076416
-4.967059135437012 -3.114838123321533 -2.399574041366577
-4.701265811920166 -3.5037078857421875 -2.3996875286102295
-5.349379539489746 -1.3020153045654297 -2.399411916732788
-5.322176456451416 -1.4091894626617432 -2.399423360824585
-5.154228210449219 -1.9358160495758057 -2.3994951248168945
-5.114344596862793 -2.038872718811035 -2.3995120525360107
-4.982397556304932 -2.343238592147827 -2.3995683193206787
-4.778438568115234 -2.7356297969818115 -2.399655342102051
-4.722578048706055 -2.8310883045196533 -2.399679183959961
-4.480319499969482 -3.2011518478393555 -2.399782657623291
-4.953949928283691 -1.5270659923553467 -2.3995814323425293
-4.888680458068848 -1.7248034477233887 -2.399609088897705
-4.815530776977539 -1.919769525527954 -2.3996403217315674
-4.776034832000732 -2.016068696975708 -2.3996570110321045
-4.734616756439209 -2.111644744873047 -2.399674892425537
-4.646063327789307 -2.3001210689544678 -2.399712562561035
-4.550018310546875 -2.4848990440368652 -2.3997535705566406
-4.499232292175293 -2.5758514404296875 -2.399775266647339
-4.278162956237793 -2.9287471771240234 -2.399869680404663
-4.703031063079834 -1.346901535987854 -2.399689197540283
-4.645191669464111 -1.5347057580947876 -2.3997137546539307
-4.579865455627441 -1.720039963722229 -2.3997416496276855
-4.54442024230957 -1.8116310834884644 -2.399756669998169
-4.468055248260498 -1.9927587509155273 -2.399789333343506
-4.42716646194458 -2.08211088180542 -2.399806499481201
-4.293843746185303 -2.3450474739074707 -2.3998634815216064
-4.144946098327637 -2.59938907623291 -2.3999271392822266
-4.091940879821777 -2.6821370124816895 -2.399949789047241
-4.037284851074219 -2.7637856006622314 -2.399973154067993
-3.9231138229370117 -2.9237751960754395 -2.400022029876709
-4.494599342346191 -1.0939648151397705 -2.3997788429260254
-4.471741676330566 -1.1840206384658813 -2.3997883796691895
-4.447077751159668 -1.2735998630523682 -2.39979887008667
-4.392382621765137 -1.4511806964874268 -2.399822235107422
-4.330606460571289 -1.6264281272888184 -2.399848461151123
-4.297091960906982 -1.7131175994873047 -2.3998630046844482
-4.261847972869873 -1.799070954322815 -2.3998777866363525
-4.186213493347168 -1.968790888786316 -2.3999102115631104
-4.145856857299805 -2.052485227584839 -2.3999273777008057
-4.103830337524414 -2.1353557109832764 -2.3999452590942383
-4.060143947601318 -2.217341899871826 -2.399963855743408
-3.9193432331085205 -2.4579076766967773 -2.400023937225342
-3.8692212104797363 -2.536151885986328 -2.40004563331604
-3.817540168762207 -2.613398313522339 -2.4000675678253174
-3.7095775604248047 -2.7646279335021973 -2.400113582611084
-4.257420539855957 -1.03623628616333 -2.3998806476593018
-4.235767841339111 -1.12153959274292 -2.3998897075653076
-4.160595417022705 -1.3746013641357422 -2.3999218940734863
-4.132169246673584 -1.4578933715820312 -2.3999338150024414
-4.102076530456543 -1.54059898853302 -2.399946689605713
-4.001927375793457 -1.7848622798919678 -2.399989366531372
-3.9652976989746094 -1.8648924827575684 -2.4000048637390137
-3.9270689487457275 -1.9441710710525513 -2.4000213146209717
-3.887258291244507 -2.0226657390594482 -2.400038480758667
-3.565650463104248 -2.5476036071777344 -2.4001753330230713
-3.9201316833496094 -1.3830840587615967 -2.400024890899658
-3.8915820121765137 -1.4615453481674194 -2.4000370502471924
-3.829787492752075 -1.6166613101959229 -2.4000635147094727
-3.761820077896118 -1.769197702407837 -2.400092363357544
-3.725550413131714 -1.8444045782089233 -2.4001078605651855
-3.648521661758423 -1.99256432056427 -2.4001405239105225
-3.607792854309082 -2.0654571056365967 -2.400157928466797
-3.5219860076904297 -2.2087156772613525 -2.4001944065093994
-3.4769420623779297 -2.279026746749878 -2.4002137184143066
-3.382664680480957 -2.416862726211548 -2.4002537727355957
