ply
format ascii 1.0
element vertex 852
property float x
property float y
property float z
end_header
28.566640853881836 13.93924617767334 2.690776824951172
28.56668472290039 15.40010929107666 2.747265577316284
28.56670379638672 16.154420852661133 2.7781333923339844
28.566722869873047 16.926193237304688 2.8108696937561035
28.5667667388916 18.52729606628418 2.8823235034942627
28.566844940185547 21.094865798950195 3.0061376094818115
28.566879272460938 22.001710891723633 3.0523626804351807
28.56694221496582 23.903766632080078 3.15319561958313
28.56698226928711 24.903566360473633 3.2081713676452637
28.567060470581055 27.013715744018555 3.328281879425049
29.093002319335938 29.83108901977539 3.5273876190185547
29.093046188354492 31.064376831054688 3.6028661727905273
29.09309959411621 32.35215377807617 3.6831889152526855
29.093158721923828 33.699275970458984 3.7687628269195557
28.56746482849121 35.93214416503906 3.885937452316284
28.487205505371094 37.358497619628906 3.977032423019409
29.21786117553711 39.96855926513672 4.191096782684326
4.078558444976807 6.35548210144043 0.6392663717269897
3.9846508502960205 6.49456787109375 0.6450158357620239
41.37419509887695 6.273162841796875 2.5949411392211914
32.35185623168945 7.622955322265625 2.061091661453247
32.35186004638672 8.317264556884766 2.071382999420166
29.67916488647461 8.92467975616455 1.9218233823776245
30.985267639160156 12.126335144042969 2.0633063316345215
29.228588104248047 12.126334190368652 1.9622716903686523
28.566162109375 13.230318069458008 1.9521623849868774
28.566171646118164 13.939017295837402 1.9710326194763184
28.566190719604492 14.661853790283203 1.9910945892333984
28.566234588623047 16.925901412963867 2.0590016841888428
28.566268920898438 18.526960372924805 2.1113414764404297
28.566347122192383 22.00130271911621 2.235891103744507
28.566375732421875 22.936853408813477 2.2717559337615967
28.48613166809082 25.865806579589844 2.385985851287842
34.22454833984375 35.09281921386719 3.039658784866333
32.865848541259766 35.09282302856445 2.981447696685791
31.55768394470215 35.09282302856445 2.9265904426574707
30.296234130859375 35.09281921386719 2.8748779296875
28.566791534423828 35.93130111694336 2.84648060798645
28.56684112548828 37.46294021606445 2.9214231967926025
28.5668888092041 39.078086853027344 3.0016839504241943
4.078541278839111 6.355457782745361 0.46827757358551025
3.984572649002075 6.494441986083984 0.4724816679954529
36.390506744384766 6.273169040679932 1.4560775756835938
32.35136795043945 7.622838020324707 1.3105809688568115
32.351375579833984 9.018707275390625 1.3242874145507812
29.099506378173828 9.396393775939941 1.2057589292526245
28.51799774169922 9.850059509277344 1.189679503440857
32.35140609741211 11.912006378173828 1.3593767881393433
28.485374450683594 12.49934196472168 1.2265856266021729
28.485395431518555 13.899602890014648 1.249796748161316
28.48539924621582 14.62038803100586 1.2625192403793335
28.48543930053711 17.66627311706543 1.3216863870620728
28.485477447509766 20.15717315673828 1.375988483428955
28.48548698425293 21.0347900390625 1.3962576389312744
28.485502243041992 21.939043045043945 1.4177340269088745
28.485517501831055 22.87193489074707 1.4404809474945068
28.485536575317383 23.835651397705078 1.4645663499832153
28.4855899810791 26.936664581298828 1.5458853244781494
28.485605239868164 28.04981803894043 1.5763674974441528
32.8658447265625 35.09281921386719 1.8958386182785034
31.557674407958984 35.09282302856445 1.8609545230865479
29.07810401916504 35.09281921386719 1.7970526218414307
28.566146850585938 37.46201705932617 1.8576292991638184
41.37419509887695 6.2731614112854 0.7068722248077393
25.7398681640625 4.975378513336182 0.4428420960903168
32.350120544433594 6.934855937957764 0.5588705539703369
32.35012435913086 8.316818237304688 0.5642220973968506
32.35013198852539 9.018359184265137 0.5672900080680847
32.35013961791992 11.173675537109375 0.578131377696991
32.35013961791992 11.911542892456055 0.5823190212249756
29.228578567504883 12.126331329345703 0.5345300436019897
28.48493194580078 13.899375915527344 0.5353872776031494
28.48493194580078 14.620148658752441 0.5408416390419006
28.48494529724121 16.87773895263672 0.5592828392982483
28.48495101928711 17.665966033935547 0.5661901831626892
28.484960556030273 19.303983688354492 0.5812432765960693
28.484970092773438 21.034406661987305 0.5981356501579285
28.4849796295166 22.871511459350586 0.6170763969421387
28.484989166259766 23.835201263427734 0.6273910403251648
28.48499870300293 24.832094192504883 0.6383288502693176
28.485004425048828 25.864784240722656 0.6499264240264893
28.485013961791992 26.936132431030273 0.6622265577316284
28.48501968383789 28.04924774169922 0.6752856373786926
34.22318649291992 35.09143829345703 0.8279781937599182
31.55644416809082 35.0914421081543 0.7971832156181335
30.2950439453125 35.09143829345703 0.7830996513366699
29.07697105407715 35.09143829345703 0.7698089480400085
28.485151290893555 38.96626663208008 0.8153313994407654
3.9844188690185547 6.494194030761719 0.12870314717292786
40.2672119140625 6.941452503204346 -0.23005278408527374
32.349632263183594 7.622432708740234 -0.1871180683374405
32.34963607788086 8.316690444946289 -0.18805983662605286
32.34963607788086 9.727706909179688 -0.19018645584583282
29.22858238220215 12.126331329345703 -0.17816145718097687
28.484466552734375 12.498946189880371 -0.17513121664524078
29.152753829956055 15.716059684753418 -0.18646223843097687
29.152748107910156 17.273422241210938 -0.1907823085784912
29.152748107910156 18.907339096069336 -0.1956324726343155
29.15274429321289 19.75653839111328 -0.1982755959033966
29.15274429321289 20.629352569580078 -0.20107115805149078
29.152738571166992 23.40766143798828 -0.21049529314041138
28.830322265625 24.124155044555664 -0.21165023744106293
28.500789642333984 26.9510440826416 -0.22085067629814148
28.50078582763672 28.064748764038086 -0.22519820928573608
30.2950382232666 35.09143829345703 -0.26101240515708923
28.500732421875 37.376243591308594 -0.2646328806877136
28.484447479248047 38.965293884277344 -0.27174636721611023
28.657133102416992 40.9139518737793 -0.28123733401298523
4.078494548797607 6.355384349822998 -0.042513731867074966
40.26720428466797 6.941452503204346 -1.1505591869354248
32.34914779663086 7.622317790985107 -0.9358274340629578
32.34914779663086 9.01807975769043 -0.9456127882003784
32.34914016723633 10.445721626281738 -0.9571986198425293
32.34914016723633 11.17332935333252 -0.9636881947517395
32.34913635253906 11.91117000579834 -0.9706701636314392
28.484012603759766 12.498741149902344 -0.8758651614189148
29.15226936340332 14.962668418884277 -0.9226747155189514
29.152265548706055 15.715800285339355 -0.9325483441352844
29.152265548706055 16.48555564880371 -0.9430261254310608
29.152244567871094 18.079811096191406 -0.9659092426300049
29.152240753173828 18.907007217407227 -0.9783898591995239
29.1522216796875 20.628978729248047 -1.0055994987487793
29.152212142944336 21.52712059020996 -1.020414113998413
29.152191162109375 23.4072208404541 -1.0527225732803345
28.830326080322266 24.12415313720703 -1.0585122108459473
28.483896255493164 24.831125259399414 -1.0640314817428589
29.471542358398438 27.8690128326416 -1.1421301364898682
31.556434631347656 35.09143829345703 -1.3288644552230835
30.295034408569336 35.09143829345703 -1.305381417274475
29.076967239379883 35.09143829345703 -1.2832324504852295
28.483739852905273 38.964332580566406 -1.3590514659881592
28.65640640258789 40.91290283203125 -1.4064998626708984
3.9842662811279297 6.493942737579346 -0.2145262062549591
47.76228713989258 -4.421965599060059 -2.432588815689087
47.904022216796875 -2.486238718032837 -2.432682752609253
47.94507598876953 -1.516579508781433 -2.4327104091644287
47.96629333496094 -0.5462872385978699 -2.432725429534912
47.91041564941406 2.3643810749053955 -2.432692050933838
44.82999038696289 3.12264084815979 -2.2790260314941406
44.72901916503906 4.940511226654053 -2.2821953296661377
44.607215881347656 5.842772006988525 -2.2815403938293457
40.26719665527344 6.941451072692871 -2.072239398956299
32.34866714477539 6.934545516967773 -1.6778100728988647
32.34865951538086 7.622204303741455 -1.6854643821716309
32.348655700683594 9.017946243286133 -1.7030895948410034
28.568403244018555 9.224899291992188 -1.5224865674972534
28.45172882080078 9.82717227935791 -1.526551604270935
32.348628997802734 11.910984992980957 -1.7482104301452637
30.985258102416992 12.126331329345703 -1.6874470710754395
28.48355484008789 12.498544692993164 -1.5774661302566528
28.483543395996094 13.192055702209473 -1.5919256210327148
29.151796340942383 14.962422370910645 -1.6617698669433594
29.15178108215332 15.715537071228027 -1.6795562505722046
29.151771545410156 16.485271453857422 -1.6984267234802246
29.151756286621094 17.2728271484375 -1.7184383869171143
29.151718139648438 19.755834579467773 -1.7859128713607788
29.15169906616211 20.628610610961914 -1.8111157417297363
29.15167808532715 21.52672576904297 -1.8377987146377563
29.15166473388672 22.452106475830078 -1.8660610914230347
29.15164566040039 23.406784057617188 -1.8959906101226807
28.830326080322266 24.12415313720703 -1.9064491987228394
28.49966812133789 25.87809181213379 -1.9522705078125
28.49961280822754 28.063600540161133 -2.0284345149993896
31.26704978942871 32.06036376953125 -2.2711164951324463
29.929121017456055 33.28184127807617 -2.269953727722168
27.829681396484375 35.004146575927734 -2.2678849697113037
3.9841880798339844 6.49381685256958 -0.3863714635372162
22.804012298583984 38.9130859375 -2.2873451709747314
22.405609130859375 42.04534149169922 -2.4161550998687744
21.545438766479492 42.48023223876953 -2.4155969619750977
19.800004959106445 43.29633712768555 -2.414463996887207
18.915428161621094 43.67820358276367 -2.4138901233673096
18.02356719970703 44.04113006591797 -2.413311004638672
17.12472915649414 44.38608169555664 -2.4127278327941895
13.467154502868652 45.58030319213867 -2.410353660583496
32.90442657470703 -3.0463836193084717 -2.422940731048584
33.045101165771484 0.29227110743522644 -2.4230356216430664
33.03236770629883 0.9607592821121216 -2.423027992248535
32.96586990356445 2.296243190765381 -2.4229862689971924
30.82669448852539 2.7749485969543457 -2.2694220542907715
30.778934478759766 3.399665355682373 -2.270502805709839
30.71829605102539 4.023563861846924 -2.271573781967163
30.644916534423828 4.646386623382568 -2.272634744644165
30.55878257751465 5.26786994934082 -2.2736852169036865
25.738407135009766 4.975096225738525 -1.9221292734146118
30.255815505981445 6.485908031463623 -2.268827199935913
29.96622085571289 7.703946590423584 -2.2686400413513184
29.627166748046875 8.909048080444336 -2.2684199810028076
29.299257278442383 9.460894584655762 -2.2575061321258545
29.021684646606445 10.024031639099121 -2.251289129257202
29.027196884155273 10.688011169433594 -2.2680306434631348
28.060976028442383 12.996342658996582 -2.2674500942230225
27.50904655456543 14.119263648986816 -2.267185688018799
27.216161727905273 14.672045707702637 -2.267052412033081
26.912153244018555 15.218825340270996 -2.2669155597686768
25.929052352905273 16.81657600402832 -2.2660162448883057
25.58101463317871 17.336009979248047 -2.2657909393310547
25.22244644165039 17.848154067993164 -2.2655584812164307
24.47455596923828 18.849872589111328 -2.2650740146636963
22.859970092773438 20.75716781616211 -2.2640273571014404
22.808324813842773 21.568115234375 -2.3016676902770996
22.790555953979492 23.36875343322754 -2.39339017868042
18.886756896972656 26.964738845825195 -2.413853645324707
16.054759979248047 28.712406158447266 -2.4120161533355713
15.468131065368652 29.026744842529297 -2.411635637283325
14.875349998474121 29.329105377197266 -2.4112508296966553
14.276612281799316 29.619224548339844 -2.410862445831299
13.672237396240234 29.89716911315918 -2.4104700088500977
13.06242561340332 30.16267204284668 -2.410074472427368
12.447468757629395 30.415761947631836 -2.409675121307373
11.827579498291016 30.656217575073242 -2.4092729091644287
9.941122055053711 31.301286697387695 -2.408048391342163
9.304214477539062 31.49062156677246 -2.407634973526001
25.0773868560791 -2.3217132091522217 -2.417848825454712
25.119510650634766 -1.8139214515686035 -2.417876720428467
25.151323318481445 -1.3053655624389648 -2.417898178100586
25.183753967285156 -0.28681275248527527 -2.4179205894470215
25.18440818786621 0.22274963557720184 -2.417921304702759
25.032196044921875 2.764911413192749 -2.4178264141082764
24.81959342956543 3.250936269760132 -2.4031567573547363
23.897382736206055 4.119542121887207 -2.32810378074646
23.559858322143555 4.553991794586182 -2.3037283420562744
23.295257568359375 4.9937744140625 -2.287268877029419
22.846010208129883 6.368862152099609 -2.2769594192504883
22.799795150756836 6.85601806640625 -2.2857143878936768
22.793807983398438 7.360247611999512 -2.2995755672454834
22.794633865356445 8.920865058898926 -2.3500163555145264
22.794368743896484 9.45690631866455 -2.369232654571533
22.79218292236328 10.001177787780762 -2.389551877975464
22.789228439331055 10.554750442504883 -2.411142587661743
22.3896427154541 11.49168586730957 -2.416111946105957
21.381561279296875 13.260541915893555 -2.415459156036377
21.107324600219727 13.689384460449219 -2.4152815341949463
20.824487686157227 14.112553596496582 -2.4150984287261963
20.233333587646484 14.941061973571777 -2.41471529006958
19.925273895263672 15.346080780029297 -2.414515733718872
19.60905647277832 15.744726181030273 -2.4143106937408447
18.612836837768555 16.90071678161621 -2.4136650562286377
18.265396118164062 17.272201538085938 -2.4134397506713867
17.9105281829834 17.636518478393555 -2.4132096767425537
17.17901611328125 18.343053817749023 -2.4127352237701416
16.419546127319336 19.019147872924805 -2.412242889404297
16.02970314025879 19.345394134521484 -2.41198992729187
15.230706214904785 19.97374725341797 -2.4114716053009033
14.407034873962402 20.56900405883789 -2.410937547683716
4.078431129455566 6.355284214019775 -0.7249682545661926
12.691133499145508 21.65634536743164 -2.4098241329193115
12.24894905090332 21.906070709228516 -2.4095373153686523
10.89356517791748 22.60051727294922 -2.4086577892303467
9.026263236999512 23.395410537719727 -2.4074459075927734
8.550015449523926 23.570241928100586 -2.4071366786956787
8.070352554321289 23.735292434692383 -2.406825304031372
7.587540149688721 23.890649795532227 -2.4065120220184326
6.651029109954834 22.51076316833496 -2.253502368927002
20.24162483215332 -1.874025583267212 -2.414705276489258
20.275604248046875 -1.4641393423080444 -2.4147276878356934
20.30120277404785 -1.0536407232284546 -2.4147448539733887
20.318462371826172 -0.6427053809165955 -2.4147565364837646
20.327892303466797 0.1797906458377838 -2.4147632122039795
20.319950103759766 0.5909167528152466 -2.4147582054138184
20.303871154785156 1.001996397972107 -2.414747953414917
20.279296875 1.4125585556030273 -2.4147326946258545
20.20516586303711 2.2317473888397217 -2.4146852493286133
20.09775161743164 3.047224760055542 -2.414616584777832
19.874725341796875 4.2605204582214355 -2.4144721031188965
19.209068298339844 6.63477897644043 -2.41404128074646
18.923513412475586 7.405871391296387 -2.4138565063476562
18.769014358520508 7.786873817443848 -2.4137566089630127
18.606828689575195 8.164648056030273 -2.413651704788208
18.43699836730957 8.539031028747559 -2.413541793823242
17.475845336914062 10.354687690734863 -2.412919521331787
17.261802673339844 10.70552921295166 -2.41278076171875
16.57754898071289 11.730767250061035 -2.4123375415802
16.335769653320312 12.062968254089355 -2.4121811389923096
16.08729362487793 12.390158653259277 -2.412019968032837
15.302837371826172 13.340410232543945 -2.4115114212036133
14.46214485168457 14.240893363952637 -2.410966396331787
13.568389892578125 15.088335037231445 -2.410386800765991
12.624900817871094 15.879587173461914 -2.4097750186920166
12.299985885620117 16.130361557006836 -2.409564256668091
11.295794486999512 16.84221839904785 -2.4089126586914062
4.078415393829346 6.355259895324707 -0.8969924449920654
10.25044059753418 17.491491317749023 -2.4082345962524414
9.532596588134766 17.888402938842773 -2.407768726348877
9.167828559875488 18.075822830200195 -2.407532215118408
8.427386283874512 18.428220748901367 -2.4070515632629395
7.673426151275635 18.750244140625 -2.406562328338623
6.829034328460693 17.700361251831055 -2.253612756729126
6.10612154006958 17.958398818969727 -2.253143548965454
5.740960597991943 18.076366424560547 -2.252906560897827
5.373491287231445 18.18687629699707 -2.2526679039001465
16.95468521118164 -1.5697109699249268 -2.412571907043457
17.02643585205078 -0.1939135640859604 -2.4126200675964355
17.026880264282227 0.15059630572795868 -2.4126205444335938
17.020320892333984 0.4950433373451233 -2.412616729736328
17.006765365600586 0.8392840623855591 -2.4126083850860596
16.986209869384766 1.1831762790679932 -2.412595272064209
16.958677291870117 1.5265802145004272 -2.4125778675079346
16.71671485900879 3.2312498092651367 -2.4124226570129395
16.571683883666992 3.9047276973724365 -2.4123291969299316
15.974292755126953 5.881840705871582 -2.4119415283203125
15.586453437805176 6.839312553405762 -2.4116902351379395
15.141053199768066 7.77128267288208 -2.411400556564331
14.812962532043457 8.376701354980469 -2.4111878871917725
14.639793395996094 8.674284934997559 -2.4110758304595947
14.460601806640625 8.96825885772705 -2.4109599590301514
14.27548885345459 9.258520126342773 -2.4108400344848633
13.887798309326172 9.827418327331543 -2.4105887413024902
13.477383613586426 10.380045890808105 -2.410322904586792
13.263860702514648 10.649975776672363 -2.410184383392334
13.044902801513672 10.915496826171875 -2.4100425243377686
12.82063102722168 11.176518440246582 -2.4098970890045166
12.591121673583984 11.43290901184082 -2.4097483158111572
12.356441497802734 11.684558868408203 -2.4095962047576904
12.116756439208984 11.931380271911621 -2.409440755844116
11.872093200683594 12.173285484313965 -2.4092822074890137
11.622608184814453 12.410148620605469 -2.4091203212738037
11.368372917175293 12.641877174377441 -2.4089555740356445
10.846118927001953 13.089600563049316 -2.408616781234741
10.578309059143066 13.305391311645508 -2.408442974090576
9.749539375305176 13.919469833374023 -2.4079055786132812
9.465215682983398 14.112791061401367 -2.4077210426330566
8.589652061462402 14.657503128051758 -2.4071528911590576
7.682803630828857 15.147871017456055 -2.406564474105835
6.319849491119385 14.59327220916748 -2.2532787322998047
6.022799015045166 14.71689510345459 -2.2530860900878906
5.421562194824219 14.945898056030273 -2.2526957988739014
5.117629051208496 15.051203727722168 -2.2524983882904053
4.503303050994873 15.241679191589355 -2.251873016357422
14.573089599609375 -1.3492165803909302 -2.4110267162323
14.59751033782959 -1.0541133880615234 -2.4110429286956787
14.63471794128418 -0.1666754186153412 -2.4110679626464844
14.617825508117676 0.721390962600708 -2.411057949066162
14.600150108337402 1.016976237297058 -2.4110467433929443
14.511239051818848 1.9007208347320557 -2.410989999771118
14.469671249389648 2.1938939094543457 -2.410963296890259
14.422117233276367 2.486151695251465 -2.410932779312134
14.30931282043457 3.0674688816070557 -2.410860061645508
14.244072914123535 3.356281042098999 -2.410818099975586
14.172993659973145 3.6437010765075684 -2.4107720851898193
14.096087455749512 3.929614782333374 -2.410722494125366
14.01337718963623 4.213897705078125 -2.4106686115264893
13.83076286315918 4.777117729187012 -2.4105494022369385
13.730914115905762 5.05581521987915 -2.410484790802002
13.625428199768066 5.332423210144043 -2.410416603088379
13.275609016418457 6.148553371429443 -2.4101898670196533
13.148018836975098 6.415654182434082 -2.410106658935547
13.015084266662598 6.68010950088501 -2.4100191593170166
12.876792907714844 6.941794395446777 -2.409929037094116
12.584442138671875 7.456458568572998 -2.4097397327423096
12.271455764770508 7.95878267288208 -2.4095370769500732
12.107400894165039 8.205065727233887 -2.409430742263794
11.938377380371094 8.44794750213623 -2.4093213081359863
11.76447868347168 8.687342643737793 -2.4092085361480713
11.585755348205566 8.92314338684082 -2.409092664718628
11.402288436889648 9.155257225036621 -2.4089736938476562
10.416629791259766 10.25726318359375 -2.408334970474243
10.206390380859375 10.465319633483887 -2.408198595046997
9.991992950439453 10.669046401977539 -2.408059597015381
9.773529052734375 10.868372917175293 -2.4079179763793945
9.324725151062012 11.25350570678711 -2.4076266288757324
9.094571113586426 11.43914794921875 -2.407477617263794
8.623262405395508 11.796191215515137 -2.4071717262268066
4.078381061553955 6.355209827423096 -1.243991732597351
3.983799934387207 6.493183612823486 -1.2549619674682617
7.385398864746094 12.602547645568848 -2.4063687324523926
6.186717510223389 12.19809627532959 -2.2531898021698
5.434200286865234 12.548201560974121 -2.2527012825012207
5.178833961486816 12.654643058776855 -2.252535581588745
4.136553764343262 13.02464485168457 -2.2512831687927246
3.871467113494873 13.103189468383789 -2.250859260559082
12.766453742980957 -1.1819530725479126 -2.4098544120788574
12.787835121154785 -0.9234341382980347 -2.4098684787750244
12.803951263427734 -0.6645306348800659 -2.409879446029663
12.814812660217285 -0.4053530693054199 -2.4098868370056152
12.820735931396484 0.11339416354894638 -2.40989089012146
12.79014778137207 0.890899658203125 -2.409871816635132
12.74348258972168 1.4075720310211182 -2.4098422527313232
12.675874710083008 1.921918272972107 -2.4097988605499268
12.634265899658203 2.1779539585113525 -2.4097721576690674
12.478363037109375 2.940232515335083 -2.4096717834472656
12.27635383605957 3.691563606262207 -2.409541368484497
12.198904991149902 3.9390947818756104 -2.409491539001465
12.11644172668457 4.184994220733643 -2.409437656402588
11.936636924743652 4.6715006828308105 -2.409320116043091
11.73725414276123 5.150290489196777 -2.4091906547546387
11.518621444702148 5.620572566986084 -2.4090492725372314
11.281119346618652 6.081567287445068 -2.4088938236236572
11.02507209777832 6.532505989074707 -2.408726215362549
10.89023494720459 6.753970623016357 -2.4086387157440186
10.75096321105957 6.972654819488525 -2.408548593521118
10.459273338317871 7.401296138763428 -2.4083595275878906
10.306966781616211 7.611059188842773 -2.4082608222961426
9.825020790100098 8.221214294433594 -2.4079484939575195
9.483516693115234 8.611159324645996 -2.4077272415161133
9.306917190551758 8.800847053527832 -2.4076125621795654
9.126522064208984 8.986894607543945 -2.4074957370758057
8.754608154296875 9.347808837890625 -2.407254457473755
8.563260078430176 9.522528648376465 -2.407130479812622
8.368409156799316 9.693316459655762 -2.4070041179656982
7.763724327087402 10.181447982788086 -2.406611919403076
7.555726051330566 10.335850715637207 -2.4064767360687256
6.678094387054443 9.957149505615234 -2.2535064220428467
5.849869251251221 10.46193790435791 -2.252969264984131
5.636668682098389 10.57750129699707 -2.252830743789673
5.421175479888916 10.688713073730469 -2.2526910305023193
5.203502178192139 10.79552936553955 -2.252549648284912
4.983698844909668 10.897892951965332 -2.2524070739746094
4.761904239654541 10.995792388916016 -2.252263069152832
4.537785530090332 11.088216781616211 -2.2519242763519287
3.624183177947998 11.411360740661621 -2.2504630088806152
11.366692543029785 -0.8208123445510864 -2.4089465141296387
11.381024360656738 -0.5906811356544495 -2.4089560508728027
11.390667915344238 -0.36030516028404236 -2.4089624881744385
11.395938873291016 0.10079101473093033 -2.408966541290283
11.39155101776123 0.33132627606391907 -2.408963918685913
11.38249397277832 0.5617260336875916 -2.4089581966400146
11.36875057220459 0.7918908596038818 -2.408949613571167
11.350350379943848 1.0217314958572388 -2.408937692642212
11.327288627624512 1.2511473894119263 -2.4089229106903076
11.26722240447998 1.7083392143249512 -2.4088845252990723
11.188657760620117 2.162706136703491 -2.4088339805603027
11.036409378051758 2.837322235107422 -2.408735990524292
10.912222862243652 3.2813615798950195 -2.408655881881714
10.843406677246094 3.501396417617798 -2.408611297607422
10.770134925842285 3.7199833393096924 -2.4085640907287598
10.692447662353516 3.9370317459106445 -2.4085137844085693
10.610383987426758 4.152456760406494 -2.408460855484009
10.523943901062012 4.366164684295654 -2.4084036350250244
10.433194160461426 4.578071594238281 -2.408344030380249
10.238926887512207 4.996137619018555 -2.4082181453704834
10.027853012084961 5.405949592590332 -2.408081531524658
9.680535316467285 6.003732681274414 -2.407853364944458
9.556771278381348 6.198148250579834 -2.4077725410461426
9.429098129272461 6.39000940322876 -2.4076895713806152
9.162213325500488 6.765730857849121 -2.4075164794921875
8.880340576171875 7.13030481338501 -2.4073338508605957
8.733939170837402 7.308221340179443 -2.4072389602661133
8.583929061889648 7.483124732971191 -2.40714168548584
8.430425643920898 7.654942512512207 -2.4070422649383545
8.273477554321289 7.82360315322876 -2.406940460205078
8.113155364990234 7.989033222198486 -2.40683650970459
7.782628059387207 8.30996036529541 -2.4066221714019775
7.439388275146484 8.617215156555176 -2.4063994884490967
6.290833473205566 8.60554313659668 -2.253253698348999
6.115137577056885 8.73061466217041 -2.2531394958496094
4.07835054397583 6.35515832901001 -1.5961757898330688
5.388184547424316 9.194476127624512 -2.2526679039001465
5.200778484344482 9.301095008850098 -2.2525463104248047
4.626007080078125 9.59742259979248 -2.2520668506622314
4.430264949798584 9.687692642211914 -2.251753330230713
3.6305272579193115 10.008453369140625 -2.250474214553833
3.2217345237731934 10.144177436828613 -2.2498204708099365
10.220059394836426 -0.7380093336105347 -2.4082024097442627
10.246072769165039 -0.11669310927391052 -2.408220052719116
10.234251022338867 0.5050616264343262 -2.408212900161743
10.221907615661621 0.7120080590248108 -2.408205270767212
10.18464469909668 1.1249383687973022 -2.4081814289093018
10.159727096557617 1.3307476043701172 -2.408165454864502
10.018516540527344 2.147656202316284 -2.4080746173858643
9.923174858093262 2.5511255264282227 -2.408013343811035
9.869388580322266 2.7513232231140137 -2.4079785346984863
9.749695777893066 3.1482324600219727 -2.4079012870788574
9.614002227783203 3.539940118789673 -2.407813549041748
9.462547302246094 3.925814151763916 -2.4077157974243164
9.295564651489258 4.305206298828125 -2.407606840133667
9.206331253051758 4.492278575897217 -2.407547950744629
8.916172981262207 5.042078971862793 -2.4073596000671387
8.812093734741211 5.221291542053223 -2.407292366027832
8.704395294189453 5.398343563079834 -2.4072210788726807
8.593138694763184 5.573173522949219 -2.4071478843688965
7.985052108764648 6.411449909210205 -2.4067513942718506
7.853424072265625 6.571455955505371 -2.4066662788391113
7.718582630157471 6.728752136230469 -2.406578779220581
6.69462776184082 6.864469051361084 -2.253513813018799
6.554112434387207 6.998219013214111 -2.253422737121582
6.410926342010498 7.129094123840332 -2.2533299922943115
5.96589469909668 7.50390100479126 -2.2530412673950195
4.078333854675293 6.355133056640625 -1.7747046947479248
3.983560800552368 6.49279260635376 -1.7902690172195435
4.845378398895264 8.268220901489258 -2.252314329147339
4.506049633026123 8.455836296081543 -2.251880407333374
4.159263610839844 8.629082679748535 -2.2513253688812256
3.626774787902832 8.862140655517578 -2.2504730224609375
2.711473226547241 9.177125930786133 -2.2490084171295166
9.27451229095459 -0.6697320342063904 -2.4075889587402344
9.287396430969238 0.45833250880241394 -2.4075984954833984
9.242376327514648 1.020859956741333 -2.4075698852539062
9.219776153564453 1.207629919052124 -2.407555341720581
9.12932014465332 1.7646484375 -2.4074971675872803
9.091658592224121 1.9489672183990479 -2.407472848892212
9.05026912689209 2.1324822902679443 -2.4074461460113525
9.005162239074707 2.3151159286499023 -2.4074172973632812
8.903890609741211 2.677445650100708 -2.4073519706726074
8.847774505615234 2.856995105743408 -2.407315731048584
8.788018226623535 3.0353643894195557 -2.4072771072387695
8.724661827087402 3.2124786376953125 -2.407236099243164
8.65772533416748 3.3882713317871094 -2.4071929454803467
8.513236045837402 3.735595703125 -2.407099485397339
8.43574333190918 3.9069840908050537 -2.4070494174957275
8.354790687561035 4.07676362991333 -2.406996965408325
8.182638168334961 4.411209583282471 -2.40688419342041
7.798431396484375 5.057758808135986 -2.4066338539123535
7.587000370025635 5.368785381317139 -2.406494379043579
7.476609706878662 5.521016597747803 -2.4064221382141113
7.363157749176025 5.67097282409668 -2.4063479900360107
7.127252101898193 5.963820457458496 -2.4061942100524902
7.004903316497803 6.106598854064941 -2.4061148166656494
6.879688739776611 6.246854305267334 -2.406033515930176
6.075708866119385 6.229856014251709 -2.2531116008758545
5.81828498840332 6.470062255859375 -2.2529447078704834
5.685980319976807 6.586202144622803 -2.2528586387634277
5.134106159210205 7.023191928863525 -2.252500534057617
4.845378398895264 7.224539756774902 -2.2523133754730225
4.078316688537598 6.355107307434082 -1.9551293849945068
4.398636341094971 7.505890846252441 -2.2525315284729004
3.9324522018432617 7.753505706787109 -2.250966787338257
3.7743871212005615 7.830596923828125 -2.25071382522583
3.614778995513916 7.904458999633789 -2.2504584789276123
3.4537267684936523 7.975061893463135 -2.2502005100250244
3.291292667388916 8.042372703552246 -2.2499406337738037
3.1275486946105957 8.106371879577637 -2.249678611755371
2.629117488861084 8.27822208404541 -2.2488811016082764
2.460803270339966 8.32872200012207 -2.2486116886138916
8.480687141418457 -0.612406313419342 -2.407073736190796
8.498558044433594 -0.26882264018058777 -2.40708589553833
8.502486228942871 0.07520080357789993 -2.4070887565612793
8.49921989440918 0.24720336496829987 -2.4070868492126465
8.482222557067871 0.5908306837081909 -2.407076120376587
8.468506813049316 0.7623156309127808 -2.40706729888916
8.451309204101562 0.9334832429885864 -2.4070563316345215
8.313519477844238 1.7821587324142456 -2.406967878341675
8.275677680969238 1.9499688148498535 -2.4069435596466064
8.23444652557373 2.116973876953125 -2.406916856765747
8.18983268737793 2.283107280731201 -2.406888008117676
8.035919189453125 2.775590658187866 -2.4067888259887695
7.916810035705566 3.098306179046631 -2.4067118167877197
7.784703254699707 3.415916681289673 -2.4066264629364014
7.713858604431152 3.5726475715637207 -2.406580686569214
7.639852046966553 3.727907657623291 -2.4065327644348145
7.399156093597412 4.184210777282715 -2.406376838684082
7.312825679779053 4.332950115203857 -2.406320095062256
7.131192684173584 4.62501335144043 -2.406200885772705
7.035982608795166 4.768216609954834 -2.4061391353607178
6.937891483306885 4.909457683563232 -2.4060745239257812
6.83695650100708 5.0486741065979 -2.406008005142212
6.733223915100098 5.185809135437012 -2.405939817428589
6.517539978027344 5.453639030456543 -2.405799150466919
5.999185562133789 5.229850769042969 -2.2530643939971924
5.891968727111816 5.349991321563721 -2.2529945373535156
5.782340049743652 5.467926979064941 -2.2529234886169434
5.670345306396484 5.583608150482178 -2.2528507709503174
5.439473628997803 5.808038234710693 -2.2527008056640625
5.320662498474121 5.916701316833496 -2.2526235580444336
4.824239253997803 6.326568603515625 -2.2523012161254883
4.695080280303955 6.422635555267334 -2.2522172927856445
4.56401252746582 6.516060829162598 -2.2521321773529053
4.43107795715332 6.606807708740234 -2.2520458698272705
4.021670818328857 6.862637996673584 -2.251783847808838
3.5996837615966797 7.097344875335693 -2.2528581619262695
3.012768507003784 7.361791610717773 -2.2518398761749268
2.8629088401794434 7.420446395874023 -2.2515997886657715
2.7119152545928955 7.476070404052734 -2.2513654232025146
2.406766414642334 7.578140735626221 -2.250915050506592
2.2527356147766113 7.624549388885498 -2.250699043273926
7.791114330291748 -0.7213232517242432 -2.4066262245178223
7.804139137268066 -0.5635513067245483 -2.40663480758667
7.824197769165039 0.06920226663351059 -2.4066483974456787
7.821195125579834 0.2274829000234604 -2.406646728515625
7.814974308013916 0.3856695592403412 -2.4066429138183594
7.792930603027344 0.7015014290809631 -2.4066288471221924
7.777110576629639 0.8590148687362671 -2.40661883354187
7.650335311889648 1.639992594718933 -2.4065372943878174
7.536534309387207 2.100985050201416 -2.406463861465454
7.394922733306885 2.554192543029785 -2.406372547149658
7.341631889343262 2.7032384872436523 -2.4063382148742676
6.959527492523193 3.5720391273498535 -2.4060909748077393
6.885699272155762 3.712034225463867 -2.406043291091919
6.809046268463135 3.8505053520202637 -2.405993700027466
6.729605674743652 3.9873876571655273 -2.40594220161438
6.64741325378418 4.12263298034668 -2.4058890342712402
6.291766166687012 4.646083354949951 -2.405655860900879
6.196319580078125 4.772295951843262 -2.4055933952331543
5.997862339019775 5.018790245056152 -2.4054641723632812
5.520853042602539 4.812861442565918 -2.2527573108673096
5.42219352722168 4.923436164855957 -2.2526931762695312
5.321324348449707 5.031978607177734 -2.2526278495788574
5.218284606933594 5.138443470001221 -2.25256085395813
5.11309814453125 5.242815017700195 -2.252492666244507
5.005829811096191 5.345021724700928 -2.2524232864379883
4.785197734832764 5.542802810668945 -2.2522804737091064
4.320859432220459 5.91071891784668 -2.2519795894622803
4.200251579284668 5.996721267700195 -2.251901626586914
3.7011802196502686 6.31574821472168 -2.2515792846679688
3.5725109577178955 6.389095306396484 -2.2514946460723877
3.3146557807922363 6.5353684425354 -2.253901958465576
3.181417226791382 6.600381851196289 -2.253659725189209
3.046907901763916 6.662696361541748 -2.253422498703003
2.9111926555633545 6.722282409667969 -2.253190517425537
2.6363377571105957 6.83319091796875 -2.2527425289154053
2.357302188873291 6.93293571472168 -2.252316474914551
7.208067417144775 -0.6673428416252136 -2.406247854232788
7.229202747344971 -0.37519896030426025 -2.406261920928955
7.238484859466553 -0.08243896067142487 -2.406268358230591
7.238670349121094 0.06402221322059631 -2.40626859664917
7.22142219543457 0.5030096173286438 -2.4062576293945312
7.177527904510498 0.9401324391365051 -2.4062297344207764
7.157002925872803 1.085146427154541 -2.406216621398926
7.01054048538208 1.8023223876953125 -2.4061222076416016
6.97257661819458 1.943768858909607 -2.406097888946533
6.841580867767334 2.3630688190460205 -2.406013250350952
6.79227876663208 2.5009636878967285 -2.4059813022613525
6.740201473236084 2.6378326416015625 -2.405947685241699
6.685357570648193 2.773615598678589 -2.405912160873413
6.438821792602539 3.304783821105957 -2.4057528972625732
6.37052583694458 3.434309720993042 -2.4057087898254395
6.299620151519775 3.5624241828918457 -2.405662775039673
6.226131439208984 3.6890716552734375 -2.4056150913238525
6.150096416473389 3.814204692840576 -2.4055659770965576
6.07154655456543 3.9377665519714355 -2.405515193939209
5.907012939453125 4.1799774169921875 -2.4054086208343506
5.821102142333984 4.298526287078857 -2.405352830886841
5.732813358306885 4.415311336517334 -2.4052953720092773
5.642173767089844 4.530282020568848 -2.4052367210388184
5.19708251953125 4.348726749420166 -2.252549886703491
5.107906341552734 4.452868938446045 -2.2524919509887695
5.016636848449707 4.555182456970215 -2.2524328231811523
4.828001499176025 4.754130840301514 -2.2523107528686523
4.730691909790039 4.850706577301025 -2.2522475719451904
4.631452560424805 4.945278167724609 -2.252183437347412
4.427348613739014 5.128292083740234 -2.25205135345459
4.32255744934082 5.216660022735596 -2.251983404159546
4.215999603271484 5.302883148193359 -2.2519145011901855
3.9977757930755615 5.468757152557373 -2.2517733573913574
3.886190176010132 5.548337459564209 -2.2517011165618896
3.773024797439575 5.625640869140625 -2.2516279220581055
2.6948986053466797 6.222835540771484 -2.254145383834839
2.5682127475738525 6.275501728057861 -2.2539353370666504
2.311821222305298 6.373111248016357 -2.253530502319336
1.9204821586608887 6.499972820281982 -2.2529618740081787
6.699173450469971 -0.6202276349067688 -2.4059176445007324
6.718816757202148 -0.3487103283405304 -2.405930757522583
6.724505424499512 -0.21270568668842316 -2.4059345722198486
6.727437496185303 -0.07661864906549454 -2.4059367179870605
6.725028038024902 0.1955999732017517 -2.405935287475586
6.687132358551025 0.7386218309402466 -2.405911445617676
6.670794486999512 0.8737578988075256 -2.405900716781616
6.629913330078125 1.1428948640823364 -2.405874490737915
6.60539436340332 1.2767870426177979 -2.4058587551116943
6.578160285949707 1.4101513624191284 -2.40584135055542
6.548228740692139 1.5429357290267944 -2.4058220386505127
6.515616416931152 1.6750842332839966 -2.4058010578155518
6.442391395568848 1.9372613430023193 -2.4057536125183105
6.401814937591553 2.067180633544922 -2.4057273864746094
6.358604431152344 2.19624924659729 -2.4056994915008545
6.264393329620361 2.4516215324401855 -2.4056389331817627
6.159913063049316 2.70296311378479 -2.405571222305298
5.984324932098389 3.0715105533599854 -2.4054577350616455
5.920857906341553 3.1918962001800537 -2.40541672706604
5.643011569976807 3.6598386764526367 -2.405237913131714
5.243994235992432 4.210567474365234 -2.4049806594848633
4.747446060180664 4.138635158538818 -2.2522597312927246
4.575910568237305 4.327089786529541 -2.2521486282348633
4.487314224243164 4.4186692237854 -2.252091407775879
4.396883487701416 4.508434772491455 -2.25203275680542
4.304660320281982 4.596342086791992 -2.2519731521606445
4.114968299865723 4.766467094421387 -2.2518503665924072
3.5068602561950684 5.228786468505859 -2.2514569759368896
3.4002537727355957 5.298503398895264 -2.25138783454895
3.18292236328125 5.431381702423096 -2.2512471675872803
2.960400342941284 5.555344104766846 -2.2511019706726074
2.847308397293091 5.613913536071777 -2.251027822494507
2.733057737350464 5.670180320739746 -2.250953435897827
2.269383430480957 5.88206672668457 -2.25459361076355
2.149737596511841 5.926285266876221 -2.2544076442718506
1.7858691215515137 6.044360160827637 -2.2538788318634033
6.26902437210083 -0.3253656029701233 -2.4056389331817627
6.274336814880371 -0.19846618175506592 -2.405642509460449
6.277071475982666 -0.0714886486530304 -2.405644416809082
6.277230262756348 0.05552123859524727 -2.405644655227661
6.269839763641357 0.30941343307495117 -2.405640125274658
6.252159118652344 0.5627990365028381 -2.4056289196014404
6.239473819732666 0.689176619052887 -2.405620813369751
6.206429481506348 0.9410204887390137 -2.405599594116211
6.07945442199707 1.5629528760910034 -2.405517816543579
6.011141300201416 1.8075823783874512 -2.4054737091064453
5.97327995300293 1.9288097620010376 -2.405449390411377
5.890230655670166 2.168823719024658 -2.4053955078125
5.797525405883789 2.4053735733032227 -2.4053359031677246
5.583785057067871 2.8659276962280273 -2.4051990509033203
5.524573802947998 2.9782605171203613 -2.405161142349243
5.399384498596191 3.199212074279785 -2.405080795288086
5.265351295471191 3.4149010181427 -2.4049947261810303
5.122700214385986 3.624973773956299 -2.404902935028076
5.048213005065918 3.7277958393096924 -2.4048547744750977
4.893069744110107 3.9288017749786377 -2.404754161834717
4.429763317108154 3.8616931438446045 -2.252054452896118
4.35062837600708 3.950437545776367 -2.2520031929016113
4.187064170837402 4.12300968170166 -2.2518973350524902
4.102689266204834 4.20677375793457 -2.251842498779297
3.8396544456481934 4.447565078735352 -2.2516722679138184
3.748791456222534 4.524214267730713 -2.2516133785247803
3.656395196914673 4.599012851715088 -2.251553535461426
3.4671618938446045 4.742905139923096 -2.2514309883117676
3.3704051971435547 4.811940670013428 -2.2513680458068848
3.2722716331481934 4.879011154174805 -2.2513043880462646
3.1728014945983887 4.944070816040039 -2.251239776611328
3.072038412094116 5.007104396820068 -2.2511746883392334
2.970019578933716 5.068082332611084 -2.251108407974243
2.7623960971832275 5.183775424957275 -2.250973701477051
2.442626953125 5.341307163238525 -2.2507660388946533
2.3339929580688477 5.389463901519775 -2.2506957054138184
2.006756544113159 5.532121658325195 -2.255181312561035
1.7810510396957397 5.607945442199707 -2.254847526550293
1.667110562324524 5.642430305480957 -2.254687547683716
5.861895561218262 -0.4232952892780304 -2.405374526977539
5.869271278381348 -0.30461668968200684 -2.4053795337677
5.876954078674316 0.05197753757238388 -2.4053847789764404
5.870032787322998 0.28968748450279236 -2.4053807258605957
5.86295747756958 0.40838438272476196 -2.4053759574890137
5.853475093841553 0.5269140601158142 -2.4053702354431152
5.841602802276611 0.6452294588088989 -2.405362606048584
5.827330112457275 0.7632806301116943 -2.405353307723999
5.810669898986816 0.8810137510299683 -2.4053425788879395
5.770213603973389 1.1153509616851807 -2.4053168296813965
5.746429443359375 1.2318536043167114 -2.405301809310913
5.720293998718262 1.3478515148162842 -2.405285120010376
5.691802978515625 1.4632928371429443 -2.4052670001983643
5.66099214553833 1.578133463859558 -2.405247211456299
5.62785530090332 1.6923266649246216 -2.405225992202759
5.592415809631348 1.8058215379714966 -2.4052035808563232
5.554678916931152 1.9185760021209717 -2.405179500579834
5.514668941497803 2.030538320541382 -2.405153751373291
5.427884578704834 2.25191593170166 -2.4050981998443604
5.381147384643555 2.3612396717071533 -2.4050681591033936
5.332208156585693 2.4695563316345215 -2.4050369262695312
5.11480712890625 2.892413377761841 -2.4048972129821777
5.055159568786621 2.9952545166015625 -2.4048585891723633
4.993444919586182 3.096863269805908 -2.4048190116882324
4.929683685302734 3.197199583053589 -2.404778003692627
4.863907337188721 3.2962217330932617 -2.404735565185547
4.505715370178223 3.7702159881591797 -2.40450382232666
4.180073261260986 3.644021511077881 -2.269610643386841
4.073318958282471 3.698629140853882 -2.2518234252929688
3.920189142227173 3.860213041305542 -2.2517240047454834
3.841196298599243 3.9386510848999023 -2.2516729831695557
3.7606420516967773 4.015458106994629 -2.2516207695007324
3.509880304336548 4.235884189605713 -2.251458168029785
3.335479736328125 4.3741865158081055 -2.251344919204712
3.2462146282196045 4.4406561851501465 -2.2512869834899902
3.063753604888916 4.568107604980469 -2.251168727874756
2.9706311225891113 4.6290283203125 -2.251108169555664
2.8762903213500977 4.688055992126465 -2.251046895980835
2.780778646469116 4.745158672332764 -2.2509851455688477
2.586395263671875 4.85349702835083 -2.250859022140503
2.2911510467529297 5.010069370269775 -2.254737615585327
2.189366340637207 5.055498123168945 -2.2547807693481445
1.9831079244613647 5.140064716339111 -2.254840612411499
1.7735742330551147 5.216165542602539 -2.254876136779785
5.511297702789307 -0.2860388159751892 -2.405149221420288
5.518511772155762 0.04880920425057411 -2.405154228210449
5.51201057434082 0.27201780676841736 -2.4051501750946045
5.505367279052734 0.3834765553474426 -2.4051461219787598
5.496470928192139 0.49477964639663696 -2.4051403999328613
5.485318660736084 0.6058764457702637 -2.4051334857940674
5.471921443939209 0.7167266607284546 -2.4051249027252197
5.395960807800293 1.1567248106002808 -2.405076503753662
5.251349925994873 1.6956896781921387 -2.4049839973449707
5.178353309631348 1.9067028760910034 -2.4049370288848877
4.95902681350708 2.4198009967803955 -2.4047961235046387
4.856940746307373 2.6183440685272217 -2.4047300815582275
4.80290412902832 2.7160332202911377 -2.4046952724456787
4.688954830169678 2.9080235958099365 -2.4046218395233154
4.629085540771484 3.00224232673645 -2.404583215713501
4.438215255737305 3.277346611022949 -2.4044597148895264
4.370921611785889 3.366408109664917 -2.404416084289551
4.301839351654053 3.454085111618042 -2.404371500015259
4.123471736907959 3.594677686691284 -2.384070634841919
3.681190013885498 3.6248693466186523 -2.2515687942504883
3.5313806533813477 3.7706639766693115 -2.251471519470215
3.4542980194091797 3.8412487506866455 -2.2514216899871826
3.375798225402832 3.910259246826172 -2.251370668411255
3.2146947383880615 4.0434417724609375 -2.2512662410736084
3.0483434200286865 4.16998291015625 -2.2511582374572754
2.87701153755188 4.2896728515625 -2.251047134399414
2.7009849548339844 4.402324676513672 -2.2509329319000244
2.611295223236084 4.4559550285339355 -2.2508747577667236
2.520548105239868 4.507756233215332 -2.2508158683776855
2.4287657737731934 4.557704925537109 -2.25075626373291
2.2454516887664795 4.6585612297058105 -2.2538201808929443
1.861605167388916 4.825139045715332 -2.2539584636688232
1.7636218070983887 4.861856460571289 -2.2539780139923096
1.5655089616775513 4.929271221160889 -2.254000425338745
5.188568115234375 -0.26928892731666565 -2.4049413204193115
5.192958831787109 -0.1642620861530304 -2.4049441814422607
5.189237117767334 0.25608885288238525 -2.404942512512207
5.174611568450928 0.46580687165260315 -2.404933214187622
5.164112567901611 0.5702526569366455 -2.4049265384674072
5.151498794555664 0.6747570633888245 -2.4049184322357178
5.101011753082275 0.9859973192214966 -2.40488600730896
5.079991340637207 1.088991641998291 -2.4048726558685303
5.056887149810791 1.1915380954742432 -2.404857873916626
5.004475116729736 1.3951153755187988 -2.4048242568969727
4.9751877784729 1.4960650205612183 -2.4048056602478027
4.837778091430664 1.8933037519454956 -2.404716968536377
4.75712251663208 2.0874364376068115 -2.404665231704712
4.713863372802734 2.1832098960876465 -2.404637336730957
4.668673038482666 2.278104305267334 -2.4046080112457275
4.521702766418457 2.5570147037506104 -2.404513120651245
4.414431095123291 2.7377679347991943 -2.4044437408447266
4.299927711486816 2.914019823074341 -2.404369831085205
4.240023136138916 3.000368595123291 -2.4043309688568115
4.050008296966553 3.2518773078918457 -2.404207944869995
3.9149937629699707 3.412935733795166 -2.4041202068328857
3.465708017349243 3.412686586380005 -2.2514283657073975
3.3958826065063477 3.4820384979248047 -2.251383066177368
3.252110481262207 3.6164135932922363 -2.2512898445129395
3.1030125617980957 3.7448551654815674 -2.2511932849884033
3.0265440940856934 3.8067846298217773 -2.25114369392395
2.869936466217041 3.925928831100464 -2.251042127609253
2.789858341217041 3.983096122741699 -2.250990152359009
2.7086424827575684 4.0386271476745605 -2.2509374618530273
2.626317024230957 4.092504978179932 -2.2508840560913086
2.542922258377075 4.14470100402832 -2.2508299350738525
2.3730504512786865 4.243973255157471 -2.2507197856903076
2.2889561653137207 4.295338153839111 -2.252936363220215
2.024304151535034 4.426558971405029 -2.2530767917633057
1.9343639612197876 4.466673374176025 -2.2531111240386963
1.843624234199524 4.5049543380737305 -2.2531399726867676
1.566992163658142 4.60860538482666 -2.25319504737854
1.4734411239624023 4.639380931854248 -2.2532031536102295
4.881528377532959 -0.4519451856613159 -2.40474271774292
4.889682292938232 -0.3530932664871216 -2.4047482013702393
4.895834922790527 -0.25409606099128723 -2.404752254486084
4.90211296081543 -0.05582946538925171 -2.404756546020508
4.900360107421875 0.1425286829471588 -2.4047555923461914
4.896463394165039 0.2416406124830246 -2.4047532081604004
4.860859394073486 0.6366888284683228 -2.4047305583953857
4.846961498260498 0.7348974347114563 -2.404721736907959
4.831085205078125 0.8328057527542114 -2.4047114849090576
4.813221454620361 0.9303686022758484 -2.4047000408172607
4.793389797210693 1.0275524854660034 -2.4046874046325684
4.747840404510498 1.2206329107284546 -2.404658079147339
4.722140789031982 1.31640625 -2.404641628265381
4.69450569152832 1.4116625785827637 -2.4046237468719482
4.664950847625732 1.5063378810882568 -2.404604911804199
4.633481502532959 1.6003942489624023 -2.4045846462249756
4.447945594787598 2.060049295425415 -2.4044647216796875
4.360859394073486 2.238243341445923 -2.4044084548950195
4.314632415771484 2.3259899616241455 -2.404378652572632
4.216891765594482 2.4985673427581787 -2.40431547164917
4.165420055389404 2.583333730697632 -2.4042820930480957
