ply
format ascii 1.0
element vertex 364
property float x
property float y
property float z
end_header
-16.472368240356445 13.67635440826416 3.7751317024230957
-17.119359970092773 13.636276245117188 3.8591880798339844
-17.119359970092773 12.535593032836914 3.741347551345825
-17.474477767944336 11.737006187438965 3.7117326259613037
-17.474472045898438 11.229248046875 3.662567138671875
-17.474472045898438 10.2520751953125 3.5723607540130615
-17.474472045898438 9.7809419631958 3.53105092048645
-17.474472045898438 9.320388793945312 3.4921045303344727
-17.474468231201172 7.995264053344727 3.3884215354919434
-17.474462509155273 7.5702996253967285 3.3579351902008057
-17.474456787109375 7.152737140655518 3.3293516635894775
-19.813671112060547 6.288942337036133 3.665447950363159
-21.071855545043945 6.2205400466918945 3.874052047729492
-17.119422912597656 13.636327743530273 3.3529069423675537
-17.039100646972656 13.016088485717773 3.284759998321533
-17.286029815673828 12.12657642364502 3.2347612380981445
-17.47453498840332 11.737038612365723 3.224796772003174
-17.474531173706055 10.252111434936523 3.1037089824676514
-17.474525451660156 9.32042121887207 3.033980131149292
-17.474515914916992 7.5703301429748535 2.917412757873535
-17.474512100219727 6.7420830726623535 2.869335889816284
-18.6934814453125 6.3537187576293945 3.0246312618255615
-19.813730239868164 6.288951873779297 3.184579372406006
-21.290483474731445 6.285073757171631 3.400728702545166
-17.119482040405273 14.213627815246582 2.897533416748047
-17.474594116210938 11.737072944641113 2.741203546524048
-17.474590301513672 11.229323387145996 2.704895257949829
-17.474578857421875 9.781017303466797 2.60776686668396
-17.474578857421875 9.320446968078613 2.5790019035339355
-17.474559783935547 6.33780574798584 2.42059588432312
-18.693466186523438 6.35371732711792 2.571044921875
-19.81378936767578 6.288976192474365 2.7070164680480957
-21.29054069519043 6.285094261169434 2.8907556533813477
-17.286035537719727 12.12657642364502 2.2674057483673096
-17.474647521972656 11.229365348815918 2.2304954528808594
-17.47464370727539 10.252182006835938 2.1755597591400146
-17.474637985229492 9.781036376953125 2.150399684906006
-17.474634170532227 8.869776725769043 2.104342222213745
-17.474628448486328 8.428277015686035 2.0833117961883545
-17.474628448486328 7.995344638824463 2.063539981842041
-17.47462272644043 7.570374011993408 2.044975757598877
-18.6934814453125 6.35371732711792 2.120114803314209
-17.119604110717773 14.213737487792969 1.8836138248443604
-17.119604110717773 13.636474609375 1.8527822494506836
-17.11959457397461 12.535758972167969 1.7962071895599365
-17.28604507446289 12.12657642364502 1.7874770164489746
-17.474712371826172 11.737160682678223 1.7819887399673462
-17.474700927734375 10.734716415405273 1.7361019849777222
-17.47469139099121 9.320504188537598 1.676544189453125
-17.474687576293945 8.86981201171875 1.658931851387024
-17.474681854248047 7.995368003845215 1.6267651319503784
-17.474672317504883 7.5703911781311035 1.6121304035186768
-17.474668502807617 7.152826309204102 1.5984054803848267
-18.457178115844727 6.273407459259033 1.6502349376678467
-17.039344787597656 14.147099494934082 1.3733282089233398
-17.039335250854492 13.016263961791992 1.329628586769104
-17.28604507446289 12.12657642364502 1.3093743324279785
-17.474760055541992 11.229433059692383 1.2880642414093018
-17.47474479675293 9.781097412109375 1.2418115139007568
-17.47474479675293 9.320541381835938 1.2281155586242676
-17.474735260009766 8.428322792053223 1.2030706405639648
-17.4747314453125 7.995394706726074 1.1916521787643433
-17.4747257232666 7.5704216957092285 1.180930495262146
-17.474721908569336 7.152845859527588 1.1708779335021973
-17.474721908569336 6.74216365814209 1.161468744277954
-17.474712371826172 6.337859153747559 1.1526824235916138
-18.457172393798828 6.273406028747559 1.2088406085968018
-19.764677047729492 6.2733893394470215 1.2858734130859375
-21.250823974609375 6.273369789123535 1.3739964962005615
-17.039409637451172 14.14714527130127 0.8732748031616211
-17.039398193359375 13.57259464263916 0.8589773178100586
-17.03939437866211 12.477030754089355 0.8327490091323853
-17.286039352416992 12.126574516296387 0.8326022028923035
-17.47481918334961 11.229470252990723 0.8190591335296631
-17.474809646606445 10.252277374267578 0.7988830208778381
-17.47480010986328 9.781131744384766 0.7896453738212585
-17.47480010986328 9.32056713104248 0.7809337973594666
-17.47478485107422 8.42835521697998 0.765008807182312
-17.47478485107422 7.9954142570495605 0.7577480673789978
-17.47477912902832 7.570437431335449 0.7509298324584961
-18.457197189331055 6.273405075073242 0.7686761021614075
-19.76470184326172 6.2733893394470215 0.8176599144935608
-21.250829696655273 6.273369789123535 0.8736910820007324
-17.039466857910156 14.147196769714355 0.37410277128219604
-17.039457321166992 13.572641372680664 0.36797910928726196
-17.039453506469727 13.01635456085205 0.3622012138366699
-17.039453506469727 12.477072715759277 0.35674041509628296
-17.474872589111328 11.229504585266113 0.35087552666664124
-17.474872589111328 10.734816551208496 0.3464321792125702
-17.474863052368164 10.252311706542969 0.342233270406723
-17.474838256835938 7.9954376220703125 0.3246139585971832
-17.474828720092773 7.570464134216309 0.32169249653816223
-17.474822998046875 7.152883529663086 0.31895172595977783
-17.47481346130371 6.337897300720215 0.313995361328125
-19.764677047729492 6.273387908935547 0.35027891397476196
-21.250858306884766 6.273369789123535 0.3742819130420685
-17.3975830078125 14.444528579711914 -0.12731048464775085
-17.397573471069336 13.857885360717773 -0.12522873282432556
-17.039501190185547 12.477118492126465 -0.11890289187431335
-17.47494125366211 11.7373046875 -0.11852065473794937
-17.474912643432617 9.781195640563965 -0.11274901777505875
-17.47490119934082 8.869915962219238 -0.11033477634191513
-17.474891662597656 8.428404808044434 -0.10923156142234802
-17.474882125854492 7.570483684539795 -0.1072206124663353
-17.474872589111328 7.152909278869629 -0.10631011426448822
-17.474872589111328 6.742229461669922 -0.10545104742050171
-17.47486686706543 6.3379106521606445 -0.10465773940086365
-20.423309326171875 6.941671371459961 -0.1214471384882927
-21.870086669921875 6.941652297973633 -0.12918426096439362
-23.514554977416992 6.9416327476501465 -0.13804030418395996
-17.397645950317383 14.444572448730469 -0.6367172002792358
-17.03956413269043 12.477152824401855 -0.5946729779243469
-17.286039352416992 12.126574516296387 -0.5945650935173035
-17.474994659423828 11.737353324890137 -0.5927468538284302
-17.47498893737793 11.22958755493164 -0.5848962068557739
-17.4749755859375 10.2523775100708 -0.5704911947250366
-17.474966049194336 9.78122329711914 -0.5638948082923889
-21.8701114654541 6.941652297973633 -0.6460925340652466
-23.514535903930664 6.941631317138672 -0.6903669834136963
-17.397708892822266 14.444621086120605 -1.1467745304107666
-17.039623260498047 12.47719955444336 -1.0710526704788208
-17.286039352416992 12.126574516296387 -1.0708527565002441
-17.475053787231445 11.73738956451416 -1.0675848722457886
-17.47504425048828 11.229616165161133 -1.053439974784851
-17.47502899169922 10.252408981323242 -1.0274940729141235
-17.475004196166992 8.869972229003906 -0.9938572645187378
-17.475000381469727 8.428455352783203 -0.9839271306991577
-17.474994659423828 7.995512008666992 -0.9745892286300659
-17.474979400634766 7.152950763702393 -0.9575976133346558
-20.42329978942871 6.9416704177856445 -1.0939453840255737
-23.514564514160156 6.941629886627197 -1.243398904800415
-17.03968620300293 13.01653003692627 -1.5722116231918335
-17.47509765625 10.73495864868164 -1.5037612915039062
-17.475082397460938 10.25244140625 -1.485551118850708
-17.475072860717773 9.781288146972656 -1.468371033668518
-17.475067138671875 9.320704460144043 -1.4521743059158325
-17.47505760192871 8.870002746582031 -1.4369184970855713
-17.475048065185547 7.9955339431762695 -1.4090548753738403
-17.47502326965332 6.742284297943115 -1.3733670711517334
-20.423309326171875 6.94166898727417 -1.5816149711608887
-21.87007713317871 6.941649436950684 -1.682401418685913
-23.514551162719727 6.941628932952881 -1.797696590423584
-17.397830963134766 14.44473648071289 -2.1709327697753906
-17.475170135498047 11.737465858459473 -2.0210089683532715
-17.47515106201172 10.734980583190918 -1.9689702987670898
-17.475141525268555 10.252472877502441 -1.9451208114624023
-17.475122451782227 9.320734977722168 -1.9014196395874023
-17.47511100769043 8.870024681091309 -1.8814457654953003
-17.475078582763672 6.7422990798950195 -1.7982319593429565
-17.475067138671875 6.337991237640381 -1.784629464149475
-21.870067596435547 6.941649436950684 -2.2028582096099854
-22.444740295410156 6.6257524490356445 -2.2467150688171387
-14.558916091918945 12.087690353393555 -2.2477681636810303
-14.800922393798828 11.78955078125 -2.24772572517395
-15.036835670471191 11.486559867858887 -2.2476842403411865
-15.266532897949219 11.178854942321777 -2.247642993927002
-15.489946365356445 10.8665771484375 -2.2476022243499756
-16.121673583984375 9.903550148010254 -2.2475006580352783
-16.5098876953125 9.241044044494629 -2.2474517822265625
-16.870887756347656 8.56335163116455 -2.247406482696533
-17.04104995727539 8.219141960144043 -2.247385025024414
-17.20418930053711 7.871603012084961 -2.2473645210266113
-17.360219955444336 7.520808696746826 -2.247344970703125
-17.475126266479492 6.742321014404297 -2.224942922592163
-17.916006088256836 6.088675022125244 -2.247474431991577
-18.062231063842773 5.7330241203308105 -2.2510221004486084
-12.800312042236328 9.372981071472168 -2.247910499572754
-13.169775009155273 8.845698356628418 -2.247864246368408
-13.346484184265137 8.576552391052246 -2.247842311859131
-13.51761245727539 8.303877830505371 -2.2478208541870117
-13.843168258666992 7.748407363891602 -2.2477798461914062
-13.997441291809082 7.465846538543701 -2.247760534286499
-14.145952224731445 7.180206775665283 -2.24774169921875
-14.425399780273438 6.600200653076172 -2.247706413269043
-14.703505516052246 6.0185136795043945 -2.2510995864868164
-14.822187423706055 5.718750476837158 -2.251037120819092
-15.047612190246582 5.114526748657227 -2.2518739700317383
-15.144540786743164 4.806933879852295 -2.2513158321380615
-15.235175132751465 4.497513294219971 -2.2507550716400146
-10.499760627746582 8.717533111572266 -2.248194456100464
-10.6743745803833 8.502599716186523 -2.2481725215911865
-10.84463882446289 8.28415298461914 -2.2481513023376465
-11.010419845581055 8.062320709228516 -2.2481305599212646
-11.17162036895752 7.837165832519531 -2.248110294342041
-11.328275680541992 7.608799457550049 -2.2480907440185547
-11.480224609375 7.377289295196533 -2.2480716705322266
-11.627446174621582 7.142754554748535 -2.2480533123016357
-12.185248374938965 6.1849236488342285 -2.251147747039795
-12.307817459106445 5.936247825622559 -2.251095771789551
-12.437329292297363 5.6905741691589355 -2.2531936168670654
-12.547646522521973 5.435901165008545 -2.25272798538208
-12.652738571166992 5.179080009460449 -2.2522592544555664
-12.752573013305664 4.920238494873047 -2.2517874240875244
-13.019994735717773 4.132603645324707 -2.2503561973571777
-13.098388671875 3.866713285446167 -2.2498741149902344
-9.356293678283691 7.452681064605713 -2.2483344078063965
-9.505537033081055 7.261220932006836 -2.2483155727386475
-9.929482460021973 6.669275283813477 -2.248262405395508
-10.062700271606445 6.466368675231934 -2.2482478618621826
-10.205117225646973 6.2689995765686035 -2.251175880432129
-10.330018997192383 6.06050443649292 -2.2511322498321533
-10.577690124511719 5.641831398010254 -2.25331711769104
-10.688115119934082 5.425075054168701 -2.2529189586639404
-10.89553165435791 4.985136985778809 -2.252112865447998
-10.992445945739746 4.762153625488281 -2.2517051696777344
-11.08480453491211 4.537289142608643 -2.2512946128845215
-11.172558784484863 4.310627460479736 -2.2508814334869385
-11.255629539489746 4.082276344299316 -2.2504658699035645
-11.33407211303711 3.8523199558258057 -2.2500479221343994
-8.184111595153809 6.794877052307129 -2.248478412628174
-8.840571403503418 5.93790340423584 -2.251115322113037
-9.083353996276855 5.579891681671143 -2.253375768661499
-9.299433708190918 5.205141067504883 -2.2526843547821045
-9.401659965515137 5.014578342437744 -2.252333879470825
-9.684760093688965 4.431157112121582 -2.2512640953063965
-9.771093368530273 4.233041286468506 -2.250901699066162
-10.075551986694336 3.4245781898498535 -2.249429225921631
-10.2028169631958 3.011929750442505 -2.248680591583252
-7.736782073974609 5.66522741317749 -2.2536795139312744
-8.452895164489746 4.508525848388672 -2.2515408992767334
-8.707826614379883 3.984171152114868 -2.2505791187286377
-8.785595893859863 3.806102752685547 -2.250253438949585
-8.93017578125 3.445476531982422 -2.2495956420898438
-9.059950828552246 3.079380989074707 -2.248929738998413
-9.174696922302246 2.7084715366363525 -2.2482986450195312
-6.915175437927246 5.2824625968933105 -2.253091335296631
-7.020112037658691 5.140453338623047 -2.2528269290924072
-7.221181392669678 4.850213050842285 -2.2522878646850586
-7.670566082000732 4.0912580490112305 -2.2508866786956787
-7.75100564956665 3.9342596530914307 -2.250598430633545
-7.902211666107178 3.6155760288238525 -2.250014543533325
-7.972900390625 3.454026937484741 -2.2497191429138184
-8.10433578491211 3.1268486976623535 -2.249122142791748
-8.165023803710938 2.961353063583374 -2.2488210201263428
-8.22232437133789 2.7946836948394775 -2.2485177516937256
-6.223935604095459 4.957605361938477 -2.252591609954834
-6.602553367614746 4.434706211090088 -2.2516183853149414
-6.857827186584473 4.023411750793457 -2.2508580684661865
-6.937255859375 3.882974863052368 -2.2505991458892822
-7.158144474029541 3.452479124069214 -2.2498083114624023
-7.225869178771973 3.306124687194824 -2.249540328979492
-7.290590763092041 3.1584362983703613 -2.24927020072937
-7.410937309265137 2.859318733215332 -2.2487244606018066
-7.466708660125732 2.7080841064453125 -2.248504877090454
-7.568461894989014 2.5722949504852295 -2.2628302574157715
-8.133681297302246 2.4011120796203613 -2.4008240699768066
-5.991967678070068 4.2035040855407715 -2.2512762546539307
-6.075400352478027 4.080634117126465 -2.2510480880737305
-6.156322956085205 3.956108808517456 -2.2508175373077393
-6.234692096710205 3.8299713134765625 -2.250584125518799
-6.310458660125732 3.702279567718506 -2.2503485679626465
-6.454115867614746 3.4424431324005127 -2.2498700618743896
-6.521933555603027 3.3104100227355957 -2.2496275901794434
-6.765913009643555 2.7694573402404785 -2.2486374378204346
-7.070590496063232 2.5643956661224365 -2.3133633136749268
-7.39077615737915 2.5119969844818115 -2.400913953781128
-7.486430644989014 2.2100353240966797 -2.400902032852173
-5.767856121063232 3.543196439743042 -2.250126838684082
-5.905722618103027 3.3055975437164307 -2.2496886253356934
-6.033783912658691 3.062634229660034 -2.249241828918457
-6.151845455169678 2.8147172927856445 -2.2487874031066895
-6.207334041595459 2.6891467571258545 -2.248656988143921
-6.628422737121582 2.557405948638916 -2.36163067817688
-6.884570121765137 2.1851837635040283 -2.400974750518799
-6.927460670471191 2.0450286865234375 -2.4009692668914795
-5.001484394073486 3.8206071853637695 -2.250706911087036
-5.077538967132568 3.718017578125 -2.2505156993865967
-5.151508808135986 3.613903760910034 -2.250322103500366
-5.292973518371582 3.401310443878174 -2.2499279975891113
-5.360419750213623 3.292910575866699 -2.249727487564087
-5.425649166107178 3.1831719875335693 -2.2495248317718506
-5.488627910614014 3.072136878967285 -2.2493202686309814
-5.549330711364746 2.959857225418091 -2.2491137981414795
-5.607724666595459 2.8463757038116455 -2.2489051818847656
-5.718153953552246 2.61627197265625 -2.248716115951538
-5.931621074676514 2.569722890853882 -2.3117074966430664
-6.357031345367432 2.1606829166412354 -2.401038408279419
-6.439428329467773 1.900956392288208 -2.4010281562805176
-4.938437461853027 3.1734819412231445 -2.2495627403259277
-5.347285270690918 2.579080820083618 -2.275078773498535
-5.798662185668945 2.3735411167144775 -2.401106119155884
-6.009194374084473 1.773948311805725 -2.4010798931121826
-4.300243854522705 3.425327777862549 -2.2500827312469482
-4.368549823760986 3.3371152877807617 -2.249918222427368
-4.435039043426514 3.247542142868042 -2.249751329421997
-4.499687194824219 3.156639337539673 -2.249582290649414
-4.623354434967041 2.9710099697113037 -2.2492380142211914
-4.739355564117432 2.780529737472534 -2.2488861083984375
-4.794682502746582 2.6837170124053955 -2.2488276958465576
-4.860820293426514 2.592623233795166 -2.254702091217041
-5.284360408782959 2.5487189292907715 -2.4011683464050293
-5.554711818695068 1.8879907131195068 -2.401134967803955
-5.591860294342041 1.774882197380066 -2.401130199432373
-3.971918821334839 3.297725200653076 -2.2498929500579834
-4.037744045257568 3.216231107711792 -2.2497406005859375
-4.164340496063232 3.0493249893188477 -2.249429225921631
-4.225063323974609 2.9639854431152344 -2.2492706775665283
-4.341225624084473 2.78971004486084 -2.2489473819732666
-4.396796703338623 2.700958251953125 -2.248875617980957
-4.450742244720459 2.6111724376678467 -2.2488691806793213
-4.605307579040527 2.5777201652526855 -2.300086736679077
-4.962607383728027 2.3935375213623047 -2.4012069702148438
-5.010165691375732 2.292339324951172 -2.401201009750366
-5.055605411529541 2.190197706222534 -2.401195526123047
-5.099038124084473 2.087150812149048 -2.4011902809143066
-5.216523170471191 1.77303946018219 -2.4011757373809814
-5.284140586853027 1.5599071979522705 -2.401167154312134
-3.8011083602905273 3.0277416706085205 -2.249431848526001
-3.9774999618530273 2.7903130054473877 -2.2489895820617676
-4.033173561096191 2.7089433670043945 -2.248919725418091
-4.672524452209473 2.253601551055908 -2.4012417793273926
-4.760043621063232 2.0621514320373535 -2.401231288909912
-4.800893306732178 1.9651293754577637 -2.401226043701172
-4.839775085449219 1.8673040866851807 -2.40122127532959
-4.876665115356445 1.76870596408844 -2.401216745376587
-4.9752197265625 1.4687139987945557 -2.4012045860290527
-3.5279932022094727 2.9291508197784424 -2.2492873668670654
-3.643496036529541 2.783250093460083 -2.2490146160125732
-4.169165134429932 2.5611162185668945 -2.4001214504241943
-4.222338676452637 2.477201461791992 -2.401296377182007
-4.271733283996582 2.391005754470825 -2.4012904167175293
-4.319360256195068 2.3038244247436523 -2.401284694671631
-4.530463695526123 1.8544305562973022 -2.401258707046509
-4.665869235992432 1.480965495109558 -2.4012417793273926
-4.694951057434082 1.3859795331954956 -2.401238203048706
-3.335439443588257 2.769287586212158 -2.2490248680114746
-3.819086790084839 2.5651469230651855 -2.3866896629333496
-3.9440672397613525 2.4228429794311523 -2.40132999420166
-3.9924120903015137 2.342303514480591 -2.4013240337371826
-4.039106369018555 2.2608020305633545 -2.4013185501098633
-4.084174633026123 2.178367853164673 -2.401312828063965
-4.127480506896973 2.0950403213500977 -2.4013075828552246
-4.209091663360596 1.9258288145065308 -2.4012975692749023
-4.247294902801514 1.840016484260559 -2.4012928009033203
-4.318422794342041 1.6661590337753296 -2.4012839794158936
-4.38247537612915 1.4895575046539307 -2.401276111602783
-4.439301490783691 1.3105071783065796 -2.40126895904541
-3.1592772006988525 2.6230437755584717 -2.2490251064300537
-3.249384641647339 2.5882866382598877 -2.2753026485443115
-3.506591796875 2.56768798828125 -2.380413055419922
-3.589301586151123 2.51798152923584 -2.4013729095458984
-3.639643430709839 2.4446234703063965 -2.401366710662842
-3.688486337661743 2.3702592849731445 -2.4013609886169434
-3.7358202934265137 2.2949163913726807 -2.401355028152466
-3.781620979309082 2.218630313873291 -2.4013495445251465
-3.8258495330810547 2.141429901123047 -2.401344060897827
-3.8685057163238525 2.0633513927459717 -2.401338815689087
-3.9095702171325684 1.9844231605529785 -2.401333808898926
-3.9490232467651367 1.9046752452850342 -2.4013288021087646
-3.9868650436401367 1.824146032333374 -2.4013242721557617
-4.121635437011719 1.4948564767837524 -2.4013075828552246
-4.151083946228027 1.4109137058258057 -2.401304006576538
-4.17886209487915 1.3263849020004272 -2.4013004302978516
-3.1058545112609863 2.5786688327789307 -2.330655813217163
-3.305312395095825 2.524911403656006 -2.401407241821289
-3.405024290084839 2.3887059688568115 -2.401395082473755
-3.4991307258605957 2.2485687732696533 -2.401383638381958
-3.6698925495147705 1.957417607307434 -2.401362657546997
-3.708852529525757 1.8825414180755615 -2.401357889175415
-3.782177686691284 1.7304943799972534 -2.401348829269409
-3.8492627143859863 1.5755987167358398 -2.4013404846191406
-3.8804931640625 1.4971636533737183 -2.401336669921875
-3.937978506088257 1.338476538658142 -2.401329517364502
-3.989028215408325 1.1775835752487183 -2.4013233184814453
