ply
format ascii 1.0
element vertex 828
property float x
property float y
property float z
end_header
16.68631935119629 -18.82445526123047 -2.4150424003601074
17.794387817382812 -17.794078826904297 -2.4159486293792725
18.149845123291016 -17.435882568359375 -2.4162395000457764
18.49768829345703 -17.07050895690918 -2.4165239334106445
19.49704933166504 -15.933115005493164 -2.417341470718384
19.814945220947266 -15.54073715209961 -2.4176018238067627
20.124380111694336 -15.141947746276855 -2.4178555011749268
20.425987243652344 -14.736984252929688 -2.418102741241455
21.54908561706543 -13.05825424194336 -2.419022560119629
21.808475494384766 -12.624738693237305 -2.4192347526550293
-11.845070838928223 -14.70286750793457 -2.2427597045898438
-10.879423141479492 -15.303224563598633 -2.2303617000579834
-9.950095176696777 -15.945953369140625 -2.2326653003692627
-9.188627243041992 -15.4049072265625 -2.1306838989257812
-8.980109214782715 -16.527273178100586 -2.2342898845672607
-7.290366172790527 -17.365249633789062 -2.2371604442596436
-6.1034770011901855 -15.395846366882324 -1.9672783613204956
-6.5918145179748535 -17.652708053588867 -2.238320827484131
-5.16203498840332 -18.1435489654541 -2.2407302856445312
-3.391916513442993 -15.381911277770996 -1.8710428476333618
-3.696108341217041 -18.519535064697266 -2.2432453632354736
-3.325049877166748 -18.595245361328125 -2.2438886165618896
-2.578444719314575 -18.72446632385254 -2.2451913356781006
-2.2031946182250977 -18.777881622314453 -2.2458503246307373
-1.8268346786499023 -18.823843002319336 -2.246513843536377
-0.31336790323257446 -18.932369232177734 -2.249208688735962
0.06627075374126434 -18.940603256225586 -2.2498910427093506
1.9644603729248047 -18.86780548095703 -2.2533442974090576
2.3430442810058594 -18.83042335510254 -2.2540411949157715
2.7209203243255615 -18.785499572753906 -2.254739284515381
3.4739415645599365 -18.67290496826172 -2.256138563156128
3.1794981956481934 -15.369881629943848 -1.8643795251846313
4.589799880981445 -18.429115295410156 -2.255988359451294
4.154389381408691 -15.36080265045166 -1.8902045488357544
6.408448219299316 -17.869915008544922 -2.255064010620117
6.765191555023193 -17.737279891967773 -2.254991292953491
7.977464199066162 -18.63545036315918 -2.407928943634033
8.350508689880371 -18.474096298217773 -2.408233880996704
8.72028636932373 -18.305278778076172 -2.408536195755005
10.514857292175293 -17.351247787475586 -2.4100029468536377
10.861917495727539 -17.138978958129883 -2.4102869033813477
11.204415321350098 -16.919755935668945 -2.410566806793213
11.54285717010498 -16.693632125854492 -2.4108433723449707
11.87637996673584 -16.46074104309082 -2.411116123199463
12.848809242248535 -15.72225284576416 -2.4119114875793457
13.471572875976562 -15.197760581970215 -2.412421941757202
13.77495002746582 -14.92617130279541 -2.412670612335205
14.072840690612793 -14.648493766784668 -2.4129152297973633
14.365091323852539 -14.36485481262207 -2.4131553173065186
14.65161418914795 -14.07535171508789 -2.4133901596069336
14.932271003723145 -13.78011703491211 -2.4136195182800293
15.20692253112793 -13.479228019714355 -2.413844108581543
15.737894058227539 -12.861105918884277 -2.414278268814087
15.99396800994873 -12.544111251831055 -2.414487600326538
16.48670768737793 -11.89486312866211 -2.414890766143799
16.952957153320312 -11.226174354553223 -2.4152722358703613
17.175899505615234 -10.884871482849121 -2.415454387664795
-10.625706672668457 -12.66100788116455 -2.3419666290283203
-10.206451416015625 -12.668915748596191 -2.3051114082336426
-8.644220352172852 -13.253948211669922 -2.2420504093170166
-8.37907600402832 -13.428266525268555 -2.2426674365997314
-8.110608100891113 -13.59759521484375 -2.2433338165283203
-6.71855354309082 -14.361268997192383 -2.246501922607422
-6.431002616882324 -14.496940612792969 -2.247100830078125
-5.244568347930908 -14.952621459960938 -2.245161294937134
-4.332252502441406 -15.226990699768066 -2.243121862411499
-4.027069091796875 -15.314431190490723 -2.243657350540161
-3.3919126987457275 -15.381911277770996 -2.2318077087402344
-3.101480722427368 -15.540114402770996 -2.2452919483184814
-2.7900097370147705 -15.603014945983887 -2.245845317840576
-2.477264404296875 -15.65970516204834 -2.2464025020599365
-2.163367986679077 -15.710145950317383 -2.2469635009765625
-1.8484362363815308 -15.754311561584473 -2.247528076171875
-1.5326184034347534 -15.792181968688965 -2.248095989227295
-1.216027855873108 -15.82375717163086 -2.248666524887085
-0.8987719416618347 -15.848963737487793 -2.249234437942505
-0.5810046195983887 -15.867781639099121 -2.2498016357421875
0.05558471381664276 -15.886374473571777 -2.2509446144104004
0.3741455078125 -15.886136054992676 -2.2515199184417725
0.6927319169044495 -15.879523277282715 -2.2520976066589355
1.0111974477767944 -15.866522789001465 -2.2526772022247314
1.329431176185608 -15.84716510772705 -2.25325870513916
1.647283911705017 -15.821415901184082 -2.2538414001464844
2.9124584197998047 -15.65484619140625 -2.2561845779418945
4.151054382324219 -15.34847640991211 -2.2528464794158936
5.3686203956604 -14.970355987548828 -2.2534117698669434
5.965700626373291 -14.746299743652344 -2.2538976669311523
6.260804176330566 -14.625297546386719 -2.2541379928588867
6.817615985870361 -15.082826614379883 -2.3452517986297607
8.51603889465332 -14.71038818359375 -2.408376455307007
8.809835433959961 -14.538138389587402 -2.4086177349090576
9.100628852844238 -14.360025405883789 -2.4088563919067383
9.387979507446289 -14.176095962524414 -2.409092426300049
9.670916557312012 -13.986381530761719 -2.4093239307403564
10.225733757019043 -13.59001350402832 -2.4097771644592285
10.764275550842285 -13.171598434448242 -2.41021728515625
11.027156829833984 -12.954296112060547 -2.4104323387145996
11.28563117980957 -12.73173999786377 -2.4106433391571045
11.788944244384766 -12.271194458007812 -2.411054849624634
12.27338981628418 -11.790658950805664 -2.4114508628845215
12.508292198181152 -11.543171882629395 -2.4116430282592773
12.738194465637207 -11.290976524353027 -2.4118309020996094
12.962982177734375 -11.034172058105469 -2.4120147228240967
13.605765342712402 -10.237228393554688 -2.4125404357910156
13.809229850769043 -9.96310806274414 -2.4127068519592285
14.19938850402832 -9.402774810791016 -2.4130260944366455
14.385948181152344 -9.116802215576172 -2.4131786823272705
-9.11685562133789 -11.31643009185791 -2.393989086151123
-8.888853073120117 -11.497831344604492 -2.3941752910614014
-8.183612823486328 -12.01423454284668 -2.3947505950927734
-7.941648006439209 -12.176884651184082 -2.3949480056762695
-7.696664333343506 -12.334672927856445 -2.3951480388641357
-7.448498249053955 -12.487555503845215 -2.395350694656372
-6.55866813659668 -12.669966697692871 -2.3503198623657227
-5.32711124420166 -12.688568115234375 -2.2670445442199707
-5.034797668457031 -12.700139045715332 -2.2506215572357178
-4.767575740814209 -12.76735782623291 -2.2451400756835938
-4.252749919891357 -12.950725555419922 -2.245577812194824
-3.4679503440856934 -13.188197135925293 -2.246471405029297
-2.401959180831909 -13.433014869689941 -2.2480435371398926
-1.59091055393219 -13.559405326843262 -2.249088764190674
-1.0463659763336182 -13.616108894348145 -2.2497198581695557
0.04780395328998566 -13.662834167480469 -2.250819444656372
0.32173216342926025 -13.66059684753418 -2.2510595321655273
0.8692565560340881 -13.639365196228027 -2.251497507095337
1.415566325187683 -13.595869064331055 -2.251878499984741
2.5008325576782227 -13.44227409362793 -2.2524664402008057
3.0363965034484863 -13.325572967529297 -2.251513957977295
3.5688328742980957 -13.195700645446777 -2.2519490718841553
4.095717906951904 -13.04452133178711 -2.2523796558380127
4.368772983551025 -12.996586799621582 -2.2587761878967285
4.706687927246094 -13.124567985534668 -2.2969565391540527
5.0784592628479 -13.314936637878418 -2.347625255584717
5.477048397064209 -13.538408279418945 -2.4059059619903564
5.747889041900635 -13.427120208740234 -2.4061269760131836
6.01646089553833 -13.310404777526855 -2.4063456058502197
6.546365737915039 -13.060843467712402 -2.406775712966919
6.807496070861816 -12.928132057189941 -2.4069888591766357
7.065938472747803 -12.79018783569336 -2.4071998596191406
7.321551322937012 -12.647043228149414 -2.4074089527130127
8.31397533416748 -12.023926734924316 -2.408219575881958
9.023970603942871 -11.50510025024414 -2.408799409866333
9.919573783874512 -10.748583793640137 -2.409531354904175
10.343958854675293 -10.343782424926758 -2.4098782539367676
10.549993515014648 -10.13504695892334 -2.4100465774536133
10.751785278320312 -9.92219066619873 -2.4102118015289307
10.949041366577148 -9.70551586151123 -2.4103729724884033
11.14228630065918 -9.48453140258789 -2.4105310440063477
11.331043243408203 -9.25971508026123 -2.4106853008270264
11.51505184173584 -9.031315803527832 -2.4108357429504395
11.69450569152832 -8.799200057983398 -2.410982370376587
11.869260787963867 -8.563494682312012 -2.4111251831054688
12.039263725280762 -8.324285507202148 -2.411264419555664
12.519917488098145 -7.586784362792969 -2.4116575717926025
12.67014217376709 -7.3346381187438965 -2.411780595779419
-7.793592929840088 -10.08110237121582 -2.395071268081665
-7.590442180633545 -10.236023902893066 -2.3952369689941406
-7.384243488311768 -10.386868476867676 -2.3954052925109863
-7.1750335693359375 -10.533562660217285 -2.395576000213623
-6.962925910949707 -10.676056861877441 -2.395749092102051
-6.747990131378174 -10.81429672241211 -2.3959245681762695
-6.5303239822387695 -10.948217391967773 -2.3961021900177
-6.309996128082275 -11.077765464782715 -2.396282196044922
-6.087099552154541 -11.202882766723633 -2.3964641094207764
-5.861732482910156 -11.323532104492188 -2.3966479301452637
-5.403936862945557 -11.551217079162598 -2.397021770477295
-5.171688079833984 -11.658151626586914 -2.3972113132476807
-4.937321662902832 -11.760419845581055 -2.39740252494812
-4.700926303863525 -11.85800552368164 -2.3975956439971924
-4.2225022315979 -12.038881301879883 -2.3979861736297607
-3.7370128631591797 -12.200478553771973 -2.3983824253082275
-3.4919164180755615 -12.273978233337402 -2.398582696914673
-3.245554208755493 -12.342552185058594 -2.3987839221954346
-2.9977476596832275 -12.406184196472168 -2.3989861011505127
-2.498431444168091 -12.518507957458496 -2.3993937969207764
-2.247154474258423 -12.567153930664062 -2.399599075317383
-1.9949376583099365 -12.610767364501953 -2.3998050689697266
-0.9741674661636353 -12.677077293395996 -2.3898165225982666
-0.7189685106277466 -12.678287506103516 -2.386848211288452
-0.20987547934055328 -12.680182456970215 -2.3837034702301025
0.044371336698532104 -12.68087387084961 -2.3835220336914062
0.29866698384284973 -12.681392669677734 -2.384265184402466
0.8082409501075745 -12.681916236877441 -2.3885397911071777
1.3204541206359863 -12.681755065917969 -2.3965582847595215
1.8325659036636353 -12.652192115783691 -2.4029314517974854
2.0860180854797363 -12.613993644714355 -2.4031386375427246
2.3386802673339844 -12.570714950561523 -2.4033448696136475
2.5904479026794434 -12.522383689880371 -2.403550624847412
2.8412158489227295 -12.468994140625 -2.4037554264068604
3.8322558403015137 -12.20541763305664 -2.4045653343200684
4.076517105102539 -12.127148628234863 -2.4047648906707764
4.799289226531982 -11.8630952835083 -2.405355453491211
5.505024433135986 -11.55592155456543 -2.4059317111968994
6.191141128540039 -11.206731796264648 -2.406489610671997
6.636407375335693 -10.951159477233887 -2.406851291656494
6.855130672454834 -10.816717147827148 -2.407029867172241
7.284287929534912 -10.534761428833008 -2.4073805809020996
7.701827049255371 -10.235739707946777 -2.407721757888794
8.107059478759766 -9.920123100280762 -2.408052921295166
8.499356269836426 -9.588438034057617 -2.4083735942840576
8.690435409545898 -9.416730880737305 -2.40852952003479
9.062088012695312 -9.061930656433105 -2.4088335037231445
9.242496490478516 -8.878973007202148 -2.4089808464050293
9.419207572937012 -8.692427635192871 -2.409125328063965
9.76121711730957 -8.308809280395508 -2.409404754638672
9.926392555236816 -8.111908912658691 -2.4095399379730225
10.087576866149902 -7.911712646484375 -2.4096717834472656
10.691136360168457 -7.079623222351074 -2.410165309906006
11.098912239074707 -6.425064563751221 -2.410498857498169
-7.110139846801758 -8.825531005859375 -2.3956308364868164
-6.93216609954834 -8.966833114624023 -2.3957762718200684
-6.751430988311768 -9.104570388793945 -2.395923614501953
-6.381824970245361 -9.369070053100586 -2.3962252140045166
-5.808254718780518 -9.737648963928223 -2.396693468093872
-5.612236976623535 -9.852788925170898 -2.39685320854187
-5.413949489593506 -9.963994026184082 -2.39701509475708
-4.599607944488525 -10.368558883666992 -2.3976798057556152
-4.180863380432129 -10.546117782592773 -2.398021697998047
-3.968886613845825 -10.628576278686523 -2.3981947898864746
-2.8863537311553955 -10.976457595825195 -2.399078607559204
-2.4443883895874023 -11.085000991821289 -2.399439573287964
-2.221834659576416 -11.132624626159668 -2.3996214866638184
-1.998358130455017 -11.175779342651367 -2.399803876876831
-1.774044156074524 -11.214447975158691 -2.399986982345581
-0.8702208995819092 -11.324009895324707 -2.4007251262664795
-0.6430810689926147 -11.340055465698242 -2.4009106159210205
-0.4156420826911926 -11.351545333862305 -2.4010963439941406
-0.18800048530101776 -11.358478546142578 -2.40128231048584
0.039750974625349045 -11.360844612121582 -2.401468515396118
0.9500292539596558 -11.32464599609375 -2.402211904525757
1.1769628524780273 -11.304203987121582 -2.402397394180298
1.4034582376480103 -11.279203414916992 -2.4025824069976807
1.629421353340149 -11.249662399291992 -2.4027669429779053
1.8547643423080444 -11.215603828430176 -2.402951240539551
2.079396963119507 -11.177011489868164 -2.40313458442688
2.5261621475219727 -11.086353302001953 -2.4034996032714844
2.7481188774108887 -11.034308433532715 -2.4036810398101807
2.968998908996582 -10.977824211120605 -2.4038615226745605
3.188720703125 -10.916919708251953 -2.404041051864624
3.4071874618530273 -10.851601600646973 -2.404219388961792
4.054207801818848 -10.629505157470703 -2.4047484397888184
4.686834812164307 -10.368810653686523 -2.4052653312683105
4.894100189208984 -10.273481369018555 -2.4054346084594727
5.099429607391357 -10.174023628234863 -2.40560245513916
5.702950477600098 -9.851115226745605 -2.406094551086426
6.286021709442139 -9.492350578308105 -2.4065682888031006
6.846549034118652 -9.099066734313965 -2.40702486038208
7.382457256317139 -8.672636032104492 -2.4074625968933105
7.555284023284912 -8.523393630981445 -2.4076037406921387
7.891788005828857 -8.214609146118164 -2.407878875732422
9.106167793273926 -6.8516435623168945 -2.408871650695801
9.374361038208008 -6.481692314147949 -2.409090995788574
9.502840042114258 -6.292736530303955 -2.409196138381958
9.627484321594238 -6.10121488571167 -2.4092979431152344
9.86512279510498 -5.710836887359619 -2.4094924926757812
-6.553930282592773 -7.809377193450928 -2.3960864543914795
-6.396390914916992 -7.939619541168213 -2.3962149620056152
-6.073645114898682 -8.190550804138184 -2.3964781761169434
-5.741106033325195 -8.428400993347168 -2.396749496459961
-2.33404541015625 -3.578726053237915 -1.0041574239730835
-2.186734676361084 -3.5044474601745605 -0.9708179831504822
-2.0778417587280273 -3.4835433959960938 -0.9532928466796875
-2.019793748855591 -3.5459306240081787 -0.9590898156166077
-1.9603686332702637 -3.6079232692718506 -0.9650303721427917
-4.13755464553833 -9.32696533203125 -2.3980584144592285
-3.949974298477173 -9.40863037109375 -2.398211717605591
-3.5701048374176025 -9.560647964477539 -2.398521661758423
-3.1843957901000977 -9.697355270385742 -2.398836612701416
-2.7934727668762207 -9.818521499633789 -2.399155855178833
-2.5962462425231934 -9.873209953308105 -2.3993167877197266
-2.3979527950286865 -9.923942565917969 -2.3994786739349365
-1.9984753131866455 -10.013458251953125 -2.3998048305511475
-1.5956774950027466 -10.086902618408203 -2.4001338481903076
-0.7827050685882568 -10.185126304626465 -2.4007978439331055
-0.5783984065055847 -10.199481964111328 -2.4009647369384766
-0.16909056901931763 -10.215886116027832 -2.401298999786377
0.6500268578529358 -10.199450492858887 -2.401968240737915
0.8544323444366455 -10.185076713562012 -2.402135133743286
1.0585192441940308 -10.166604042053223 -2.402301788330078
1.2622106075286865 -10.144044876098633 -2.402468204498291
1.6680700778961182 -10.086684226989746 -2.4027998447418213
1.8700755834579468 -10.051900863647461 -2.4029648303985596
2.2718346118927 -9.970218658447266 -2.4032931327819824
2.4714269638061523 -9.923340797424316 -2.403456211090088
2.6700525283813477 -9.87247371673584 -2.403618335723877
2.8676257133483887 -9.817617416381836 -2.4037797451019287
3.0640709400177 -9.758810043334961 -2.403940439224243
3.259312629699707 -9.696062088012695 -2.404099941253662
3.645853281021118 -9.558903694152832 -2.4044158458709717
4.585638523101807 -9.148940086364746 -2.405184030532837
4.768426418304443 -9.055728912353516 -2.4053332805633545
4.949321269989014 -8.958858489990234 -2.4054811000823975
5.128241062164307 -8.858382225036621 -2.4056272506713867
5.305115699768066 -8.754338264465332 -2.4057717323303223
5.652455806732178 -8.535552024841309 -2.406054973602295
5.822771072387695 -8.421051979064941 -2.406193494796753
5.990761756896973 -8.30307674407959 -2.406330108642578
6.319490909576416 -8.057073593139648 -2.4065966606140137
6.480096340179443 -7.92930269241333 -2.406726837158203
6.793475151062012 -7.663967132568359 -2.406982898712158
6.94611930847168 -7.526627540588379 -2.4071075916290283
7.242984294891357 -7.242862224578857 -2.4073503017425537
7.387090682983398 -7.096545219421387 -2.40746808052063
7.528231143951416 -6.947366237640381 -2.407583475112915
7.666356086730957 -6.795361042022705 -2.40769624710083
8.06205940246582 -6.323088645935059 -2.40802001953125
8.187549591064453 -6.16045618057251 -2.4081225395202637
8.309744834899902 -5.995328903198242 -2.4082224369049072
8.544082641601562 -5.657850742340088 -2.408414125442505
8.764676094055176 -5.311192512512207 -2.4085943698883057
8.869708061218262 -5.134596347808838 -2.4086804389953613
-2.249298095703125 -2.9094924926757812 -0.9521876573562622
-2.0240745544433594 -2.971513509750366 -0.9309086203575134
-1.9626647233963013 -3.00929856300354 -0.9302302598953247
-1.9017443656921387 -3.0477256774902344 -0.9301342368125916
-1.840035319328308 -3.0848584175109863 -0.930019199848175
-1.7776000499725342 -3.1207382678985596 -0.9299036860466003
-1.7144896984100342 -3.1554012298583984 -0.9298014640808105
-1.6506688594818115 -3.1887199878692627 -0.9296795725822449
-1.5920641422271729 -3.2326459884643555 -0.9329911470413208
-1.3896251916885376 -3.505290985107422 -0.9762994050979614
-2.713902473449707 -8.860010147094727 -2.399221658706665
-2.535891056060791 -8.913183212280273 -2.399367094039917
-2.1768150329589844 -9.008769035339355 -2.399660348892212
-1.9959081411361694 -9.051161766052246 -2.399808168411255
-1.814156413078308 -9.08991527557373 -2.399956464767456
-1.4484912157058716 -9.156469345092773 -2.400254964828491
-1.26470947265625 -9.184245109558105 -2.400405168533325
-1.0804028511047363 -9.208330154418945 -2.4005556106567383
-0.8956372141838074 -9.228719711303711 -2.4007065296173096
-0.7104846239089966 -9.245406150817871 -2.40085768699646
-0.33933714032173157 -9.267622947692871 -2.401160955429077
0.03245361149311066 -9.274950981140137 -2.4014647006988525
0.21839721500873566 -9.273019790649414 -2.4016165733337402
0.40428099036216736 -9.267367362976074 -2.401768445968628
0.9608019590377808 -9.228049278259277 -2.4022231101989746
1.5140514373779297 -9.155333518981934 -2.402674913406372
1.8800805807113647 -9.088409423828125 -2.4029741287231445
2.062028646469116 -9.049450874328613 -2.403122663497925
2.423438549041748 -8.960623741149902 -2.4034180641174316
2.958216428756714 -8.80034065246582 -2.4038548469543457
3.134237051010132 -8.739789009094238 -2.403998851776123
3.3090124130249023 -8.675721168518066 -2.404141664505005
3.9943151473999023 -8.384675025939941 -2.4047017097473145
4.49186372756958 -8.130833625793457 -2.4051084518432617
4.654221057891846 -8.039544105529785 -2.4052412509918213
4.814723968505859 -7.945089340209961 -2.405372142791748
5.284441947937012 -7.642526626586914 -2.4057559967041016
5.436877250671387 -7.535438060760498 -2.4058804512023926
5.587132453918457 -7.425279140472412 -2.406002998352051
5.880881309509277 -7.196030616760254 -2.4062418937683105
6.024257659912109 -7.077085971832275 -2.406358480453491
6.16521692276001 -6.955199241638184 -2.40647292137146
6.303711891174316 -6.830364227294922 -2.406585216522217
6.573055267333984 -6.572948455810547 -2.406804084777832
6.957183837890625 -6.166757583618164 -2.407118082046509
7.079705715179443 -6.026293754577637 -2.4072182178497314
7.19938850402832 -5.883383750915527 -2.407315969467163
7.316182613372803 -5.738099098205566 -2.407411575317383
7.43003511428833 -5.590491771697998 -2.4075045585632324
7.540902137756348 -5.440623760223389 -2.40759539604187
7.753494739532471 -5.134330749511719 -2.407769203186035
7.855140209197998 -4.978030204772949 -2.4078524112701416
8.048907279968262 -4.659448623657227 -2.408010721206665
-2.0343616008758545 -2.6314697265625 -0.9416093230247498
-1.9739904403686523 -2.6620051860809326 -0.9381832480430603
-1.9134289026260376 -2.6914782524108887 -0.9348611235618591
-1.853729248046875 -2.721431255340576 -0.9321674704551697
-1.6825366020202637 -2.8208084106445312 -0.9298171997070312
-1.6243053674697876 -2.851619005203247 -0.9290496706962585
-1.5749621391296387 -2.898611307144165 -0.9338831901550293
-1.5256420373916626 -2.947193145751953 -0.9394906163215637
-1.320217251777649 -3.1446821689605713 -0.9655089974403381
-1.2661852836608887 -3.193913459777832 -0.9726336598396301
-1.1542540788650513 -3.2909252643585205 -0.9872797727584839
-1.0981848239898682 -3.344273090362549 -0.9964785575866699
-1.047237515449524 -3.4188859462738037 -1.0122501850128174
-0.9619079232215881 -3.6580145359039307 -1.0707632303237915
-1.8255615234375 -8.278703689575195 -2.3999481201171875
-1.6592919826507568 -8.314106941223145 -2.4000837802886963
-1.1567492485046387 -8.40025520324707 -2.40049409866333
-0.8191857933998108 -8.440844535827637 -2.4007699489593506
-0.6498205661773682 -8.456055641174316 -2.4009082317352295
0.02967529185116291 -8.482893943786621 -2.401463270187378
0.3697521984577179 -8.47586727142334 -2.4017410278320312
0.5396337509155273 -8.467243194580078 -2.4018797874450684
0.7093065977096558 -8.455212593078613 -2.4020183086395264
1.3847033977508545 -8.373135566711426 -2.4025702476501465
1.5523607730865479 -8.344168663024902 -2.402707099914551
2.0514843463897705 -8.237165451049805 -2.4031147956848145
2.2163305282592773 -8.194841384887695 -2.403249502182007
3.1847667694091797 -7.872251033782959 -2.404041051864624
3.498155355453491 -7.739080429077148 -2.404297113418579
4.107738971710205 -7.435483932495117 -2.4047954082489014
4.2561936378479 -7.352075576782227 -2.404916763305664
4.547946453094482 -7.176214218139648 -2.4051551818847656
4.691125392913818 -7.083878517150879 -2.4052722454071045
4.832430362701416 -6.988828182220459 -2.4053878784179688
4.971802711486816 -6.890877723693848 -2.4055018424987793
5.109184265136719 -6.790111064910889 -2.405613899230957
5.244521141052246 -6.686622619628906 -2.40572452545166
5.377762317657471 -6.580427646636963 -2.4058332443237305
5.764351844787598 -6.246067523956299 -2.4061484336853027
5.888654708862305 -6.129489421844482 -2.406249523162842
6.010607719421387 -6.010542869567871 -2.406348466873169
6.361778259277344 -5.638821125030518 -2.4066336154937744
6.47379732131958 -5.510444164276123 -2.406724452972412
6.689986228942871 -5.246970176696777 -2.4069011211395264
6.794075965881348 -5.11198616027832 -2.4069859981536865
6.89542818069458 -4.974928379058838 -2.407068967819214
7.089778900146484 -4.694818496704102 -2.4072279930114746
7.182701110839844 -4.551889419555664 -2.407303810119629
7.35984468460083 -4.2605462074279785 -2.4074487686157227
-2.0154943466186523 -2.4015774726867676 -0.9643359184265137
-1.904122233390808 -2.463003158569336 -0.9575556516647339
-1.8480870723724365 -2.4922196865081787 -0.9543157815933228
-1.79183828830719 -2.52044677734375 -0.9511755108833313
-1.6218969821929932 -2.599243640899658 -0.9423458576202393
-1.5712352991104126 -2.634211301803589 -0.9434114098548889
-1.4252771139144897 -2.753309488296509 -0.9535986185073853
-1.3289343118667603 -2.8406689167022705 -0.9646134972572327
-1.1763170957565308 -2.967228412628174 -0.981756865978241
-1.1235864162445068 -3.0089335441589355 -0.9879032969474792
-1.0705089569091797 -3.052151918411255 -0.9948444962501526
-1.3736425638198853 -7.682073593139648 -2.400317668914795
-1.219427466392517 -7.708473205566406 -2.4004437923431396
-1.064700961112976 -7.731779098510742 -2.4005701541900635
-0.9095312356948853 -7.751978397369385 -2.4006967544555664
-0.7539782524108887 -7.769063472747803 -2.4008238315582275
-0.5981078743934631 -7.783034324645996 -2.4009511470794678
-0.4419811964035034 -7.793871879577637 -2.401078701019287
-0.28565916419029236 -7.801583290100098 -2.4012062549591064
0.34031492471694946 -7.801052570343018 -2.4017176628112793
0.49666503071784973 -7.793076992034912 -2.4018454551696777
1.4287267923355103 -7.679592132568359 -2.402606964111328
2.0397703647613525 -7.542019367218018 -2.403106212615967
2.1906700134277344 -7.499997615814209 -2.4032294750213623
2.340705633163452 -7.454954624176025 -2.4033520221710205
2.7850122451782227 -7.301876544952393 -2.403715133666992
2.930981397628784 -7.244938850402832 -2.403834342956543
3.2193713188171387 -7.122320175170898 -2.4040701389312744
3.502634286880493 -6.988212585449219 -2.404301643371582
4.051960468292236 -6.686404228210449 -2.4047505855560303
4.185383319854736 -6.604108810424805 -2.404859781265259
4.317130088806152 -6.5191826820373535 -2.4049675464630127
4.447154521942139 -6.431634426116943 -2.405073642730713
4.826337814331055 -6.153427600860596 -2.405383586883545
5.069552898406982 -5.955510139465332 -2.4055824279785156
5.188138484954834 -5.852944374084473 -2.40567946434021
5.304642200469971 -5.747936725616455 -2.4057745933532715
5.641207218170166 -5.4193291664123535 -2.4060490131378174
5.854335784912109 -5.189211368560791 -2.4062225818634033
5.957400798797607 -5.070774555206299 -2.406306505203247
6.252068996429443 -4.704172134399414 -2.406545877456665
6.34531831741333 -4.578035354614258 -2.4066214561462402
6.524129390716553 -4.320248126983643 -2.406766653060913
6.609622478485107 -4.1887054443359375 -2.40683650970459
-1.815364956855774 -2.348195791244507 -0.9866102337837219
-1.6312121152877808 -2.3947579860687256 -0.9631571769714355
-1.535974144935608 -2.4615437984466553 -0.964458167552948
-1.4885962009429932 -2.4956631660461426 -0.9659373164176941
-1.2961559295654297 -2.6318140029907227 -0.9751705527305603
-1.1979405879974365 -2.7004284858703613 -0.9819967150688171
-1.0053637027740479 -2.8664159774780273 -1.0097193717956543
-0.9611132740974426 -2.9268548488616943 -1.0240153074264526
-0.9147704839706421 -2.9864211082458496 -1.0382294654846191
-0.7751489281654358 -3.207951068878174 -1.097029447555542
-0.5100244283676147 -3.703758478164673 -1.2427678108215332
-0.8415966629981995 -7.173141956329346 -2.4007530212402344
-0.5534448027610779 -7.201835632324219 -2.4009883403778076
-0.4089721441268921 -7.211836338043213 -2.401106119155884
-0.11955443769693375 -7.223146915435791 -2.4013426303863525
0.025278320536017418 -7.224450588226318 -2.401460886001587
0.1701074242591858 -7.222847938537598 -2.4015791416168213
0.60406494140625 -7.200620651245117 -2.4019336700439453
0.7483349442481995 -7.187417030334473 -2.4020516872406006
1.0359569787979126 -7.152342319488525 -2.4022865295410156
1.464229702949524 -7.078165054321289 -2.4026365280151367
1.887325406074524 -6.978357791900635 -2.402982234954834
2.440751791000366 -6.8060173988342285 -2.4034342765808105
2.711867570877075 -6.703319549560547 -2.403656005859375
2.845839738845825 -6.647907733917236 -2.4037654399871826
2.978677988052368 -6.589826583862305 -2.403873920440674
3.110323429107666 -6.5290703773498535 -2.4039816856384277
3.4976305961608887 -6.331140995025635 -2.4042983055114746
3.6240074634552 -6.260035991668701 -2.4044015407562256
3.8723692893981934 -6.110208034515381 -2.40460467338562
3.994249105453491 -6.031601428985596 -2.4047043323516846
4.465316295623779 -5.69318962097168 -2.4050893783569336
4.690312385559082 -5.50999641418457 -2.405273199081421
4.800012111663818 -5.415068626403809 -2.405362844467163
5.013587474822998 -5.21868896484375 -2.4055376052856445
5.219124794006348 -5.013848304748535 -2.405705451965332
5.416281700134277 -4.8008856773376465 -2.4058663845062256
5.604742527008057 -4.58022928237915 -2.406020164489746
5.784199237823486 -4.352136611938477 -2.4061665534973145
5.954350471496582 -4.116977691650391 -2.4063048362731934
6.0358567237854 -3.996777296066284 -2.4063713550567627
6.114935398101807 -3.875214099884033 -2.406435489654541
6.191556453704834 -3.751941680908203 -2.4064977169036865
6.265686988830566 -3.627153158187866 -2.40655779838562
-1.9340612888336182 -2.3045434951782227 -1.075887680053711
-1.8605505228042603 -2.309436559677124 -1.0605418682098389
-1.71908438205719 -2.3182547092437744 -1.0320892333984375
-1.6513744592666626 -2.3228681087493896 -1.019196629524231
-1.5869042873382568 -2.329710006713867 -1.0080348253250122
-1.413149356842041 -2.3691749572753906 -0.9865025281906128
-1.3213342428207397 -2.4318230152130127 -0.9897187352180481
-1.2286864519119263 -2.4948179721832275 -0.9944944381713867
-1.1818554401397705 -2.5262835025787354 -0.9973907470703125
-1.1343945264816284 -2.557183265686035 -1.0004078149795532
-1.0402722358703613 -2.624056577682495 -1.009431004524231
-0.8689355254173279 -2.8367881774902344 -1.0609800815582275
-0.8230334520339966 -2.8928024768829346 -1.0755412578582764
-0.7751867771148682 -2.947939395904541 -1.0900428295135498
-0.5756298899650574 -3.2191948890686035 -1.1694660186767578
-0.5210680961608887 -3.293882369995117 -1.192563772201538
-0.46492430567741394 -3.376246213912964 -1.2187635898590088
-0.41026610136032104 -3.4967141151428223 -1.2590277194976807
-0.3519934117794037 -3.6269731521606445 -1.3031260967254639
-0.5144506692886353 -6.69439172744751 -2.4010205268859863
-0.3801586925983429 -6.7036662101745605 -2.401130199432373
-0.2456994503736496 -6.710245609283447 -2.401240110397339
0.15812255442142487 -6.713803768157959 -2.4015700817108154
0.5614880323410034 -6.693075180053711 -2.401899576187134
1.228768229484558 -6.6047821044921875 -2.40244460105896
1.3609936237335205 -6.5791168212890625 -2.402552843093872
1.4926806688308716 -6.550804138183594 -2.402660369873047
1.6237828731536865 -6.5198516845703125 -2.4027674198150635
1.7542431354522705 -6.486274242401123 -2.402873992919922
1.884005069732666 -6.450089454650879 -2.402980089187622
2.013021230697632 -6.411304950714111 -2.403085470199585
2.1412413120269775 -6.369938373565674 -2.4031901359558105
2.520591974258423 -6.2305145263671875 -2.4035003185272217
3.0121214389801025 -6.0095648765563965 -2.4039018154144287
3.132120370864868 -5.948219299316406 -2.4040000438690186
3.2508702278137207 -5.884469985961914 -2.404097080230713
3.368321418762207 -5.818343162536621 -2.404193162918091
3.4844250679016113 -5.7498779296875 -2.4042880535125732
3.7124083042144775 -5.605996131896973 -2.4044744968414307
3.9344518184661865 -5.453093528747559 -2.404655933380127
4.043129920959473 -5.3733134269714355 -2.404744863510132
4.150186538696289 -5.291378498077393 -2.404832363128662
4.255584716796875 -5.20728874206543 -2.4049184322357178
4.461225509643555 -5.032894134521484 -2.4050865173339844
4.56138277053833 -4.942592144012451 -2.4051685333251953
4.659705638885498 -4.850317001342773 -2.4052488803863525
4.75616455078125 -4.756104469299316 -2.405327796936035
4.850711345672607 -4.659925937652588 -2.405405282974243
4.943310260772705 -4.561882019042969 -2.4054808616638184
5.033927917480469 -4.462070941925049 -2.405555009841919
5.209064960479736 -4.2568769454956055 -2.405698299407959
5.375824928283691 -4.044867038726807 -2.405834197998047
5.455983638763428 -3.936434268951416 -2.4058997631073
5.754372596740723 -3.487016439437866 -2.4061431884765625
5.823256492614746 -3.3710339069366455 -2.4061992168426514
-1.8330456018447876 -2.275297164916992 -1.119694471359253
-1.7628430128097534 -2.2802581787109375 -1.1045193672180176
-1.6959021091461182 -2.286992073059082 -1.0910897254943848
-1.4418237209320068 -2.3106579780578613 -1.043732762336731
-1.3805919885635376 -2.314588785171509 -1.0327962636947632
-1.3205151557922363 -2.318281888961792 -1.0224236249923706
-1.166955590248108 -2.3694753646850586 -1.0121749639511108
-1.122314453125 -2.3990089893341064 -1.014973759651184
-1.0386474132537842 -2.473999261856079 -1.028243899345398
-0.9975341558456421 -2.5162510871887207 -1.0372823476791382
-0.9554370045661926 -2.5586321353912354 -1.0466455221176147
-0.8263818025588989 -2.6978609561920166 -1.0812832117080688
-0.7824499607086182 -2.7501535415649414 -1.095733642578125
-0.7370373606681824 -2.8028600215911865 -1.1106222867965698
-0.6896130442619324 -2.853961944580078 -1.125165581703186
-0.6407141089439392 -2.9055588245391846 -1.140212893486023
-0.538708508014679 -3.012712001800537 -1.1728378534317017
-0.487030029296875 -3.07871150970459 -1.1944890022277832
-0.4346032738685608 -3.1560580730438232 -1.2208716869354248
-0.3801635801792145 -3.240145206451416 -1.2501994371414185
-0.26316162943840027 -3.4244494438171387 -1.3161803483963013
-0.20095336437225342 -3.543598175048828 -1.3601528406143188
0.1475512683391571 -6.265089511871338 -2.401561737060547
0.2731372117996216 -6.261143207550049 -2.4016644954681396
0.3986193835735321 -6.254674434661865 -2.4017670154571533
0.6491283774375916 -6.234171390533447 -2.4019715785980225
0.773974597454071 -6.220194339752197 -2.402073621749878
0.8985534310340881 -6.203692436218262 -2.4021754264831543
1.1466162204742432 -6.163203716278076 -2.4023780822753906
1.2699962854385376 -6.1392364501953125 -2.4024789333343506
1.3928807973861694 -6.112796306610107 -2.4025793075561523
1.5152148008346558 -6.083895683288574 -2.402679204940796
1.6369372606277466 -6.052550315856934 -2.4027786254882812
1.7580199241638184 -6.018767356872559 -2.4028775691986084
1.8784056901931763 -5.98255729675293 -2.4029760360717773
2.1168909072875977 -5.902922630310059 -2.4031708240509033
2.468179941177368 -5.765692234039307 -2.4034578800201416
2.5833728313446045 -5.715273857116699 -2.4035520553588867
2.697535276412964 -5.662558078765869 -2.4036455154418945
2.922589063644409 -5.5503082275390625 -2.403829336166382
3.03338623046875 -5.4907965660095215 -2.4039199352264404
3.142972230911255 -5.429084300994873 -2.4040095806121826
3.2513012886047363 -5.365180969238281 -2.4040980339050293
3.3583312034606934 -5.299114227294922 -2.4041855335235596
3.4640111923217773 -5.230911731719971 -2.4042718410491943
3.5683116912841797 -5.16060733795166 -2.4043571949005127
3.671177864074707 -5.088203430175781 -2.4044413566589355
3.872462034225464 -4.937286376953125 -2.4046058654785156
3.970797061920166 -4.8587822914123535 -2.404686212539673
4.162653923034668 -4.696042537689209 -2.404843330383301
4.347829341888428 -4.525685787200928 -2.404994487762451
4.6124267578125 -4.25653600692749 -2.4052109718322754
4.779624938964844 -4.068446636199951 -2.4053478240966797
4.860362529754639 -3.971914291381836 -2.405413866043091
5.015942096710205 -3.774085283279419 -2.405540943145752
5.234118461608887 -3.466010570526123 -2.40571928024292
5.302676677703857 -3.360513925552368 -2.405775308609009
-1.8764379024505615 -2.2358834743499756 -1.1946481466293335
-1.6118786334991455 -2.267312526702881 -1.1385544538497925
-1.5493310689926147 -2.2745516300201416 -1.1263625621795654
-1.4865245819091797 -2.279247283935547 -1.1137038469314575
-1.424984097480774 -2.283672332763672 -1.1016830205917358
-1.3646337985992432 -2.287837505340576 -1.0902727842330933
-1.3054040670394897 -2.2917535305023193 -1.0794483423233032
-1.247225284576416 -2.2954297065734863 -1.0691851377487183
-1.190032958984375 -2.298875331878662 -1.0594618320465088
-1.1337743997573853 -2.302098035812378 -1.0502592325210571
-1.0794677734375 -2.307422399520874 -1.042603611946106
-0.9973241686820984 -2.375568389892578 -1.0544675588607788
-0.9575109481811523 -2.4152939319610596 -1.0633655786514282
-0.8750744462013245 -2.494946002960205 -1.0821058750152588
-0.7898424863815308 -2.5785744190216064 -1.1037458181381226
-0.7011962532997131 -2.666557788848877 -1.1284570693969727
-0.6093884110450745 -2.7635011672973633 -1.1582045555114746
-0.5112634301185608 -2.8592309951782227 -1.1887723207473755
-0.46028441190719604 -2.9096388816833496 -1.2056509256362915
-0.30140867829322815 -3.105741500854492 -1.2770743370056152
-0.18546508252620697 -3.2704906463623047 -1.340680480003357
0.012392577715218067 -3.54146409034729 -1.4494415521621704
0.08390502631664276 -3.5625970363616943 -1.4584863185882568
0.156280517578125 -3.58239483833313 -1.4675790071487427
0.2294580042362213 -3.6003856658935547 -1.4765375852584839
0.38050657510757446 -3.654597282409668 -1.5038201808929443
0.4597717225551605 -3.6950597763061523 -1.5239571332931519
1.1891076564788818 -5.748220920562744 -2.4024131298065186
1.3041564226150513 -5.723448276519775 -2.4025070667266846
1.4187170267105103 -5.696358680725098 -2.4026007652282715
1.5326647758483887 -5.66701078414917 -2.4026939868927
1.6460387706756592 -5.635356426239014 -2.4027864933013916
1.7587438821792603 -5.601444721221924 -2.402878761291504
2.092503547668457 -5.4862213134765625 -2.403151273727417
2.2021484375 -5.443370342254639 -2.403240919113159
2.3109166622161865 -5.398331165313721 -2.403329849243164
2.631523370742798 -5.2502288818359375 -2.4035918712615967
2.736346483230591 -5.196605205535889 -2.4036777019500732
3.0440893173217773 -5.023249626159668 -2.4039289951324463
3.144289493560791 -4.961382865905762 -2.4040110111236572
3.4371776580810547 -4.763882160186768 -2.404250383377075
3.5321033000946045 -4.694167137145996 -2.4043281078338623
3.717672109603882 -4.54909086227417 -2.40447998046875
3.808242082595825 -4.473783016204834 -2.4045538902282715
3.9847607612609863 -4.3177490234375 -2.404698371887207
4.070640563964844 -4.237155437469482 -2.404768466949463
4.474862098693848 -3.8090226650238037 -2.4050991535186768
4.55044412612915 -3.718648910522461 -2.405160903930664
4.624195575714111 -3.6267669200897217 -2.405221462249756
4.766091346740723 -3.4386494159698486 -2.4053375720977783
4.834183216094971 -3.342489242553711 -2.405393123626709
4.900330543518066 -3.244990110397339 -2.405447244644165
4.96450662612915 -3.146101713180542 -2.4054999351501465
5.026688098907471 -3.046110153198242 -2.405550718307495
5.086850643157959 -2.9446957111358643 -2.40559983253479
-1.8495763540267944 -2.2038748264312744 -1.253910779953003
-1.7832177877426147 -2.2134463787078857 -1.2387638092041016
-1.7182763814926147 -2.2226109504699707 -1.2243640422821045
-1.592315673828125 -2.2397942543029785 -1.197676181793213
-1.3487548828125 -2.261216640472412 -1.1474690437316895
-1.2903637886047363 -2.2653491497039795 -1.136207103729248
-1.2329894304275513 -2.2692315578460693 -1.1255279779434204
-0.9199145436286926 -2.320460796356201 -1.0878657102584839
-0.7988720536231995 -2.4327783584594727 -1.1159476041793823
-0.7145275473594666 -2.5114245414733887 -1.1379578113555908
-0.6259984970092773 -2.5906982421875 -1.1615633964538574
-0.5801928639411926 -2.631103754043579 -1.174227237701416
-0.38898801803588867 -2.8247997760772705 -1.2427126169204712
-0.22798705101013184 -2.9667553901672363 -1.2967742681503296
-0.05258544906973839 -3.177032470703125 -1.3847936391830444
0.07819823920726776 -3.320246458053589 -1.4474209547042847
0.35194456577301025 -3.3802764415740967 -1.4811450242996216
0.4249316453933716 -3.4150567054748535 -1.4998162984848022
0.4997961223125458 -3.450629234313965 -1.5195348262786865
0.5763940215110779 -3.4854114055633545 -1.539631962776184
1.224703311920166 -5.374741077423096 -2.402442693710327
1.3322570323944092 -5.349302768707275 -2.4025304317474365
1.439278483390808 -5.321714401245117 -2.402617931365967
1.5457335710525513 -5.291981220245361 -2.402704954147339
1.7567577362060547 -5.226139545440674 -2.4028773307800293
2.067941904067993 -5.111630916595459 -2.4031317234039307
2.170076847076416 -5.069321632385254 -2.403215169906616
2.371706485748291 -4.978599548339844 -2.4033799171447754
2.471127986907959 -4.930216312408447 -2.403461217880249
2.5695555210113525 -4.879847526550293 -2.4035415649414062
2.763292074203491 -4.773233890533447 -2.403700113296509
2.8585205078125 -4.717029571533203 -2.403777837753296
3.741777181625366 -4.054489612579346 -2.4045000076293945
3.822410821914673 -3.9787731170654297 -2.4045660495758057
4.129295349121094 -3.6601550579071045 -2.4048171043395996
4.342159271240234 -3.405566692352295 -2.4049911499023438
4.475390434265137 -3.228937864303589 -2.405100107192993
4.661685466766357 -2.9542455673217773 -2.405252695083618
4.77655029296875 -2.765104293823242 -2.405346632003784
-1.7606762647628784 -2.1854677200317383 -1.2990710735321045
-1.572847843170166 -2.2124099731445312 -1.2565099000930786
-1.3329381942749023 -2.2346980571746826 -1.2044445276260376
-1.2753796577453613 -2.239039897918701 -1.1927613019943237
-1.219118595123291 -2.243705987930298 -1.181986689567566
-1.0570690631866455 -2.2595419883728027 -1.1547033786773682
-0.8529821634292603 -2.2842636108398438 -1.1286647319793701
-0.7265478372573853 -2.3719422817230225 -1.1482887268066406
-0.6853368878364563 -2.408822536468506 -1.1592570543289185
-0.5999157428741455 -2.482752561569214 -1.1823025941848755
-0.41823485493659973 -2.6438260078430176 -1.2390055656433105
-0.37076902389526367 -2.692495584487915 -1.2580772638320923
-0.2709411680698395 -2.7917933464050293 -1.2983503341674805
-0.04894408956170082 -2.956965208053589 -1.3689221143722534
0.010485840030014515 -2.997004270553589 -1.3872764110565186
0.07222900539636612 -3.0667850971221924 -1.4199621677398682
0.13590575754642487 -3.115381956100464 -1.443434715270996
0.1994055062532425 -3.128847360610962 -1.4512341022491455
0.32902342081069946 -3.1601147651672363 -1.4706765413284302
0.395050048828125 -3.174915075302124 -1.480953335762024
0.6072582602500916 -3.2640860080718994 -1.5368212461471558
0.7667028903961182 -3.3647592067718506 -1.597418189048767
0.857391357421875 -3.4426181316375732 -1.6422131061553955
1.4552990198135376 -4.982368469238281 -2.4026315212249756
1.6539684534072876 -4.9203596115112305 -2.4027938842773438
1.7523375749588013 -4.886375427246094 -2.402873992919922
1.946938395500183 -4.8125224113464355 -2.4030332565307617
2.326509952545166 -4.641684055328369 -2.403343439102173
2.6015586853027344 -4.493862152099609 -2.4035682678222656
2.77978253364563 -4.386228561401367 -2.4037139415740967
2.867243528366089 -4.329746246337891 -2.403785467147827
2.953554630279541 -4.271520614624023 -2.403856039047241
3.205251455307007 -4.086610794067383 -2.404061794281006
3.366678476333618 -3.955050468444824 -2.404193878173828
3.598614454269409 -3.7459142208099365 -2.404383420944214
3.8175549507141113 -3.522996664047241 -2.404562473297119
3.88750958442688 -3.445838451385498 -2.4046196937561035
4.022706031799316 -3.2873339653015137 -2.4047303199768066
4.213309288024902 -3.0398056507110596 -2.404886245727539
4.331953048706055 -2.8686001300811768 -2.4049835205078125
4.388675212860107 -2.7812321186065674 -2.405029773712158
-1.7382409572601318 -2.1576199531555176 -1.3590956926345825
-1.6754297018051147 -2.1671884059906006 -1.3436918258666992
-1.6138585805892944 -2.1763532161712646 -1.329042673110962
-1.5534545183181763 -2.185131549835205 -1.3151171207427979
-1.433746337890625 -2.1983206272125244 -1.2874014377593994
-1.374916911125183 -2.2034332752227783 -1.2739933729171753
-1.3171985149383545 -2.208305835723877 -1.2612868547439575
-1.2609593868255615 -2.213728189468384 -1.2496907711029053
-1.151153564453125 -2.223766803741455 -1.2282980680465698
-1.09765625 -2.228759765625 -1.2186537981033325
-1.0458788871765137 -2.235625982284546 -1.2106972932815552
-0.9946813583374023 -2.242237091064453 -1.2032346725463867
-0.9440197348594666 -2.2486021518707275 -1.1962522268295288
-0.8938574194908142 -2.2547290325164795 -1.189737319946289
-0.8441552519798279 -2.260624885559082 -1.1836791038513184
-0.6981799006462097 -2.2793242931365967 -1.1693377494812012
-0.5754345655441284 -2.3814358711242676 -1.2017682790756226
-0.5335046052932739 -2.4193742275238037 -1.2152708768844604
-0.49049314856529236 -2.457642078399658 -1.229305624961853
-0.44633543491363525 -2.4961211681365967 -1.2438263893127441
-0.4009936451911926 -2.534841299057007 -1.2588611841201782
-0.3545202612876892 -2.57450795173645 -1.2747737169265747
-0.3067907691001892 -2.614797353744507 -1.2914174795150757
-0.25819823145866394 -2.660487651824951 -1.3111625909805298
-0.20800292491912842 -2.7066924571990967 -1.3316106796264648
-0.15614257752895355 -2.753412961959839 -1.3527837991714478
-0.046783447265625 -2.8264687061309814 -1.3866387605667114
0.010018310509622097 -2.863046169281006 -1.4043996334075928
0.187591552734375 -2.943469285964966 -1.4467697143554688
0.2479907125234604 -2.956132173538208 -1.4551451206207275
0.3706030249595642 -2.9784319400787354 -1.4722568988800049
0.49870726466178894 -3.015632152557373 -1.4993294477462769
0.5659155249595642 -3.0418641567230225 -1.5177080631256104
0.7072008848190308 -3.1036314964294434 -1.5614266395568848
0.7854748368263245 -3.153857707977295 -1.5942974090576172
1.467254638671875 -4.673182964324951 -2.402641534805298
1.6535460948944092 -4.610899925231934 -2.4027938842773438
1.745705485343933 -4.57696533203125 -2.4028689861297607
1.9278967380523682 -4.50358772277832 -2.403017997741699
2.107012987136841 -4.422954082489014 -2.4031643867492676
2.195324659347534 -4.379955768585205 -2.4032363891601562
2.369281053543091 -4.288684844970703 -2.40337872505188
2.4548535346984863 -4.240445613861084 -2.4034488201141357
2.5394444465637207 -4.190501689910889 -2.403517961502075
2.705540657043457 -4.085563659667969 -2.403653621673584
2.786979913711548 -4.03061580657959 -2.4037201404571533
3.1012425422668457 -3.794804573059082 -2.403977155685425
3.176780939102173 -3.731964588165283 -2.404038906097412
3.251042366027832 -3.667618989944458 -2.404099702835083
3.324000120162964 -3.601794958114624 -2.4041593074798584
3.917210578918457 -2.9473800659179688 -2.40464448928833
3.975588321685791 -2.868318796157837 -2.4046924114227295
4.19290018081665 -2.540802478790283 -2.40487003326416
4.243068695068359 -2.456315040588379 -2.4049112796783447
-1.7800841331481934 -2.121073007583618 -1.4365278482437134
-1.416259765625 -2.171506881713867 -1.3449532985687256
-1.3585973978042603 -2.1772782802581787 -1.3313872814178467
-1.3021960258483887 -2.1831586360931396 -1.3187512159347534
-1.246730923652649 -2.1887478828430176 -1.3067635297775269
-1.1921435594558716 -2.1940579414367676 -1.295401692390442
-0.9340331554412842 -2.2248144149780273 -1.2517768144607544
-0.8353173732757568 -2.2369585037231445 -1.2387579679489136
-0.5949548482894897 -2.26253604888916 -1.2136601209640503
-0.5539587140083313 -2.2925548553466797 -1.2235584259033203
-0.5134045481681824 -2.3282196521759033 -1.236849308013916
-0.4718078374862671 -2.3640167713165283 -1.2505894899368286
-0.4291394054889679 -2.399949312210083 -1.2647920846939087
-0.38536131381988525 -2.436023473739624 -1.2794736623764038
-0.34043821692466736 -2.4722390174865723 -1.294649600982666
-0.24713744223117828 -2.546523094177246 -1.3272901773452759
-0.044764403253793716 -2.7044501304626465 -1.4032045602798462
0.009580077603459358 -2.737933874130249 -1.420392394065857
0.12154906988143921 -2.786287546157837 -1.4468430280685425
0.17810790240764618 -2.794656276702881 -1.4527511596679688
0.23506590723991394 -2.802053451538086 -1.4587534666061401
0.29270264506340027 -2.811278820037842 -1.4663174152374268
0.4101220667362213 -2.831517457962036 -1.4842618703842163
0.5968493223190308 -2.885200023651123 -1.5284730195999146
0.8034265041351318 -2.9706506729125977 -1.5964804887771606
0.9678723216056824 -3.0825886726379395 -1.6761573553085327
