ply
format ascii 1.0
element vertex 374
property float x
property float y
property float z
end_header
8.333441734313965 10.642667770385742 2.3834338188171387
9.10842227935791 12.126477241516113 2.6742167472839355
8.733051300048828 12.126477241516113 2.6349987983703613
8.740346908569336 13.226066589355469 2.7953381538391113
8.66005802154541 13.694833755493164 2.8570659160614014
8.660136222839355 16.492155075073242 3.2845568656921387
8.740488052368164 17.489849090576172 3.4475884437561035
8.740517616271973 18.405353546142578 3.592719078063965
8.740556716918945 19.401735305786133 3.7521800994873047
9.3128662109375 26.08376693725586 4.883628845214844
8.572011947631836 10.085122108459473 2.027665138244629
8.017255783081055 9.82573413848877 1.9427403211593628
8.307246208190918 10.60921573638916 2.0642380714416504
8.73305606842041 12.126474380493164 2.2893083095550537
8.740234375 12.66530990600586 2.3574116230010986
8.684008598327637 15.037548065185547 2.6602067947387695
8.74032211303711 15.862431526184082 2.77451229095459
8.740341186523438 16.644887924194336 2.880078077316284
8.740370750427246 17.489608764648438 2.9952549934387207
8.740400314331055 18.405088424682617 3.1213409900665283
8.685897827148438 19.280431747436523 3.239544630050659
8.705302238464355 20.408388137817383 3.3989977836608887
8.740492820739746 21.687856674194336 3.582127571105957
8.740531921386719 23.010509490966797 3.7708263397216797
8.724740982055664 24.436525344848633 3.974987745285034
7.922631740570068 9.709760665893555 1.631908655166626
9.495302200317383 12.126482009887695 2.0056228637695312
8.740156173706055 13.225761413574219 2.0643646717071533
8.740297317504883 19.401161193847656 2.7709789276123047
8.740346908569336 21.687511444091797 3.044889450073242
8.74038028717041 23.01012420654297 3.2052831649780273
8.724736213684082 24.436525344848633 3.37888240814209
8.804902076721191 9.9471435546875 1.4264891147613525
8.337773323059082 9.809541702270508 1.382455825805664
8.659730911254883 12.548651695251465 1.6372095346450806
8.66005802154541 13.694833755493164 1.7399314641952515
8.684013366699219 15.037548065185547 1.8646714687347412
8.740097045898438 15.862040519714355 1.9447462558746338
8.740151405334473 18.404579162597656 2.1878440380096436
8.686049461364746 20.3632755279541 2.37726092338562
8.724736213684082 24.4365234375 2.7862675189971924
9.108428001403809 12.126477241516113 1.2838646173477173
8.659643173217773 13.103944778442383 1.3296204805374146
8.659663200378418 14.99538803100586 1.4658679962158203
8.740038871765137 19.40059471130371 1.8012772798538208
8.705292701721191 20.408388137817383 1.8782310485839844
8.740068435668945 21.686813354492188 1.9793299436569214
8.740082740783691 23.00933837890625 2.083590269088745
8.7247314453125 24.4365234375 2.19651198387146
9.894545555114746 12.126482009887695 0.9705241322517395
9.108428001403809 12.126474380493164 0.940461277961731
8.659560203552246 14.323012351989746 1.0378859043121338
8.659560203552246 14.995211601257324 1.0737736225128174
8.65956974029541 15.71588134765625 1.1126978397369385
8.65956974029541 16.491086959838867 1.155030369758606
8.65958023071289 17.32795524597168 1.2012168169021606
8.659584999084473 18.234926223754883 1.251781702041626
8.659589767456055 19.222030639648438 1.3073362112045288
8.659613609313965 21.4871768951416 1.4365626573562622
8.659628868103027 24.254179000854492 1.5969969034194946
10.733993530273438 12.12648868560791 0.638575553894043
9.10842227935791 12.126474380493164 0.5980189442634583
8.733051300048828 12.126474380493164 0.5892506241798401
8.65945816040039 12.548256874084473 0.60117107629776
8.65945816040039 13.103654861450195 0.6193202137947083
8.65945816040039 14.322846412658691 0.6599607467651367
8.659462928771973 15.715681076049805 0.7075309753417969
8.659462928771973 17.32771110534668 0.7638212442398071
8.659472465515137 22.79711151123047 0.9615803360939026
8.659477233886719 24.253742218017578 1.0154792070388794
10.733993530273438 12.12648868560791 0.2735578715801239
9.495302200317383 12.126477241516113 0.26016464829444885
9.108428001403809 12.126474380493164 0.2561863660812378
8.733051300048828 12.126471519470215 0.25242844223976135
8.659364700317383 12.54811954498291 0.2575312852859497
8.6593599319458 13.693730354309082 0.27368056774139404
8.6593599319458 14.322677612304688 0.28271621465682983
8.659355163574219 15.715487480163574 0.30309462547302246
8.659350395202637 16.49066162109375 0.31462934613227844
8.659340858459473 19.221466064453125 0.3561140298843384
8.65932559967041 22.796728134155273 0.41192275285720825
10.733983993530273 12.12648868560791 -0.09117797762155533
10.30709457397461 12.126483917236328 -0.08960616588592529
9.894540786743164 12.126482009887695 -0.08811736851930618
9.495292663574219 12.126477241516113 -0.08671386539936066
8.659272193908691 12.547995567321777 -0.08583663403987885
8.65926742553711 13.103376388549805 -0.08842834085226059
9.327528953552246 16.92813491821289 -0.10881850868463516
9.327509880065918 18.664508819580078 -0.1174757331609726
9.327505111694336 19.641393661499023 -0.12241744995117188
9.327485084533691 21.86701774597168 -0.13384628295898438
9.16359806060791 24.124298095703125 -0.14529220759868622
10.307099342346191 12.126483917236328 -0.4481341540813446
9.894545555114746 12.126482009887695 -0.44069716334342957
8.733051300048828 12.126471519470215 -0.4207841455936432
8.659184455871582 12.547858238220215 -0.4292852580547333
8.659174919128418 13.103229522705078 -0.44224151968955994
9.327441215515137 14.750222206115723 -0.49141067266464233
9.327431678771973 15.427675247192383 -0.5076339840888977
9.32742691040039 16.151700973510742 -0.5251873731613159
9.327397346496582 17.762876510620117 -0.564927339553833
9.327387809753418 18.664247512817383 -0.5875149369239807
9.327372550964355 19.64110565185547 -0.6122453212738037
9.327323913574219 23.14396095275879 -0.7026150226593018
9.163603782653809 24.124298095703125 -0.7266432046890259
8.659013748168945 24.25244903564453 -0.7251179218292236
10.733988761901855 12.126486778259277 -0.8213038444519043
9.894545555114746 12.126482009887695 -0.7937292456626892
9.495302200317383 12.126477241516113 -0.7810845971107483
8.733051300048828 12.126471519470215 -0.757859468460083
9.327333450317383 14.750056266784668 -0.885051429271698
9.327323913574219 15.427504539489746 -0.9142736792564392
9.32729434967041 16.92770767211914 -0.980170726776123
9.327280044555664 17.762643814086914 -1.0174607038497925
9.327260971069336 18.66399383544922 -1.05814528465271
9.327245712280273 19.640838623046875 -1.1026819944381714
9.327221870422363 20.703996658325195 -1.1516168117523193
9.327197074890137 21.866344451904297 -1.205604910850525
9.32717227935791 23.14359474182129 -1.2654404640197754
9.163603782653809 24.124296188354492 -1.3087350130081177
10.733993530273438 12.126486778259277 -1.187434434890747
9.894545555114746 12.126479148864746 -1.14756441116333
9.495302200317383 12.126477241516113 -1.1292846202850342
9.108428001403809 12.126474380493164 -1.1120213270187378
8.733051300048828 12.126471519470215 -1.095715045928955
8.658998489379883 12.547595024108887 -1.1178209781646729
8.658984184265137 13.102949142456055 -1.1515660285949707
9.327231407165527 14.749889373779297 -1.2795861959457397
9.327201843261719 16.151315689086914 -1.3675357103347778
9.32718276977539 16.927501678466797 -1.4171029329299927
9.3270845413208 20.703683853149414 -1.6649709939956665
9.327055931091309 21.866003036499023 -1.7430311441421509
9.327021598815918 23.14322853088379 -1.829534888267517
9.163603782653809 24.124296188354492 -1.8921552896499634
10.733988761901855 12.126486778259277 -1.5547763109207153
10.30709457397461 12.126482009887695 -1.5279209613800049
9.894540786743164 12.126479148864746 -1.502570629119873
9.10842227935791 12.126471519470215 -1.4560314416885376
8.733046531677246 12.126471519470215 -1.4346773624420166
9.327123641967773 14.74972152709961 -1.6754146814346313
9.327035903930664 17.762189865112305 -1.926064133644104
9.327011108398438 18.663480758666992 -2.0030744075775146
9.326982498168945 19.64029312133789 -2.0873801708221436
9.205805778503418 21.58175277709961 -2.2525722980499268
8.770151138305664 21.761442184448242 -2.252488851547241
7.887543678283691 22.091699600219727 -2.252039909362793
9.894540786743164 12.126479148864746 -1.859117031097412
8.658818244934082 12.547330856323242 -1.8108940124511719
9.326977729797363 16.15093421936035 -2.2154321670532227
9.149741172790527 16.605478286743164 -2.252113103866577
8.814140319824219 16.785425186157227 -2.252048969268799
8.474980354309082 16.958574295043945 -2.2519850730895996
7.786635398864746 17.284282684326172 -2.251857042312622
7.437607288360596 17.436466217041016 -2.2517635822296143
7.08523416519165 17.580673217773438 -2.251551628112793
6.372251033782959 17.847625732421875 -2.2511229515075684
10.535468101501465 11.902209281921387 -2.2521841526031494
9.894545555114746 12.126479148864746 -2.217576742172241
9.4952974319458 12.126474380493164 -2.1822526454925537
8.65872573852539 12.547194480895996 -2.1600310802459717
8.658700942993164 13.102517127990723 -2.2252399921417236
8.493603706359863 13.43160343170166 -2.251695394515991
8.221914291381836 13.599143028259277 -2.2516396045684814
7.946918964385986 13.761183738708496 -2.251584053039551
7.387490272521973 14.068556785583496 -2.2514748573303223
6.526088714599609 14.486215591430664 -2.251211404800415
6.233339786529541 14.613224983215332 -2.251035451889038
5.938332557678223 14.73486042022705 -2.2509419918060303
5.341411113739014 14.960397720336914 -2.250783920288086
9.059711456298828 10.235007286071777 -2.25177264213562
8.852099418640137 10.414650917053223 -2.2517170906066895
8.208222389221191 10.92800235748291 -2.2515451908111572
7.986875057220459 11.090353965759277 -2.25148606300354
7.762319087982178 11.248236656188965 -2.2514259815216064
7.534633636474609 11.401562690734863 -2.2513654232025146
7.303920745849609 11.550268173217773 -2.2513036727905273
7.070273399353027 11.694320678710938 -2.2512412071228027
6.833779335021973 11.833620071411133 -2.251178026199341
6.594541072845459 11.968156814575195 -2.2511167526245117
6.352675437927246 12.097892761230469 -2.25105881690979
5.86132287979126 12.342487335205078 -2.2509191036224365
5.612082481384277 12.457358360290527 -2.2508530616760254
4.593642711639404 12.866037368774414 -2.2505836486816406
7.93936014175415 8.969316482543945 -2.2514710426330566
7.572412014007568 9.280537605285645 -2.251373052597046
7.384321212768555 9.430540084838867 -2.2513229846954346
6.999311447143555 9.7190523147583 -2.2512199878692627
6.60302734375 9.991840362548828 -2.2511141300201416
5.779253005981445 10.48852252960205 -2.2508952617645264
5.136740684509277 10.816701889038086 -2.250725269317627
4.697948932647705 11.01370620727539 -2.2506091594696045
4.251613616943359 11.192899703979492 -2.250491142272949
7.059008598327637 7.974757671356201 -2.2512340545654297
6.732768535614014 8.25150203704834 -2.2511470317840576
6.395702838897705 8.514899253845215 -2.2510571479797363
6.2232666015625 8.641456604003906 -2.2510108947753906
5.324960708618164 9.220891952514648 -2.2507736682891846
4.950124263763428 9.426892280578613 -2.2506744861602783
4.567331314086914 9.617657661437988 -2.25057315826416
4.373141765594482 9.70722484588623 -2.2505218982696533
4.177199840545654 9.792876243591309 -2.250469923019409
3.9795727729797363 9.874566078186035 -2.250417709350586
3.7803611755371094 9.952272415161133 -2.2503650188446045
5.904609203338623 7.5407915115356445 -2.250925302505493
5.75186014175415 7.657723903656006 -2.250885009765625
5.439479827880859 7.882256507873535 -2.250802516937256
5.118344783782959 8.094043731689453 -2.2507176399230957
4.788964748382568 8.292746543884277 -2.2506303787231445
4.621352672576904 8.387092590332031 -2.2505862712860107
4.451879978179932 8.478056907653809 -2.2505414485931396
4.280622482299805 8.565584182739258 -2.2504959106445312
4.1076340675354 8.649652481079102 -2.2504501342773438
3.932997941970825 8.730231285095215 -2.250404119491577
3.5790672302246094 8.880769729614258 -2.2503104209899902
5.630077838897705 6.6238837242126465 -2.250851631164551
5.359340667724609 6.844431400299072 -2.2507801055908203
5.079975605010986 7.0539140701293945 -2.250706195831299
4.645724773406982 7.346658229827881 -2.250591516494751
4.194645881652832 7.612684726715088 -2.2504723072052
4.040834903717041 7.695258140563965 -2.250431537628174
3.728383779525757 7.851047992706299 -2.2503488063812256
3.569877862930298 7.92419958114624 -2.2503068447113037
3.2486302852630615 8.060866355895996 -2.2502222061157227
3.0860228538513184 8.124334335327148 -2.2501790523529053
5.269706726074219 5.953329563140869 -2.2507553100585938
5.148996353149414 6.057882785797119 -2.2507236003875732
5.026206016540527 6.1599860191345215 -2.2506909370422363
4.901408672332764 6.25960111618042 -2.2506580352783203
4.7746262550354 6.356687545776367 -2.250624656677246
4.645917892456055 6.451198101043701 -2.2505905628204346
4.515346527099609 6.5431084632873535 -2.250556230545044
4.112924575805664 6.802831172943115 -2.2504498958587646
3.975407600402832 6.883953094482422 -2.250413417816162
3.695607900619507 7.037821292877197 -2.2503395080566406
3.5534520149230957 7.110508441925049 -2.2503018379211426
3.4098706245422363 7.180325031280518 -2.2502636909484863
2.9811694622039795 7.397204875946045 -2.2577626705169678
2.9590673446655273 7.790099143981934 -2.359062433242798
2.853625535964966 7.99252462387085 -2.402517318725586
4.738864421844482 5.575359344482422 -2.2506141662597656
4.625869274139404 5.669340133666992 -2.250584602355957
4.511005878448486 5.76102352142334 -2.250554084777832
4.394328594207764 5.850382328033447 -2.250523328781128
4.275888442993164 5.937376976013184 -2.2504920959472656
3.910400390625 6.183832168579102 -2.2503955364227295
3.6587939262390137 6.335702419281006 -2.25032901763916
3.530754327774048 6.407811641693115 -2.2502951622009277
3.2704663276672363 6.544243812561035 -2.2502262592315674
3.138315439224243 6.608506202697754 -2.2501912117004395
3.0049023628234863 6.6700968742370605 -2.2501561641693115
2.962944269180298 6.946221351623535 -2.322756767272949
2.9197850227355957 7.244899272918701 -2.402534008026123
4.280190467834473 5.24568510055542 -2.2504923343658447
4.173920631408691 5.330530166625977 -2.2504642009735107
4.065964221954346 5.41321325302124 -2.2504358291625977
3.8451879024505615 5.571992874145508 -2.2503774166107178
3.7324461936950684 5.648020267486572 -2.25034761428833
3.502516984939575 5.793207168579102 -2.2502870559692383
3.273696184158325 5.941290855407715 -2.2548766136169434
3.14715313911438 5.993368625640869 -2.250192880630493
2.96764874458313 6.587405204772949 -2.401634931564331
2.8357810974121094 6.648100852966309 -2.4025111198425293
2.701647996902466 6.70361852645874 -2.402475595474243
4.075585842132568 4.794999122619629 -2.2504377365112305
3.9784131050109863 4.875835418701172 -2.2504119873046875
3.779296875 5.031558036804199 -2.250359535217285
3.677433967590332 5.106386184692383 -2.2503325939178467
3.57409405708313 5.179152011871338 -2.25030517578125
3.3631248474121094 5.3183794021606445 -2.2502493858337402
3.2771313190460205 5.420416831970215 -2.2651119232177734
3.213332414627075 5.5643181800842285 -2.297807216644287
3.154555559158325 5.725069999694824 -2.3375492095947266
3.095327138900757 5.8946661949157715 -2.3809263706207275
2.635876417160034 6.179452419281006 -2.4024577140808105
2.5112011432647705 6.2310614585876465 -2.4024248123168945
3.892224073410034 4.397157669067383 -2.2503888607025146
3.8090453147888184 4.481416702270508 -2.2538936138153076
3.731511116027832 4.573240280151367 -2.2619192600250244
3.6590819358825684 4.673024654388428 -2.27445650100708
3.4537084102630615 5.00470495223999 -2.3302431106567383
3.3878369331359863 5.1265435218811035 -2.354808807373047
3.320695638656616 5.251283645629883 -2.380984306335449
3.135317325592041 5.429228782653809 -2.4025893211364746
2.575021982192993 5.715864658355713 -2.4024410247802734
2.4596753120422363 5.766359329223633 -2.4024105072021484
2.2260496616363525 5.8603363037109375 -2.402348756790161
3.8580589294433594 4.35855770111084 -2.382305145263672
3.785634756088257 4.453865051269531 -2.3923492431640625
3.619326114654541 4.622251987457275 -2.402716636657715
3.5257225036621094 4.693963050842285 -2.4026918411254883
3.4307005405426025 4.763774871826172 -2.4026668071746826
3.334296703338623 4.831665515899658 -2.4026412963867188
3.2365477085113525 4.89760684967041 -2.402615547180176
3.037177562713623 5.023527145385742 -2.4025628566741943
2.9356396198272705 5.08345890045166 -2.402535915374756
2.518068790435791 5.302422523498535 -2.402425527572632
2.3030247688293457 5.399153232574463 -2.4023685455322266
2.084287166595459 5.487150192260742 -2.402310848236084
1.9736400842666626 5.52783727645874 -2.4022815227508545
3.6541552543640137 4.128199577331543 -2.4027252197265625
3.485346555709839 4.271547317504883 -2.4026808738708496
3.398820638656616 4.340645790100098 -2.402657985687256
3.13116192817688 4.5373101234436035 -2.4025871753692627
2.946357250213623 4.659306526184082 -2.402538299560547
2.7568016052246094 4.773778438568115 -2.4024882316589355
2.562800168991089 4.880535125732422 -2.4024369716644287
2.364672899246216 4.9794135093688965 -2.4023845195770264
2.26416015625 5.025848865509033 -2.402357816696167
2.1627440452575684 5.070250511169434 -2.4023311138153076
1.9573290348052979 5.152900695800781 -2.4022767543792725
1.853420376777649 5.1911139488220215 -2.402249336242676
3.4403929710388184 3.8867039680480957 -2.4026684761047363
3.3616015911102295 3.9549858570098877 -2.4026477336883545
3.200004816055298 4.086724758148193 -2.4026050567626953
3.0332348346710205 4.211864948272705 -2.4025609493255615
2.948002815246582 4.271894931793213 -2.402538299560547
2.861582040786743 4.330202102661133 -2.4025156497955322
2.7740087509155273 4.3867597579956055 -2.4024925231933594
2.685317277908325 4.44154691696167 -2.4024689197540283
2.5047216415405273 4.545718669891357 -2.402421236038208
2.412895441055298 4.595061779022217 -2.4023969173431396
2.3200950622558594 4.642548561096191 -2.4023725986480713
2.131728410720825 4.731882095336914 -2.40232253074646
2.036245107650757 4.7736921310424805 -2.4022974967956543
1.9399316310882568 4.813575744628906 -2.4022719860076904
3.172126293182373 3.7320635318756104 -2.402597665786743
3.096503734588623 3.7949912548065186 -2.4025776386260986
3.0196337699890137 3.8563854694366455 -2.402557373046875
2.941535472869873 3.9162211418151855 -2.402536630630493
2.781865119934082 4.031123161315918 -2.402494430541992
2.617670774459839 4.139517784118652 -2.4024510383605957
2.5339720249176025 4.191219329833984 -2.4024288654327393
2.3635594844818115 4.289524555206299 -2.402383804321289
2.276904344558716 4.336087703704834 -2.4023609161376953
2.189340829849243 4.380900859832764 -2.4023377895355225
2.100888729095459 4.423946380615234 -2.4023144245147705
2.011589288711548 4.465206146240234 -2.4022908210754395
1.9214794635772705 4.504661560058594 -2.4022669792175293
1.830603003501892 4.542299747467041 -2.40224289894104
1.7389941215515137 4.578103065490723 -2.402218818664551
2.92779278755188 3.5882251262664795 -2.4025328159332275
2.6302855014801025 3.811500072479248 -2.402454376220703
2.5531859397888184 3.863525867462158 -2.4024338722229004
2.4750585556030273 3.9139909744262695 -2.4024133682250977
2.3959105014801025 3.962878942489624 -2.4023923873901367
2.23480224609375 4.055830001831055 -2.4023497104644775
2.152883291244507 4.09985876083374 -2.4023280143737793
2.070078134536743 4.14223575592041 -2.402306079864502
1.9864355325698853 4.182939529418945 -2.4022839069366455
1.902004361152649 4.221951007843018 -2.40226149559021
1.8168065547943115 4.2592620849609375 -2.4022390842437744
1.6442601680755615 4.328705787658691 -2.402193307876587
2.9074316024780273 3.28460693359375 -2.402527093887329
2.8408520221710205 3.3423144817352295 -2.4025094509124756
2.704289436340332 3.45365834236145 -2.4024734497070312
2.6343579292297363 3.5072484016418457 -2.4024550914764404
2.4183154106140137 3.659440279006958 -2.402398109436035
2.269360303878784 3.753546714782715 -2.4023587703704834
2.037656307220459 3.883345365524292 -2.4022974967956543
1.9607274532318115 3.923436164855957 -2.4022772312164307
1.8015307188034058 3.9989471435546875 -2.4022350311279297
1.63946533203125 4.06799840927124 -2.4021921157836914
1.5573949813842773 4.100069046020508 -2.402170419692993
2.7580907344818115 3.1158909797668457 -2.4024875164031982
2.6949315071105957 3.1706371307373047 -2.402470827102661
2.630688428878784 3.2241015434265137 -2.402453899383545
2.5653882026672363 3.276263952255249 -2.4024367332458496
2.43170166015625 3.3765995502471924 -2.4024014472961426
2.2941014766693115 3.471480131149292 -2.40236496925354
2.2239012718200684 3.5168278217315674 -2.40234637260437
2.0080249309539795 3.64428448677063 -2.402289628982544
1.9344115257263184 3.6838512420654297 -2.4022700786590576
1.8600194454193115 3.721928596496582 -2.4022505283355713
1.3989940881729126 3.9183506965637207 -2.4021284580230713
