ply
format ascii 1.0
element vertex 230
property float x
property float y
property float z
end_header
3.24792218208313 -44.25364303588867 -2.2503278255462646
5.942975997924805 -44.02267074584961 -2.2528295516967773
6.838262557983398 -43.90919494628906 -2.2536656856536865
7.242873191833496 -41.01153564453125 -2.112056255340576
10.123820304870605 -46.266536712646484 -2.401888608932495
11.994153022766113 -45.81728744506836 -2.401888608932495
12.922006607055664 -45.56536102294922 -2.401888608932495
13.844679832458496 -45.2924690246582 -2.401888608932495
0.3782336413860321 -30.654708862304688 -2.247840166091919
1.000921607017517 -30.649372100830078 -2.2484753131866455
2.2458860874176025 -30.60068130493164 -2.2497427463531494
2.867635488510132 -30.557340621948242 -2.2503743171691895
3.4885435104370117 -30.501346588134766 -2.251004457473755
4.108359336853027 -30.432706832885742 -2.2516324520111084
5.343661785125732 -30.257564544677734 -2.2528817653656006
5.958642482757568 -30.1511173248291 -2.253502368927002
6.571487903594971 -30.032127380371094 -2.254120111465454
6.303166389465332 -26.24198341369629 -1.9788448810577393
7.777074813842773 -29.70819664001465 -2.2516705989837646
10.840004920959473 -30.91249656677246 -2.401888608932495
1.239711880683899 -23.389278411865234 -2.248640775680542
1.7147802114486694 -23.364253997802734 -2.249119281768799
2.1893529891967773 -23.32960319519043 -2.249600648880005
2.3942930698394775 -15.374015808105469 -1.4937750101089478
4.547862529754639 -23.01247787475586 -2.2520439624786377
5.480952262878418 -22.818859100341797 -2.2530345916748047
6.402852535247803 -22.576961517333984 -2.2529821395874023
7.309065818786621 -22.282379150390625 -2.2513678073883057
1.0025500059127808 -18.914857864379883 -2.2499728202819824
1.7703795433044434 -18.865060806274414 -2.2507495880126953
2.153477668762207 -18.82849884033203 -2.251141309738159
2.5358264446258545 -18.784170150756836 -2.251534938812256
2.3942930698394775 -15.374011039733887 -1.8482286930084229
3.297632932662964 -18.672283172607422 -2.2523274421691895
4.430779933929443 -18.44666862487793 -2.2535269260406494
4.805318355560303 -18.35616683959961 -2.2539291381835938
4.361121654510498 -15.37767505645752 -1.898688793182373
5.544870376586914 -18.139894485473633 -2.2531821727752686
5.0411057472229 -15.368288040161133 -1.9212383031845093
0.5184435844421387 -15.875285148620605 -2.250558376312256
0.8408373594284058 -15.86375904083252 -2.2508811950683594
2.3942930698394775 -15.374015808105469 -2.204575538635254
3.0830845832824707 -15.600597381591797 -2.253190755844116
3.715115785598755 -15.467151641845703 -2.2538626194000244
4.029044151306152 -15.390823364257812 -2.254199743270874
4.951254844665527 -15.094343185424805 -2.2508277893066406
5.253654479980469 -14.981864929199219 -2.2495038509368896
0.16858641803264618 -13.663947105407715 -2.251159429550171
0.7232775688171387 -13.645827293395996 -2.2511584758758545
1.000219702720642 -13.628192901611328 -2.251136541366577
1.2767431735992432 -13.604853630065918 -2.2511003017425537
1.552712321281433 -13.575812339782715 -2.251049518585205
2.648777961730957 -13.402993202209473 -2.2507033348083496
3.1904613971710205 -13.28286075592041 -2.2504451274871826
3.726661205291748 -13.140518188476562 -2.2501304149627686
3.9924230575561523 -13.061094284057617 -2.2499520778656006
-0.10104735940694809 -12.677563667297363 -2.3829617500305176
0.4140600562095642 -12.67856216430664 -2.3843441009521484
1.4500879049301147 -12.678444862365723 -2.398588180541992
2.7315564155578613 -12.483383178710938 -2.4019038677215576
3.2361950874328613 -12.36217212677002 -2.4019038677215576
3.4865660667419434 -12.293911933898926 -2.4019038677215576
3.735496759414673 -12.22057056427002 -2.4019038677215576
3.982884407043457 -12.142194747924805 -2.4019038677215576
4.228633880615234 -12.05881118774414 -2.4019038677215576
0.14018554985523224 -11.362106323242188 -2.4019038677215576
0.3708837926387787 -11.356916427612305 -2.4019038677215576
0.8317285180091858 -11.332489967346191 -2.4019038677215576
1.5201891660690308 -11.260825157165527 -2.4019038677215576
1.7485510110855103 -11.227631568908691 -2.4019038677215576
1.9761877059936523 -11.18980884552002 -2.4019038677215576
2.428922176361084 -11.100337028503418 -2.4019038677215576
2.877655029296875 -10.9925537109375 -2.4019038677215576
3.100285530090332 -10.93184757232666 -2.4019038677215576
3.321636915206909 -10.866640090942383 -2.4019038677215576
3.541616201400757 -10.79694652557373 -2.4019038677215576
0.7480578422546387 -10.192453384399414 -2.4019038677215576
1.5726488828659058 -10.098142623901367 -2.4019038677215576
1.7773840427398682 -10.06412410736084 -2.4019038677215576
1.9813878536224365 -10.025957107543945 -2.4019038677215576
2.588165283203125 -9.886712074279785 -2.4019038677215576
2.7883996963500977 -9.83211612701416 -2.4019038677215576
3.1853320598602295 -9.710784912109375 -2.4019038677215576
3.381871223449707 -9.644099235534668 -2.4019038677215576
0.11444824188947678 -9.2760009765625 -2.4019038677215576
0.3027893006801605 -9.271759033203125 -2.4019038677215576
0.49100950360298157 -9.263702392578125 -2.4019038677215576
0.6790210008621216 -9.251821517944336 -2.4019038677215576
1.0541369915008545 -9.216614723205566 -2.4019038677215576
1.2410802841186523 -9.193312644958496 -2.4019038677215576
2.166585683822632 -9.020150184631348 -2.4019038677215576
2.349311351776123 -8.974292755126953 -2.4019038677215576
2.53106689453125 -8.924739837646484 -2.4019038677215576
3.069770336151123 -8.754073143005371 -2.4019038677215576
0.11605102568864822 -3.55362606048584 -1.0065432786941528
0.6210253834724426 -8.461752891540527 -2.4019038677215576
0.7927600145339966 -8.447386741638184 -2.4019038677215576
0.9641308188438416 -8.429547309875488 -2.4019038677215576
1.1350939273834229 -8.408239364624023 -2.4019038677215576
1.305605411529541 -8.383448600769043 -2.4019038677215576
1.4755834341049194 -8.355215072631836 -2.4019038677215576
1.6449413299560547 -8.323517799377441 -2.4019038677215576
1.813629150390625 -8.288398742675781 -2.4019038677215576
1.9815685749053955 -8.249865531921387 -2.4019038677215576
2.1486876010894775 -8.207918167114258 -2.4019038677215576
2.807624340057373 -8.00650691986084 -2.4019038677215576
-0.025081787258386612 -3.1466174125671387 -0.9678628444671631
0.03914428502321243 -3.172651529312134 -0.9759140014648438
0.17076903581619263 -3.2218644618988037 -0.9923675060272217
0.2381591796875 -3.24497127532959 -1.0007679462432861
0.396186500787735 -3.4639732837677 -1.072390079498291
0.48827147483825684 -3.6168792247772217 -1.122565746307373
1.2016723155975342 -7.716063022613525 -2.4019038677215576
1.5139940977096558 -7.6609063148498535 -2.4019038677215576
1.66925048828125 -7.628582000732422 -2.4019038677215576
1.82382071018219 -7.593111991882324 -2.4019038677215576
2.1306347846984863 -7.512794017791748 -2.4019038677215576
2.4339354038238525 -7.42008113861084 -2.4019038677215576
2.584113597869873 -7.369126319885254 -2.4019038677215576
-0.023198241367936134 -2.910360336303711 -0.9674508571624756
0.0361645482480526 -2.9311039447784424 -0.9743896126747131
0.09637084603309631 -2.9509646892547607 -0.9814402461051941
0.28306272625923157 -3.016284227371216 -1.0070351362228394
0.35408324003219604 -3.095850706100464 -1.0357873439788818
0.4290771484375 -3.1783900260925293 -1.0660985708236694
0.5083398222923279 -3.2641007900238037 -1.098084568977356
0.8053173422813416 -3.6803505420684814 -1.252314567565918
1.6875964403152466 -7.025990962982178 -2.4019038677215576
2.391108274459839 -6.818732738494873 -2.4019038677215576
-0.02161254920065403 -2.7113935947418213 -0.969645082950592
0.08971069008111954 -2.7470598220825195 -0.9828922748565674
0.14646972715854645 -2.763394832611084 -0.9895974397659302
0.20394042134284973 -2.778733491897583 -0.9963682293891907
0.2627587914466858 -2.7999541759490967 -1.0056829452514648
0.32642820477485657 -2.8540637493133545 -1.0272876024246216
0.4612146019935608 -2.96151065826416 -1.0718237161636353
0.5333617925643921 -3.020066976547241 -1.0967110395431519
0.6116870045661926 -3.0951740741729736 -1.1282645463943481
0.7813500761985779 -3.2529971599578857 -1.1963822841644287
0.8823437094688416 -3.3705270290374756 -1.245940923690796
2.09342885017395 -6.382023811340332 -2.4019038677215576
2.222597599029541 -6.33819580078125 -2.4019038677215576
-0.02040771394968033 -2.5601882934570312 -0.9811415076255798
0.08443114906549454 -2.585392713546753 -0.9912974238395691
0.13764281570911407 -2.596863269805908 -0.9965618848800659
0.1913769543170929 -2.607560157775879 -1.0019519329071045
0.24625732004642487 -2.6241021156311035 -1.0100219249725342
0.30430784821510315 -2.6606569290161133 -1.026259183883667
0.36534422636032104 -2.7062883377075195 -1.0465062856674194
0.42897337675094604 -2.754486083984375 -1.0682928562164307
0.4951135218143463 -2.8034932613372803 -1.090975046157837
0.6339831352233887 -2.8973424434661865 -1.1365841627120972
0.7072656154632568 -2.9445641040802 -1.1605042219161987
0.8729357719421387 -3.0780394077301025 -1.2260786294937134
1.2180944681167603 -3.473646879196167 -1.410637378692627
-0.01934204064309597 -2.4265692234039307 -0.9931657314300537
0.030062254518270493 -2.436584949493408 -0.9973092675209045
0.13026367127895355 -2.4576516151428223 -1.0072671175003052
0.18106688559055328 -2.46705961227417 -1.0124214887619019
0.3441393971443176 -2.5492160320281982 -1.0527944564819336
0.40218260884284973 -2.5824546813964844 -1.0696743726730347
0.5242504477500916 -2.6527397632598877 -1.1066983938217163
0.5898607969284058 -2.69570255279541 -1.129387378692627
0.6577563285827637 -2.7384376525878906 -1.152651071548462
0.7274377346038818 -2.778790235519409 -1.1756128072738647
0.7996044754981995 -2.8194689750671387 -1.1994460821151733
0.879565417766571 -2.8774728775024414 -1.231467604637146
0.9616564512252808 -2.931697368621826 -1.2627731561660767
1.042504906654358 -2.9729135036468506 -1.289380669593811
0.028656005859375 -2.322542905807495 -1.0122802257537842
0.07588989287614822 -2.323845148086548 -1.0133105516433716
0.22157470881938934 -2.3610732555389404 -1.0335166454315186
0.3262402415275574 -2.416628122329712 -1.0627609491348267
0.3806689381599426 -2.4443154335021973 -1.0781148672103882
0.4943810999393463 -2.501601457595825 -1.1113262176513672
0.5540404915809631 -2.5320003032684326 -1.1295971870422363
0.6154760718345642 -2.562413215637207 -1.1485055685043335
0.6787573099136353 -2.5928306579589844 -1.1680768728256226
0.7440283298492432 -2.623502731323242 -1.18845796585083
0.07503905892372131 -2.2977936267852783 -1.064180850982666
0.16850951313972473 -2.2959845066070557 -1.0656344890594482
0.21558226644992828 -2.2972350120544434 -1.0680277347564697
0.31056395173072815 -2.3005104064941406 -1.0745314359664917
0.3612316846847534 -2.3195061683654785 -1.0866063833236694
0.41395506262779236 -2.3439483642578125 -1.101768136024475
0.5234704613685608 -2.392293930053711 -1.133556842803955
0.5808349251747131 -2.4181900024414062 -1.1511802673339844
0.6399401426315308 -2.444550037384033 -1.1696752309799194
0.7635461091995239 -2.497918128967285 -1.2090600728988647
0.9015697836875916 -2.5710110664367676 -1.2611321210861206
0.2602783143520355 -2.2756831645965576 -1.1235536336898804
0.35484007000923157 -2.2784667015075684 -1.131113886833191
0.4507067799568176 -2.280606269836426 -1.1403275728225708
0.6048217415809631 -2.3104028701782227 -1.1714959144592285
-0.017947997897863388 -2.2516403198242188 -1.168141484260559
0.027772216126322746 -2.250941753387451 -1.1678310632705688
0.07349365204572678 -2.2504568099975586 -1.168112874031067
0.1651330590248108 -2.249967575073242 -1.170375943183899
0.25761228799819946 -2.2523794174194336 -1.1761060953140259
0.35118284821510315 -2.254979133605957 -1.183937907218933
0.39842772483825684 -2.2560276985168457 -1.1884924173355103
0.49400022625923157 -2.257615804672241 -1.1989153623580933
0.6405358910560608 -2.2585835456848145 -1.2179152965545654
0.6896594166755676 -2.25620174407959 -1.2239320278167725
0.8006762266159058 -2.2832913398742676 -1.255242109298706
-0.017757568508386612 -2.2276899814605713 -1.220152735710144
0.0274816881865263 -2.2273967266082764 -1.2200459241867065
0.07274048030376434 -2.227400064468384 -1.220605492591858
0.11805053800344467 -2.2272253036499023 -1.221571445465088
0.16343750059604645 -2.226871967315674 -1.2229461669921875
0.2090429663658142 -2.227545738220215 -1.2253952026367188
0.2549401819705963 -2.2290139198303223 -1.2287980318069458
0.3010876476764679 -2.2303097248077393 -1.232629418373108
0.34751462936401367 -2.2314321994781494 -1.2368955612182617
0.3942517042160034 -2.232379913330078 -1.2416038513183594
0.488776832818985 -2.2337465286254883 -1.2523776292800903
0.5845410227775574 -2.232928991317749 -1.264194130897522
0.730010986328125 -2.2255072593688965 -1.282819390296936
0.07198486477136612 -2.2042529582977295 -1.2733044624328613
0.1168237254023552 -2.20406174659729 -1.2743018865585327
0.16173583269119263 -2.203685760498047 -1.2757203578948975
0.2068493664264679 -2.2041735649108887 -1.2781717777252197
0.2979101538658142 -2.2067720890045166 -1.2856380939483643
0.3438354432582855 -2.2078020572662354 -1.2900406122207642
0.39006102085113525 -2.208651065826416 -1.2948987483978271
0.4366186559200287 -2.209317207336426 -1.3002204895019531
0.5772326588630676 -2.2050108909606934 -1.315962553024292
0.6246447563171387 -2.202547550201416 -1.3217910528182983
0.7207568287849426 -2.197294235229492 -1.3351147174835205
0.7694860696792603 -2.1943461894989014 -1.3425424098968506
