ply
format ascii 1.0
element vertex 841
property float x
property float y
property float z
end_header
29.631229400634766 -7.510591983795166 5.390008926391602
29.631210327148438 -6.876864910125732 5.363645553588867
29.631195068359375 -6.249060153961182 5.339700698852539
29.591005325317383 -3.7803666591644287 5.260098934173584
29.590961456298828 -1.3705151081085205 5.223278522491455
29.603534698486328 1.021769404411316 5.223005771636963
29.59092140197754 1.6201623678207397 5.22549295425415
29.59090232849121 2.822296619415283 5.241353511810303
29.63104820251465 4.650489807128906 5.2887091636657715
29.63104820251465 5.26569128036499 5.306608200073242
0.21935057640075684 -22.323705673217773 3.4200315475463867
1.44363272190094 -20.468265533447266 3.1434130668640137
2.2887938022613525 -20.571395874023438 3.170866012573242
2.7194676399230957 -20.640222549438477 3.1892919540405273
3.1424756050109863 -20.625356674194336 3.1961522102355957
3.8681297302246094 -19.942096710205078 3.1119580268859863
4.086450099945068 -17.29835319519043 2.7229504585266113
4.264511585235596 -16.55081558227539 2.6183013916015625
6.451869964599609 -16.470476150512695 2.709865093231201
6.872001647949219 -16.550783157348633 2.7453551292419434
7.267245769500732 -16.5507755279541 2.7691380977630615
8.497588157653809 -16.550762176513672 2.8501434326171875
9.360688209533691 -16.550750732421875 2.9129087924957275
9.807025909423828 -16.55074691772461 2.947169780731201
10.732924461364746 -16.55073356628418 3.021939516067505
11.651825904846191 -16.47041130065918 3.0907037258148193
13.21817398071289 -16.47039031982422 3.2352428436279297
22.757099151611328 -24.084247589111328 5.076109409332275
25.690589904785156 -24.08420181274414 5.394647598266602
27.865140914916992 -24.084163665771484 5.642280101776123
29.59128761291504 -20.75978660583496 5.537535190582275
29.631391525268555 -19.0502872467041 5.396554946899414
29.591176986694336 -17.377065658569336 5.257044792175293
29.63130760192871 -16.605144500732422 5.203525066375732
29.631288528442383 -15.827463150024414 5.146332263946533
29.63123893737793 -14.32077407836914 5.041688919067383
29.63115692138672 -11.472914695739746 4.867709636688232
29.63113784790039 -10.79001522064209 4.830917835235596
29.631072998046875 -8.150789260864258 4.707915306091309
29.590858459472656 -5.618922710418701 4.614151954650879
29.63101577758789 -5.008846282958984 4.603701591491699
29.631004333496094 -4.39532470703125 4.5889692306518555
29.63096046447754 -1.972715973854065 4.549342632293701
29.63094711303711 -0.7731347680091858 4.540834426879883
29.63091278076172 1.6223504543304443 4.546084403991699
29.63090705871582 2.223313570022583 4.5520453453063965
29.630878448486328 5.265660762786865 4.610402584075928
29.630868911743164 5.885287284851074 4.627951145172119
1.1219921112060547 -22.32369613647461 2.910679817199707
1.8787988424301147 -20.678407669067383 2.703852415084839
2.705981492996216 -20.537822723388672 2.697564125061035
3.4729199409484863 -20.064132690429688 2.651620388031006
3.90020489692688 -20.10748291015625 2.667214870452881
4.08642578125 -19.005840301513672 2.5315167903900146
4.264516353607178 -16.55081558227539 2.2256572246551514
4.961112976074219 -16.470495223999023 2.2399966716766357
5.352162837982178 -16.55080223083496 2.265148162841797
5.696069240570068 -16.47048568725586 2.269439697265625
6.451874732971191 -16.470478057861328 2.3034863471984863
6.872011661529541 -16.550783157348633 2.3336524963378906
7.267255783081055 -16.550779342651367 2.353868246078491
7.669575214385986 -16.55077362060547 2.3754160404205322
8.469941139221191 -16.496891021728516 2.4148411750793457
9.807025909423828 -16.55074691772461 2.50520396232605
12.217509269714355 -16.55071449279785 2.6788604259490967
12.741782188415527 -16.550710678100586 2.7199597358703613
19.96512222290039 -23.873260498046875 4.052648067474365
20.982528686523438 -24.08427619934082 4.159567356109619
25.69058609008789 -24.08420181274414 4.585651874542236
27.797698974609375 -24.025880813598633 4.784533500671387
28.868778228759766 -23.950380325317383 4.884628772735596
28.65769386291504 -22.814115524291992 4.769969940185547
29.591087341308594 -20.759653091430664 4.707062244415283
29.59095573425293 -16.58252716064453 4.417165279388428
29.590917587280273 -15.04586124420166 4.322856903076172
29.590898513793945 -14.301278114318848 4.27978515625
29.59085464477539 -12.854317665100098 4.20121431350708
29.590839385986328 -12.150012016296387 4.165517330169678
29.5908203125 -11.45729923248291 4.132093906402588
29.590755462646484 -8.78620433807373 4.019608497619629
29.590726852416992 -7.50032901763916 3.975179433822632
29.59071159362793 -6.867467880249023 3.9557409286499023
29.590702056884766 -6.240519046783447 3.938084602355957
29.590688705444336 -5.618892192840576 3.9221746921539307
29.5906925201416 -5.002021789550781 3.9079887866973877
29.590682983398438 -4.389342784881592 3.8954851627349854
29.590673446655273 -3.7803239822387695 3.884636163711548
29.59065818786621 -3.174440860748291 3.875427722930908
29.590639114379883 -1.9700311422348022 3.8618462085723877
29.59062957763672 -1.3704986572265625 3.857447385787964
29.590620040893555 -0.7720809578895569 3.854625701904297
29.590595245361328 1.0213202238082886 3.855604887008667
29.590579986572266 2.2202868461608887 3.864140033721924
29.590566635131836 3.4265410900115967 3.8790576457977295
29.590560913085938 4.033661842346191 3.888943910598755
29.59055519104004 4.644137382507324 3.9004766941070557
29.590551376342773 5.258495330810547 3.913675546646118
0.21935546398162842 -22.323705673217773 2.3972716331481934
0.6704003810882568 -22.323699951171875 2.3982388973236084
1.1219921112060547 -22.32369613647461 2.4001810550689697
1.859438419342041 -20.465253829956055 2.2066450119018555
2.2902586460113525 -20.58453369140625 2.224041223526001
2.7229442596435547 -20.666629791259766 2.2383944988250732
3.0761425495147705 -20.18996238708496 2.1930501461029053
3.884394407272339 -20.02594757080078 2.1904990673065186
4.086249828338623 -17.297494888305664 1.9085596799850464
4.264516353607178 -16.55081558227539 1.8353012800216675
4.622870922088623 -16.550809860229492 1.8452790975570679
4.961112976074219 -16.470495223999023 1.8471235036849976
5.352162837982178 -16.55080223083496 1.8678699731826782
5.69607400894165 -16.47048568725586 1.8714029788970947
6.872011661529541 -16.550783157348633 1.9243595600128174
7.267251014709473 -16.550779342651367 1.9410276412963867
7.669575214385986 -16.55077362060547 1.9587974548339844
8.079497337341309 -16.55076789855957 1.9777088165283203
9.80703067779541 -16.55074691772461 2.0658209323883057
10.264179229736328 -16.55074119567871 2.091271162033081
10.732924461364746 -16.550737380981445 2.1182315349578857
21.66206932067871 -23.87322998046875 3.46158504486084
22.557680130004883 -23.87321662902832 3.526926279067993
23.488143920898438 -23.873205184936523 3.596277952194214
25.465482711791992 -23.873170852661133 3.7482495307922363
28.13169288635254 -23.33888053894043 3.9250853061676025
28.051347732543945 -22.331405639648438 3.850153684616089
28.48678207397461 -21.75287628173828 3.8488261699676514
28.48670768737793 -19.13826560974121 3.685187339782715
28.486669540405273 -17.51152801513672 3.5906999111175537
28.486650466918945 -16.728403091430664 3.5473809242248535
29.390531539916992 -16.470191955566406 3.6177494525909424
29.6467227935791 -15.83569049835205 3.6092004776000977
29.97378921508789 -13.746683120727539 3.5409905910491943
30.244701385498047 -13.13833236694336 3.540924549102783
30.503318786621094 -12.524654388427734 3.540861129760742
30.749481201171875 -11.90589714050293 3.5408008098602295
30.98320198059082 -11.282341957092285 3.540743350982666
31.790800094604492 -8.744854927062988 3.5405454635620117
31.960521697998047 -8.10097599029541 3.54050350189209
32.26092529296875 -6.803635120391846 3.5404295921325684
32.508785247802734 -5.495270729064941 3.54036808013916
32.78121566772461 -3.516695499420166 3.540300130844116
32.8962287902832 -2.1900784969329834 3.5402708053588867
32.93359375 -1.5253045558929443 3.5402612686157227
32.96829605102539 -0.19417114555835724 3.5402514934539795
32.94928741455078 1.13726806640625 3.5402543544769287
32.82025909423828 3.1303131580352783 3.540283679962158
32.66736602783203 4.453104019165039 3.5403192043304443
32.57099533081055 5.111934185028076 3.54034161567688
31.989959716796875 6.3538737297058105 3.502236843109131
0.2193603515625 -22.323707580566406 1.889855146408081
0.6704003810882568 -22.32370376586914 1.8906129598617554
2.6999218463897705 -20.491886138916016 1.7496867179870605
3.123525381088257 -20.500932693481445 1.7554866075515747
3.545243978500366 -20.481924057006836 1.7596317529678345
3.868788957595825 -19.94546127319336 1.719908595085144
4.08621072769165 -19.00480842590332 1.6455765962600708
4.243818283081055 -16.470504760742188 1.439810872077942
4.600434303283691 -16.470500946044922 1.4476386308670044
6.451869964599609 -16.470476150512695 1.4974278211593628
8.040297508239746 -16.470457077026367 1.5515317916870117
8.88113784790039 -16.47044563293457 1.5840455293655396
9.31527328491211 -16.470441818237305 1.6018149852752686
9.759438514709473 -16.470436096191406 1.62065589427948
10.6808443069458 -16.47042465209961 1.661772608757019
11.15969181060791 -16.47041893005371 1.684172511100769
11.651825904846191 -16.470415115356445 1.7078880071640015
12.217514038085938 -16.550718307495117 1.741447925567627
12.74178695678711 -16.550710678100586 1.768167495727539
13.218168258666992 -16.47039222717285 1.7877576351165771
28.131752014160156 -33.638484954833984 3.712139844894409
28.131683349609375 -31.00322723388672 3.5439000129699707
28.051273345947266 -27.382347106933594 3.3184173107147217
28.131567001342773 -26.372549057006836 3.264233350753784
28.13151741027832 -24.314403533935547 3.147642135620117
28.131492614746094 -23.33871078491211 3.0942583084106445
28.486562728881836 -20.85565185546875 2.988663911819458
28.486541748046875 -19.984731674194336 2.9457104206085205
28.48650360107422 -18.314207077026367 2.8668291568756104
28.48648452758789 -17.511411666870117 2.8306548595428467
28.48646354675293 -16.728300094604492 2.7965049743652344
30.834585189819336 -16.47017478942871 2.9592621326446533
35.99458312988281 -16.507959365844727 3.3522093296051025
31.989965438842773 6.353872776031494 2.7609386444091797
0.6704003810882568 -22.32370376586914 1.3849265575408936
1.1219921112060547 -22.323698043823242 1.3860468864440918
1.57449209690094 -22.323694229125977 1.387735366821289
1.8003954887390137 -19.81543731689453 1.2338234186172485
2.242729425430298 -20.157367706298828 1.2576756477355957
2.6921825408935547 -20.433088302612305 1.2780115604400635
3.0539402961730957 -20.04425048828125 1.257293462753296
4.086103439331055 -19.004344940185547 1.205396294593811
4.086054801940918 -17.29668617248535 1.1020939350128174
4.600434303283691 -16.470500946044922 1.0604335069656372
4.961112976074219 -16.470495223999023 1.0666722059249878
6.0711669921875 -16.470483779907227 1.0885142087936401
6.838662147521973 -16.47047233581543 1.1058769226074219
7.231992244720459 -16.470468521118164 1.115457534790039
7.632358074188232 -16.470462799072266 1.1256684064865112
8.040292739868164 -16.470458984375 1.136536717414856
9.315268516540527 -16.470441818237305 1.1733720302581787
10.214369773864746 -16.47043228149414 1.2017987966537476
10.6808443069458 -16.47042465209961 1.2172925472259521
11.15969181060791 -16.47041893005371 1.2337015867233276
28.131513595581055 -33.63819122314453 2.719212532043457
28.13148307800293 -32.29002380371094 2.6556224822998047
28.131404876708984 -28.592586517333984 2.4873108863830566
28.13129425048828 -23.338539123535156 2.2666053771972656
28.05095100402832 -22.33108901977539 2.2233407497406006
28.486351013183594 -19.984600067138672 2.15779709815979
28.486331939697266 -19.13802719116211 2.128075361251831
28.486318588256836 -18.314088821411133 2.10001540184021
28.486297607421875 -17.511301040649414 2.073516607284546
28.486284255981445 -16.728191375732422 2.0485007762908936
29.390531539916992 -16.470195770263672 2.0891599655151367
34.24472427368164 -16.55044937133789 2.3585290908813477
35.91205978393555 -16.47011375427246 2.4499475955963135
35.7244758605957 6.348569869995117 2.249993085861206
31.98995590209961 6.3538713455200195 2.0224573612213135
1.121987223625183 -22.323698043823242 0.881356954574585
1.5744969844818115 -22.323694229125977 0.8824324011802673
2.0282859802246094 -22.323688507080078 0.8838746547698975
2.695371150970459 -20.457286834716797 0.813624382019043
4.086040019989014 -21.065515518188477 0.8461158275604248
4.085996150970459 -19.003829956054688 0.7664646506309509
4.961112976074219 -16.470495223999023 0.6782701015472412
5.326191425323486 -16.470489501953125 0.6825627088546753
5.696078777313232 -16.470487594604492 0.687190055847168
7.63235330581665 -16.470462799072266 0.715788722038269
8.88113784790039 -16.470449447631836 0.737844705581665
10.214374542236328 -16.470428466796875 0.7641981244087219
10.6808443069458 -16.47042465209961 0.7740504145622253
11.15969181060791 -16.47041893005371 0.7844831943511963
11.651825904846191 -16.470415115356445 0.7955302000045776
12.158231735229492 -16.470407485961914 0.8072260618209839
13.21817398071289 -16.470396041870117 0.832728385925293
28.13127326965332 -33.63790512084961 1.7290785312652588
28.050931930541992 -32.19755935668945 1.6838209629058838
28.050888061523438 -29.6867733001709 1.6104884147644043
28.050825119018555 -26.296857833862305 1.5161079168319702
28.050790786743164 -24.244632720947266 1.4619556665420532
28.050771713256836 -23.271738052368164 1.4371647834777832
28.050756454467773 -22.3309268951416 1.4137647151947021
28.486162185668945 -19.984460830688477 1.3720868825912476
28.48613166809082 -18.313976287841797 1.3353458642959595
29.390531539916992 -16.470195770263672 1.3284482955932617
30.83457374572754 -16.470178604125977 1.378419041633606
32.39214324951172 -16.470157623291016 1.4328831434249878
34.078548431396484 -16.470138549804688 1.4924595355987549
31.58558464050293 6.273555278778076 1.2697813510894775
0.6703954935073853 -22.323699951171875 0.37725692987442017
1.57449209690094 -22.323694229125977 0.3780241310596466
2.0282859802246094 -22.323688507080078 0.3786405920982361
2.669755697250366 -20.262916564941406 0.34523603320121765
4.085922718048096 -21.064926147460938 0.36245864629745483
4.600439548492432 -16.470500946044922 0.2888645827770233
6.451874732971191 -16.470478057861328 0.29880112409591675
7.231992244720459 -16.470468521118164 0.30385541915893555
7.632358074188232 -16.470462799072266 0.30663803219795227
8.040292739868164 -16.470458984375 0.309597909450531
8.4563570022583 -16.4704532623291 0.31274306774139404
8.881133079528809 -16.470449447631836 0.31608596444129944
12.158231735229492 -16.470407485961914 0.3458082377910614
12.679960250854492 -16.470401763916016 0.35111433267593384
28.050716400146484 -33.54158020019531 0.7385984659194946
28.050697326660156 -32.19729995727539 0.721324622631073
28.050678253173828 -30.913963317871094 0.705124020576477
28.050662994384766 -29.68654441833496 0.6899095177650452
28.050615310668945 -26.296659469604492 0.6494837999343872
28.050600051879883 -25.251909255981445 0.6375401020050049
28.05059051513672 -24.24445915222168 0.626280665397644
28.050559997558594 -22.330768585205078 0.6056336760520935
28.48599624633789 -21.752283096313477 0.6054319739341736
28.485971450805664 -19.984325408935547 0.5877833366394043
28.4859561920166 -19.137765884399414 0.5796912908554077
28.485937118530273 -17.51107406616211 0.5648255944252014
28.48592185974121 -16.727977752685547 0.5580101013183594
30.834579467773438 -16.470178604125977 0.590499997138977
32.31700134277344 -16.431949615478516 0.612403392791748
35.30251693725586 6.273584365844727 0.6056684851646423
31.585580825805664 6.273553848266602 0.5439634323120117
0.21935546398162842 -22.323707580566406 -0.12569046020507812
0.6703954935073853 -22.32370376586914 -0.12574096024036407
2.4837498664855957 -22.32368278503418 -0.12646149098873138
3.864028215408325 -22.32366943359375 -0.12755462527275085
4.085805416107178 -21.06430435180664 -0.12080718576908112
4.085785865783691 -19.002851486206055 -0.10943283140659332
4.600439548492432 -16.470500946044922 -0.09628112614154816
5.542299747467041 -17.13878059387207 -0.10141342133283615
6.317494869232178 -17.138771057128906 -0.10283935070037842
7.116137504577637 -17.138761520385742 -0.10448074340820312
7.525424480438232 -17.138757705688477 -0.10538558661937714
8.79947280883789 -17.13874053955078 -0.1084689274430275
9.241484642028809 -17.138734817504883 -0.10962661355733871
10.155434608459473 -17.13872528076172 -0.11215957254171371
12.782768249511719 -18.06905174255371 -0.12461502104997635
13.218178749084473 -16.470396041870117 -0.11889754980802536
28.679365158081055 -32.91888427734375 -0.24580886960029602
28.67933464050293 -30.351871490478516 -0.2351032942533493
28.67930030822754 -26.88602066040039 -0.22132720053195953
28.67928123474121 -24.787845611572266 -0.21342238783836365
28.05037498474121 -23.271419525146484 -0.20520125329494476
28.48579978942871 -21.75213623046875 -0.2017933577299118
28.485790252685547 -20.855093002319336 -0.1987675428390503
28.485780715942383 -19.98419952392578 -0.19591109454631805
28.485761642456055 -18.31373405456543 -0.1906655877828598
28.48575210571289 -17.510969161987305 -0.18825805187225342
30.58304214477539 -17.138473510742188 -0.19737990200519562
32.085689544677734 -17.138456344604492 -0.20480544865131378
37.31856918334961 -17.115177154541016 -0.23115096986293793
0.6703954935073853 -22.323705673217773 -0.628871738910675
1.1219921112060547 -22.323699951171875 -0.6293817162513733
1.57449209690094 -22.323694229125977 -0.6301468014717102
2.941279172897339 -22.323678970336914 -0.6340185403823853
5.542299747467041 -17.13878059387207 -0.5071960091590881
5.927192211151123 -17.138776779174805 -0.5106368660926819
6.713656902313232 -17.13876724243164 -0.518297553062439
9.241484642028809 -17.138734817504883 -0.548277735710144
10.683549880981445 -16.47460174560547 -0.5528938174247742
12.91848087310791 -17.50029754638672 -0.6124891638755798
28.679134368896484 -34.29300308227539 -1.2587876319885254
28.679115295410156 -31.606550216674805 -1.2017407417297363
28.679096221923828 -27.995197296142578 -1.128503441810608
28.050174713134766 -23.27125358581543 -1.0262641906738281
28.485599517822266 -21.75197982788086 -1.0092060565948486
28.4855899810791 -19.98406219482422 -0.9797965884208679
28.485586166381836 -19.137514114379883 -0.9663006663322449
28.48557472229004 -18.313610076904297 -0.9535558819770813
28.485570907592773 -17.510848999023438 -0.9415269494056702
28.48556137084961 -16.727767944335938 -0.930159866809845
30.58305549621582 -17.138473510742188 -0.9871552586555481
32.0856819152832 -17.138456344604492 -1.0242737531661987
35.08342742919922 -16.955793380737305 -1.0971972942352295
37.31834411621094 -17.115076065063477 -1.1560430526733398
48.52437210083008 6.614695072174072 -1.378975749015808
48.59131622314453 7.626307964324951 -1.3849738836288452
32.444332122802734 6.444118022918701 -0.9314085245132446
0.21935546398162842 -22.32370948791504 -1.1321825981140137
0.6703954935073853 -22.323705673217773 -1.1326380968093872
2.0282909870147705 -22.32369041442871 -1.136790156364441
2.483754873275757 -22.32368278503418 -1.1391147375106812
2.6904296875 -20.41977310180664 -1.0445226430892944
3.864023447036743 -22.323671340942383 -1.148964762687683
4.0855712890625 -17.294628143310547 -0.9012243747711182
4.243823051452637 -16.47050666809082 -0.8625718355178833
5.162406921386719 -17.13878631591797 -0.9077532887458801
5.542299747467041 -17.13878059387207 -0.9134960770606995
5.927192211151123 -17.138776779174805 -0.9196894764900208
6.317494869232178 -17.138771057128906 -0.9263467192649841
6.713647365570068 -17.13876724243164 -0.93348628282547
7.525424480438232 -17.138757705688477 -0.9492756724357605
7.942036151885986 -17.138751983642578 -0.9579635262489319
8.366522789001465 -17.13874626159668 -0.9672124981880188
8.79947280883789 -17.138742446899414 -0.9770451188087463
9.6932373046875 -17.138731002807617 -0.9985629320144653
10.155434608459473 -17.13872528076172 -1.0103062391281128
10.62881851196289 -17.13871955871582 -1.022750973701477
10.683442115783691 -16.474435806274414 -0.9957839846611023
11.15969181060791 -16.470422744750977 -1.0089620351791382
13.21817398071289 -16.47039794921875 -1.0710104703903198
28.67888641357422 -31.60628890991211 -2.1643941402435303
28.67888069152832 -29.14903450012207 -2.073796272277832
28.678876876831055 -27.9949951171875 -2.032491445541382
28.678871154785156 -26.88563346862793 -1.993600845336914
28.67886734008789 -25.8174991607666 -1.9569560289382935
28.678871154785156 -24.78748893737793 -1.922391414642334
28.04997444152832 -23.27107810974121 -1.8483529090881348
28.049970626831055 -22.3303165435791 -1.8182604312896729
28.48540496826172 -20.85480499267578 -1.7903923988342285
28.485395431518555 -19.13739013671875 -1.7403578758239746
28.485389709472656 -18.31349754333496 -1.7174099683761597
28.48538589477539 -17.510746002197266 -1.69573974609375
33.706459045410156 -17.138437271118164 -1.9176744222640991
35.083213806152344 -16.955690383911133 -1.9761168956756592
37.318115234375 -17.114967346191406 -2.0821027755737305
40.95656967163086 -17.791576385498047 -2.264597177505493
41.63365173339844 -16.12014389038086 -2.2641618251800537
42.45112228393555 -13.543410301208496 -2.2597873210906982
45.87364196777344 -12.618698120117188 -2.412860155105591
46.12031936645508 -11.690033912658691 -2.4129209518432617
46.34797668457031 -10.756495475769043 -2.4129769802093506
46.55672836303711 -9.818540573120117 -2.4130284786224365
46.74652099609375 -8.876534461975098 -2.4130754470825195
46.917137145996094 -7.930858135223389 -2.4131178855895996
47.068397521972656 -6.981864929199219 -2.4131555557250977
47.20045852661133 -6.03000545501709 -2.4131884574890137
47.40645217895508 -4.119185924530029 -2.413240432739258
47.53480529785156 -2.2015531063079834 -2.413273572921753
47.56980514526367 -1.2411571741104126 -2.413283109664917
47.557674407958984 1.641489863395691 -2.413283109664917
47.51458740234375 2.601555824279785 -2.413273811340332
44.45914077758789 3.335963010787964 -2.261045455932617
44.41386795043945 4.236081600189209 -2.262636184692383
44.3503303527832 5.1357316970825195 -2.264221668243408
44.16511535644531 6.0204386711120605 -2.2605135440826416
44.03786849975586 6.911627769470215 -2.260680913925171
38.95376205444336 6.9224467277526855 -2.006459951400757
32.444149017333984 6.4440813064575195 -1.6775203943252563
0.21935546398162842 -22.32370948791504 -1.6369010210037231
0.6704003810882568 -22.323705673217773 -1.6375622749328613
1.121987223625183 -22.323699951171875 -1.6388877630233765
2.602353572845459 -19.7513370513916 -1.4607274532318115
3.011162042617798 -19.763525009155273 -1.4658269882202148
4.085473537445068 -17.294231414794922 -1.3029528856277466
5.162406921386719 -17.13878631591797 -1.312424898147583
6.713656902313232 -17.13876724243164 -1.3496273756027222
9.24148941040039 -17.138736724853516 -1.427695631980896
10.155439376831055 -17.13872528076172 -1.460693359375
10.628823280334473 -17.13871955871582 -1.478689432144165
11.15969181060791 -16.470422744750977 -1.4587476253509521
12.918241500854492 -17.499975204467773 -1.594870686531067
13.21817398071289 -16.47039794921875 -1.5484625101089478
20.24329948425293 -23.23577308654785 -2.2595720291137695
20.70941925048828 -22.82334327697754 -2.259685516357422
21.61626434326172 -21.97063636779785 -2.259906768798828
22.48796844482422 -21.081825256347656 -2.260119676589966
23.323022842407227 -20.158361434936523 -2.2603235244750977
24.120038986206055 -19.201717376708984 -2.2605180740356445
24.50391960144043 -18.711511611938477 -2.2606120109558105
24.877811431884766 -18.213600158691406 -2.2607035636901855
25.595008850097656 -17.19552230834961 -2.2608790397644043
26.572757720947266 -15.60450553894043 -2.25948166847229
26.871810913085938 -15.058738708496094 -2.258586883544922
27.1595401763916 -14.507172584533691 -2.257678747177124
29.070579528808594 -13.33256721496582 -2.345010757446289
30.394168853759766 -12.479837417602539 -2.4091124534606934
31.096288681030273 -10.61733341217041 -2.4092845916748047
31.305023193359375 -9.98741340637207 -2.4093356132507324
31.50093650817871 -9.353363037109375 -2.409383773803711
32.01120376586914 -7.429200649261475 -2.4095094203948975
32.15513229370117 -6.78132438659668 -2.4095449447631836
32.28599548339844 -6.13067626953125 -2.4095773696899414
32.40349578857422 -5.477489471435547 -2.409606456756592
32.599037170410156 -4.164629936218262 -2.4096553325653076
32.67670440673828 -3.505481243133545 -2.409674882888794
32.74110412597656 -2.8449015617370605 -2.409691095352173
32.79201889038086 -2.1831510066986084 -2.4097039699554443
32.815574645996094 1.7967431545257568 -2.4097139835357666
32.77250289916992 2.459061861038208 -2.4097044467926025
30.6439208984375 2.922739267349243 -2.257072925567627
30.593393325805664 3.542689085006714 -2.2581639289855957
30.366376876831055 5.396388530731201 -2.261408805847168
0.21935546398162842 -22.32370948791504 -2.1432924270629883
0.6703954935073853 -22.323705673217773 -2.1441519260406494
1.5744969844818115 -22.32369613647461 -2.1485087871551514
2.483754873275757 -22.323686599731445 -2.156409978866577
2.6454784870147705 -20.078670501708984 -1.9443120956420898
3.078378915786743 -20.20463752746582 -1.9621301889419556
3.864028215408325 -22.323671340942383 -2.1750495433807373
4.085336685180664 -21.0618839263916 -2.0597314834594727
4.243823051452637 -16.47050666809082 -1.632893681526184
5.542304515838623 -17.13878059387207 -1.7293022871017456
5.927196979522705 -17.138776779174805 -1.7410259246826172
6.317494869232178 -17.138774871826172 -1.7536301612854004
6.713656902313232 -17.138769149780273 -1.7671444416046143
9.241494178771973 -17.138736724853516 -1.8693647384643555
9.6932373046875 -17.13873291015625 -1.890334129333496
10.6832275390625 -16.474098205566406 -1.8850411176681519
12.91812515258789 -17.499818801879883 -2.0882344245910645
12.918129920959473 -16.779760360717773 -2.0330350399017334
13.21817398071289 -16.470399856567383 -2.027479887008667
15.090668678283691 -18.044626235961914 -2.2583343982696533
15.452597618103027 -17.73687171936035 -2.258422613143921
16.50008201599121 -16.770578384399414 -2.2586779594421387
18.08757209777832 -15.00598430633545 -2.2562978267669678
18.668935775756836 -14.255842208862305 -2.255110025405884
19.21979522705078 -13.483742713928223 -2.2540059089660645
20.78583526611328 -13.363417625427246 -2.372377634048462
21.358211517333984 -13.12938404083252 -2.40692400932312
21.61935043334961 -12.695718765258789 -2.4069879055023193
21.871938705444336 -12.256840705871582 -2.4070494174957275
22.115550994873047 -11.81293773651123 -2.407108783721924
22.791805267333984 -10.452863693237305 -2.407274007797241
23.384368896484375 -9.054200172424316 -2.407418966293335
23.5628662109375 -8.580267906188965 -2.4074625968933105
23.731752395629883 -8.102827072143555 -2.4075043201446533
23.890888214111328 -7.622040748596191 -2.407543182373047
24.040302276611328 -7.138124942779541 -2.4075798988342285
24.179941177368164 -6.651298522949219 -2.407614231109619
24.309633255004883 -6.161720275878906 -2.4076461791992188
24.539169311523438 -5.175164222717285 -2.407702684402466
24.80820655822754 -3.6799192428588867 -2.4077696800231934
24.9368896484375 -2.6751692295074463 -2.407801866531372
24.9859561920166 -2.1710448265075684 -2.4078140258789062
25.071815490722656 -0.6541561484336853 -2.407836437225342
25.065420150756836 0.8651519417762756 -2.407836437225342
25.04280662536621 1.371163249015808 -2.4078316688537598
24.966787338256836 2.381270170211792 -2.4078142642974854
23.3326416015625 2.701900005340576 -2.255018949508667
23.15106964111328 4.114157199859619 -2.257436752319336
23.071561813354492 4.582494258880615 -2.258251428604126
0.18622557818889618 -18.952152252197266 -2.251359701156616
0.9528661966323853 -18.958681106567383 -2.2548668384552
1.3356053829193115 -18.93669891357422 -2.255002498626709
1.7178173065185547 -18.906658172607422 -2.2550947666168213
2.480092763900757 -18.82339859008789 -2.255279541015625
4.085278034210205 -17.29338264465332 -2.1107518672943115
4.600439548492432 -16.470502853393555 -2.0313501358032227
5.542304515838623 -17.138784408569336 -2.1396501064300537
5.927196979522705 -17.138778686523438 -2.154154062271118
6.31749963760376 -17.138774871826172 -2.169750928878784
6.713656902313232 -17.138769149780273 -2.1864700317382812
8.677543640136719 -16.901248931884766 -2.2567837238311768
9.68422794342041 -16.343278884887695 -2.2565741539001465
10.010873794555664 -16.14244270324707 -2.256298780441284
10.651840209960938 -15.720897674560547 -2.2557098865509033
11.274794578552246 -15.273616790771484 -2.255070924758911
11.579164505004883 -15.040567398071289 -2.254732847213745
11.878705978393555 -14.801375389099121 -2.254382610321045
12.173266410827637 -14.556119918823242 -2.2540204524993896
13.025590896606445 -13.785240173339844 -2.252863645553589
13.7385835647583 -13.41097354888916 -2.2805755138397217
14.872114181518555 -13.38820743560791 -2.3769710063934326
15.585532188415527 -12.930220603942871 -2.405526638031006
15.843955039978027 -12.61318302154541 -2.4055895805358887
16.095794677734375 -12.290961265563965 -2.4056508541107178
16.57975959777832 -11.63155746459961 -2.405768871307373
17.254907608032227 -10.60701847076416 -2.405933380126953
17.465927124023438 -10.256636619567871 -2.40598464012146
17.669994354248047 -9.90200424194336 -2.4060347080230713
18.05597686767578 -9.180770874023438 -2.4061288833618164
18.238037109375 -8.814434051513672 -2.4061732292175293
18.412660598754883 -8.444483757019043 -2.4062159061431885
18.7392578125 -7.694338321685791 -2.4062957763671875
18.8911075592041 -7.314453125 -2.4063329696655273
19.035253524780273 -6.931573390960693 -2.4063682556152344
19.420795440673828 -5.766488075256348 -2.4064629077911377
19.533491134643555 -5.373180389404297 -2.4064905643463135
19.63823699951172 -4.9776716232299805 -2.4065163135528564
19.73494529724121 -4.580109596252441 -2.4065401554107666
19.904159545898438 -3.779531240463257 -2.4065821170806885
20.096893310546875 -2.5674400329589844 -2.406630039215088
20.144744873046875 -2.161081552505493 -2.406642198562622
20.184335708618164 -1.753833532333374 -2.4066519737243652
20.215723037719727 -1.3458690643310547 -2.4066600799560547
20.23885154724121 -0.9373534917831421 -2.4066660404205322
20.26009178161621 -0.11931457370519638 -2.406672239303589
20.25849151611328 0.28984373807907104 -2.406672239303589
20.24893569946289 0.6988744735717773 -2.406670331954956
20.125844955444336 2.330554723739624 -2.406642198562622
18.690736770629883 3.3215184211730957 -2.254981517791748
0.15599121153354645 -15.874696731567383 -2.2493834495544434
0.7969530820846558 -15.856572151184082 -2.2495431900024414
1.4391992092132568 -15.840119361877441 -2.253619432449341
1.7588133811950684 -15.807978630065918 -2.2536423206329346
2.077700138092041 -15.76931381225586 -2.2536532878875732
2.712758779525757 -15.672460556030273 -2.2536399364471436
3.6565868854522705 -15.47869873046875 -2.2535314559936523
3.968315362930298 -15.40129566192627 -2.253471851348877
4.278393268585205 -15.317538261413574 -2.2534005641937256
5.499516487121582 -14.919657707214355 -2.2529985904693604
5.799360275268555 -14.804716110229492 -2.2528693675994873
6.391621112823486 -14.556568145751953 -2.2525763511657715
6.683788776397705 -14.423473358154297 -2.252413034439087
7.543007850646973 -13.98883056640625 -2.2518553733825684
7.8232421875 -13.832372665405273 -2.2516472339630127
8.712763786315918 -13.434941291809082 -2.2688148021698
9.098129272460938 -13.42783260345459 -2.2981770038604736
9.9010009765625 -13.412511825561523 -2.3621089458465576
10.31960391998291 -13.40425968170166 -2.396876811981201
11.655473709106445 -12.335206985473633 -2.404575824737549
11.902304649353027 -12.097622871398926 -2.4046359062194824
12.144658088684082 -11.855063438415527 -2.4046947956085205
12.841127395629883 -11.098737716674805 -2.4048640727996826
13.062914848327637 -10.837385177612305 -2.4049181938171387
13.89601993560791 -9.748753547668457 -2.405121088027954
14.278905868530273 -9.18002700805664 -2.405214309692383
14.461654663085938 -8.889971733093262 -2.405258893966675
14.6384859085083 -8.5962553024292 -2.405302047729492
14.809340476989746 -8.299033164978027 -2.405343770980835
14.9741792678833 -7.998403549194336 -2.405384063720703
15.285429000854492 -7.387437343597412 -2.4054598808288574
15.431723594665527 -7.077357769012451 -2.4054956436157227
15.5717134475708 -6.764371395111084 -2.4055299758911133
15.832587242126465 -6.13022518157959 -2.4055938720703125
15.95335865020752 -5.80932092666626 -2.405623435974121
16.067583084106445 -5.4860334396362305 -2.405651330947876
16.175302505493164 -5.160495281219482 -2.4056777954101562
16.276386260986328 -4.832838535308838 -2.405702590942383
16.539579391479492 -3.838527202606201 -2.4057672023773193
16.613866806030273 -3.5037646293640137 -2.4057857990264893
16.681346893310547 -3.16756272315979 -2.4058024883270264
16.79585838317871 -2.491405963897705 -2.4058308601379395
16.84282112121582 -2.1517229080200195 -2.4058425426483154
16.882909774780273 -1.8111599683761597 -2.4058525562286377
16.9423770904541 -1.1279451847076416 -2.4058678150177
16.974159240722656 -0.4428780972957611 -2.4058761596679688
16.97821807861328 0.24291136860847473 -2.4058778285980225
16.969839096069336 0.5857275128364563 -2.4058761596679688
16.93229866027832 1.2705035209655762 -2.4058678150177
16.08614730834961 2.5246832370758057 -2.3071396350860596
0.4101855456829071 -13.658876419067383 -2.2511653900146484
0.685595691204071 -13.641115188598633 -2.2500627040863037
1.2356542348861694 -13.59981632232666 -2.2496516704559326
1.7839257717132568 -13.539621353149414 -2.249784469604492
2.3324902057647705 -13.47548770904541 -2.25295090675354
2.612231492996216 -13.46733283996582 -2.25994873046875
2.8940868377685547 -13.46030044555664 -2.2681143283843994
3.4666013717651367 -13.453989028930664 -2.2887890338897705
3.756909132003784 -13.45053482055664 -2.300642251968384
4.347172737121582 -13.442999839782715 -2.327503204345703
4.647651195526123 -13.438908576965332 -2.3425703048706055
4.952104568481445 -13.434587478637695 -2.3587729930877686
5.574252605438232 -13.42523193359375 -2.394728899002075
6.13357400894165 -13.236062049865723 -2.403237819671631
6.399765491485596 -13.109848022460938 -2.4033026695251465
6.663388729095459 -12.97828197479248 -2.4033665657043457
7.182412147521973 -12.699296951293945 -2.4034924507141113
7.437607288360596 -12.55196475982666 -2.4035544395446777
7.689745903015137 -12.39953327178955 -2.403615713119507
7.938774108886719 -12.242016792297363 -2.4036760330200195
8.4270601272583 -11.912053108215332 -2.403794765472412
8.66610336303711 -11.739726066589355 -2.403852701187134
9.133139610290527 -11.380812644958496 -2.403966188430786
9.361689567565918 -11.194231033325195 -2.404021739959717
9.80655288696289 -10.807560920715332 -2.40412974357605
10.023022651672363 -10.607553482055664 -2.4041824340820312
10.235458374023438 -10.403189659118652 -2.4042341709136963
10.443573951721191 -10.194605827331543 -2.404284715652466
10.647597312927246 -9.981818199157715 -2.404334306716919
11.042426109313965 -9.544097900390625 -2.404430389404297
11.233124732971191 -9.319331169128418 -2.4044766426086426
11.419252395629883 -9.090763092041016 -2.404521942138672
11.600712776184082 -8.858460426330566 -2.4045662879943848
11.949384689331055 -8.38309383392334 -2.404651165008545
12.11644458770752 -8.140210151672363 -2.4046919345855713
12.278573989868164 -7.89399528503418 -2.404731273651123
13.012773513793945 -6.616492748260498 -2.4049105644226074
13.504961013793945 -5.545121192932129 -2.4050307273864746
13.6143159866333 -5.271329402923584 -2.405057668685913
13.71812915802002 -4.995373249053955 -2.405083179473877
13.8163423538208 -4.717370510101318 -2.405107021331787
13.90892505645752 -4.437440395355225 -2.405129909515381
14.077054977416992 -3.872239828109741 -2.4051711559295654
14.15245532989502 -3.587198495864868 -2.4051897525787354
14.222099304199219 -3.300682306289673 -2.4052069187164307
14.285956382751465 -3.012821674346924 -2.4052226543426514
14.343964576721191 -2.7237257957458496 -2.4052369594573975
14.3961181640625 -2.4335134029388428 -2.405249834060669
14.58498477935791 -0.675494372844696 -2.4052975177764893
14.5957612991333 -0.380828857421875 -2.4053003787994385
14.60042953491211 -0.08599243313074112 -2.405301809310913
14.59886646270752 0.2089044153690338 -2.405301809310913
14.578803062438965 0.798229992389679 -2.4052977561950684
14.559687614440918 1.092476725578308 -2.4052932262420654
14.503602981567383 1.6795061826705933 -2.405280351638794
14.466679573059082 1.9720488786697388 -2.4052717685699463
14.42386245727539 2.2637860774993896 -2.405261516571045
0.8990722298622131 -12.747441291809082 -2.4019711017608643
1.156347632408142 -12.72701644897461 -2.402033567428589
1.6694238185882568 -12.670591354370117 -2.402157783508301
2.179824113845825 -12.593487739562988 -2.4022812843322754
2.4337596893310547 -12.547219276428223 -2.4023430347442627
2.686713695526123 -12.495841979980469 -2.4024040699005127
2.9385790824890137 -12.439348220825195 -2.4024651050567627
3.189277172088623 -12.377778053283691 -2.4025261402130127
3.6866843700408936 -12.239516258239746 -2.402646541595459
4.178124904632568 -12.081259727478027 -2.4027657508850098
4.662787914276123 -11.903274536132812 -2.402883291244507
5.139897346496582 -11.70584487915039 -2.402998924255371
5.3753662109375 -11.599931716918945 -2.4030561447143555
5.608662128448486 -11.48928165435791 -2.4031126499176025
5.839672565460205 -11.373942375183105 -2.4031686782836914
6.739077091217041 -10.86660099029541 -2.4033870697021484
6.957299709320068 -10.72852611541748 -2.403439998626709
7.172695159912109 -10.586069107055664 -2.4034924507141113
7.385165691375732 -10.439287185668945 -2.4035439491271973
7.594628810882568 -10.288233757019043 -2.403594732284546
7.801010608673096 -10.132983207702637 -2.4036450386047363
8.0042085647583 -9.97358226776123 -2.4036941528320312
8.2041597366333 -9.81010627746582 -2.403743028640747
9.152192115783691 -8.933947563171387 -2.403973340988159
9.505820274353027 -8.557394027709961 -2.404059410095215
9.843955039978027 -8.16683292388916 -2.404141664505005
10.00704574584961 -7.966509819030762 -2.4041812419891357
10.471552848815918 -7.3463134765625 -2.404294490814209
10.75997543334961 -6.9176788330078125 -2.404364824295044
10.897631645202637 -6.699070930480957 -2.404398202896118
11.030835151672363 -6.477715492248535 -2.404430866241455
11.159550666809082 -6.253712177276611 -2.4044623374938965
11.283705711364746 -6.027149677276611 -2.4044926166534424
11.403276443481445 -5.798122406005859 -2.4045217037200928
11.518290519714355 -5.566718578338623 -2.4045498371124268
11.62826156616211 -5.333040237426758 -2.4045767784118652
11.733808517456055 -5.097177505493164 -2.404602527618408
11.83447265625 -4.859233379364014 -2.4046270847320557
11.930312156677246 -4.619298458099365 -2.4046504497528076
12.188437461853027 -3.888542890548706 -2.4047138690948486
12.264570236206055 -3.6416378021240234 -2.4047327041625977
12.335654258728027 -3.393235445022583 -2.404750108718872
12.462831497192383 -2.8923888206481934 -2.4047813415527344
12.518759727478027 -2.6401302814483643 -2.4047951698303223
12.655844688415527 -1.8772978782653809 -2.404829263687134
12.6912202835083 -1.621342420578003 -2.4048380851745605
12.72140121459961 -1.3647220134735107 -2.4048454761505127
12.746411323547363 -1.1075451374053955 -2.4048519134521484
12.76620101928711 -0.8499154448509216 -2.4048569202423096
12.794286727905273 -0.07535339146852493 -2.404864549636841
12.75856876373291 0.957334578037262 -2.4048571586608887
12.7365083694458 1.2147905826568604 -2.4048519134521484
12.677138328552246 1.7281023263931274 -2.4048380851745605
12.596869468688965 2.2385852336883545 -2.4048192501068115
12.542264938354492 2.4911553859710693 -2.403505563735962
0.11165038496255875 -11.361842155456543 -2.401780843734741
0.34107908606529236 -11.35754108428955 -2.40183687210083
0.7994628548622131 -11.33502197265625 -2.4019484519958496
1.2565869092941284 -11.294010162353516 -2.402059316635132
2.164057493209839 -11.156804084777832 -2.4022789001464844
2.388984203338623 -11.111083984375 -2.4023337364196777
2.8358397483825684 -11.006040573120117 -2.4024417400360107
3.0575926303863525 -10.94677448272705 -2.4024956226348877
3.2781054973602295 -10.883041381835938 -2.4025490283966064
3.4972851276397705 -10.81485652923584 -2.402602195739746
4.358969688415527 -10.498291015625 -2.402811288833618
4.570185661315918 -10.408346176147461 -2.402862548828125
4.986952781677246 -10.215743064880371 -2.402963399887085
5.596733093261719 -9.89563274383545 -2.403111457824707
5.991996765136719 -9.661947250366211 -2.403207540512085
6.377519607543945 -9.412473678588867 -2.4033010005950928
6.566415786743164 -9.281938552856445 -2.4033470153808594
7.116786956787109 -8.86781120300293 -2.4034805297851562
7.469335556030273 -8.573493957519531 -2.4035661220550537
7.809716701507568 -8.265169143676758 -2.403649091720581
9.038701057434082 -6.902074337005615 -2.4039480686187744
9.176371574401855 -6.718233108520508 -2.4039816856384277
9.440434455871582 -6.342380046844482 -2.404046058654785
9.566694259643555 -6.150517463684082 -2.40407657623291
9.689091682434082 -5.9561448097229 -2.404106616973877
9.922080039978027 -5.5601630210876465 -2.404163360595703
10.13858413696289 -5.1550798416137695 -2.4042162895202637
10.240732192993164 -4.949335098266602 -2.4042410850524902
10.338690757751465 -4.741567611694336 -2.4042651653289795
10.432440757751465 -4.531863689422607 -2.4042880535125732
10.6071138381958 -4.106971263885498 -2.4043307304382324
10.764482498168945 -3.675361156463623 -2.404369354248047
10.836586952209473 -3.4572548866271973 -2.4043869972229004
10.904292106628418 -3.237736225128174 -2.4044036865234375
11.026249885559082 -2.794804573059082 -2.4044337272644043
11.080512046813965 -2.5715768337249756 -2.404447078704834
11.130244255065918 -2.3473007678985596 -2.404459238052368
11.175419807434082 -2.122061014175415 -2.404470443725586
11.216044425964355 -1.8959548473358154 -2.404480457305908
11.252079963684082 -1.6690716743469238 -2.404489517211914
11.283539772033691 -1.4415072202682495 -2.4044973850250244
11.33260726928711 -0.9846990704536438 -2.4045097827911377
11.350194931030273 -0.7556433081626892 -2.4045143127441406
11.363163948059082 -0.5262795686721802 -2.404517650604248
11.374228477478027 0.16272887587547302 -2.4045209884643555
11.368574142456055 0.39239561557769775 -2.40451979637146
11.34334945678711 0.8511529564857483 -2.4045143127441406
11.299760818481445 1.3085033893585205 -2.4045042991638184
11.237641334533691 1.7637194395065308 -2.404489755630493
11.19973087310791 1.9902911186218262 -2.4044806957244873
0.5129980444908142 -10.206884384155273 -2.4018800258636475
0.7190282940864563 -10.194653511047363 -2.401930093765259
0.9247802495956421 -10.17825698852539 -2.40198016166687
1.3350878953933716 -10.133041381835938 -2.4020793437957764
1.5394725799560547 -10.104219436645508 -2.4021289348602295
1.7432470321655273 -10.071279525756836 -2.4021782875061035
2.7499120235443115 -9.845240592956543 -2.4024221897125244
3.1453564167022705 -9.72655200958252 -2.4025180339813232
3.341191291809082 -9.661239624023438 -2.4025657176971436
3.5356836318969727 -9.59199047088623 -2.4026129245758057
4.669760704040527 -9.09530258178711 -2.402888059616089
5.033417701721191 -8.89964485168457 -2.4029762744903564
5.563364028930664 -8.578996658325195 -2.403104782104492
5.735566139221191 -8.465041160583496 -2.403146505355835
5.905444145202637 -8.34763240814209 -2.4031879901885986
6.072915077209473 -8.226812362670898 -2.403228521347046
6.237924575805664 -8.102636337280273 -2.403268575668335
6.400380611419678 -7.975142478942871 -2.403308153152466
6.717426776885986 -7.710427761077881 -2.4033851623535156
6.871865272521973 -7.573318958282471 -2.4034225940704346
7.023520469665527 -7.433116912841797 -2.4034595489501953
7.461034774780273 -6.994507789611816 -2.4035658836364746
7.600869178771973 -6.842508792877197 -2.403599977493286
7.871196269989014 -6.530175685882568 -2.403665781021118
8.128681182861328 -6.207164764404297 -2.403728485107422
8.820019721984863 -5.179435729980469 -2.4038968086242676
8.922900199890137 -5.000314712524414 -2.4039220809936523
9.0221529006958 -4.819149971008301 -2.4039463996887207
9.117714881896973 -4.6360087394714355 -2.4039695262908936
9.209565162658691 -4.45097541809082 -2.403992176055908
9.297660827636719 -4.264124870300293 -2.4040136337280273
9.381948471069336 -4.075527667999268 -2.40403413772583
9.680526733398438 -3.305263042449951 -2.4041073322296143
9.745389938354492 -3.1091198921203613 -2.404123067855835
9.863051414489746 -2.7130823135375977 -2.4041521549224854
9.91592788696289 -2.5133719444274902 -2.404165029525757
10.009413719177246 -2.1109259128570557 -2.4041881561279297
10.050039291381836 -1.9083682298660278 -2.404198169708252
10.118979454040527 -1.5009942054748535 -2.4042153358459473
10.171391487121582 -1.0911630392074585 -2.404228448867798
10.207201957702637 -0.6795489192008972 -2.4042375087738037
10.218852043151855 -0.47328153252601624 -2.404240608215332
10.226313591003418 -0.266815185546875 -2.404242753982544
10.228778839111328 0.14634399116039276 -2.4042437076568604
10.201416015625 0.7654101252555847 -2.404237747192383
10.1619234085083 1.1767321825027466 -2.404228687286377
10.07186508178711 1.7898638248443604 -2.404207468032837
10.03353500366211 1.9928874969482422 -2.404198408126831
0.09114257246255875 -9.27577018737793 -2.401777505874634
0.2784521281719208 -9.272212982177734 -2.4018235206604004
0.46564939618110657 -9.264883041381836 -2.401869535446167
0.6526659727096558 -9.253750801086426 -2.4019148349761963
1.025844693183899 -9.220196723937988 -2.402005672454834
1.211855411529541 -9.197775840759277 -2.402050495147705
1.5823436975479126 -9.141681671142578 -2.4021403789520264
1.766664981842041 -9.108031272888184 -2.4021849632263184
2.4960691928863525 -8.93642520904541 -2.4023618698120117
2.6760692596435547 -8.884356498718262 -2.4024055004119873
2.854990243911743 -8.828665733337402 -2.402448892593384
3.0327489376068115 -8.769367218017578 -2.402491807937622
3.730776309967041 -8.496639251708984 -2.4026613235473633
4.568681716918945 -8.07794189453125 -2.402864456176758
4.891308307647705 -7.887126445770264 -2.4029428958892822
5.205971717834473 -7.683420658111572 -2.4030191898345947
5.360151290893555 -7.576837539672852 -2.4030566215515137
5.512157917022705 -7.467164516448975 -2.4030935764312744
5.661918640136719 -7.354438781738281 -2.403130054473877
6.097114086151123 -6.998418807983398 -2.403235673904419
6.374921798706055 -6.746697425842285 -2.403303384780884
6.642333984375 -6.483943462371826 -2.4033682346343994
6.772011756896973 -6.348569393157959 -2.40339994430542
6.89892053604126 -6.21059513092041 -2.403430700302124
7.144272327423096 -5.927092552185059 -2.4034903049468994
7.490312099456787 -5.483823299407959 -2.4035747051239014
7.705800533294678 -5.177000999450684 -2.4036271572113037
7.808862209320068 -5.020379066467285 -2.4036521911621094
7.908725261688232 -4.86171293258667 -2.403676748275757
8.005375862121582 -4.701050281524658 -2.403700113296509
8.2755708694458 -4.207807540893555 -2.40376615524292
8.43887710571289 -3.8702666759490967 -2.403806209564209
8.515376091003418 -3.699087142944336 -2.403824806213379
8.588408470153809 -3.526395082473755 -2.4038424491882324
8.723916053771973 -3.176762104034424 -2.4038758277893066
8.786356925964355 -2.99996018409729 -2.403891086578369
8.84518051147461 -2.821927309036255 -2.4039056301116943
8.999975204467773 -2.281207799911499 -2.4039435386657715
9.044242858886719 -2.0990004539489746 -2.40395450592041
9.249970436096191 -0.803737461566925 -2.404005765914917
9.264326095581055 -0.6167755126953125 -2.4040093421936035
9.274897575378418 -0.4295617640018463 -2.4040122032165527
