ply
format ascii 1.0
element vertex 205
property float x
property float y
property float z
end_header
-29.570262908935547 36.32063293457031 -1.3187947273254395
-29.961896896362305 32.594600677490234 -1.2466424703598022
-29.962308883666992 31.313678741455078 -1.2203340530395508
-30.11332893371582 30.236440658569336 -1.2016026973724365
-31.042997360229492 28.770212173461914 -1.191779375076294
-23.615447998046875 40.938419342041016 -2.396824359893799
-25.230873107910156 39.95515441894531 -2.3964827060699463
-25.37869644165039 38.46232223510742 -2.3369460105895996
-25.390478134155273 36.85429000854492 -2.26965594291687
-27.240055084228516 34.86054229736328 -2.2436540126800537
-29.255537033081055 33.13300323486328 -2.241586923599243
-29.774105072021484 32.39030075073242 -2.2312088012695312
-30.11003875732422 30.233150482177734 -2.163926601409912
-30.0833740234375 29.021163940429688 -2.1198530197143555
-31.3035831451416 29.011722564697266 -2.1644935607910156
-16.907079696655273 27.99943733215332 -2.398224353790283
-19.08797264099121 26.55286979675293 -2.397763252258301
-20.133182525634766 25.765512466430664 -2.3975419998168945
-20.643762588500977 25.356353759765625 -2.3974339962005615
-21.146047592163086 24.9371337890625 -2.3973278999328613
-21.639842987060547 24.507946014404297 -2.3972232341766357
-23.526174545288086 22.695470809936523 -2.3968236446380615
-23.974628448486328 22.21933937072754 -2.396728754043579
-12.486845016479492 21.646501541137695 -2.399149179458618
-13.76150131225586 20.85603141784668 -2.3988797664642334
-14.583847045898438 20.28726577758789 -2.3987059593200684
-14.986330032348633 19.990705490112305 -2.39862060546875
-15.38277530670166 19.686166763305664 -2.3985369205474854
-15.77306079864502 19.373756408691406 -2.398454189300537
-16.1569766998291 19.053632736206055 -2.3983731269836426
-16.9052734375 18.39071273803711 -2.39821457862854
-17.626441955566406 17.698528289794922 -2.398061990737915
-17.97646141052246 17.34173011779785 -2.3979878425598145
-18.319303512573242 16.97807502746582 -2.3979151248931885
-10.09420108795166 17.49874496459961 -2.399649143218994
-10.441996574401855 17.292753219604492 -2.399575710296631
-10.785595893859863 17.079814910888672 -2.399502992630005
-11.124835968017578 16.860084533691406 -2.3994312286376953
-12.115248680114746 16.16088104248047 -2.399221658706665
-12.435836791992188 15.914794921875 -2.3991539478302
-13.367133140563965 15.13879108428955 -2.398956775665283
-14.250192642211914 14.308445930480957 -2.3987698554992676
-14.810526847839355 13.726179122924805 -2.398651123046875
-7.926681995391846 13.741238594055176 -2.24770188331604
-8.19982624053955 13.5795259475708 -2.2476441860198975
-8.469684600830078 13.412402153015137 -2.247587203979492
-8.736132621765137 13.239912033081055 -2.247530937194824
-8.999086380004883 13.06214714050293 -2.2474751472473145
-10.158617973327637 13.550874710083008 -2.3996315002441406
-10.427473068237305 13.344610214233398 -2.3995745182037354
-10.952533721923828 12.916107177734375 -2.399463415145874
-11.208537101745605 12.694089889526367 -2.399409055709839
-11.706926345825195 12.234936714172363 -2.399303674697876
-12.186542510986328 11.756244659423828 -2.3992021083831787
-12.419084548950195 11.509835243225098 -2.3991527557373047
-6.818295955657959 11.819808006286621 -2.2479336261749268
-7.5146484375 11.388717651367188 -2.247786283493042
-7.740859031677246 11.235843658447266 -2.2477383613586426
-7.963950157165527 11.078471183776855 -2.2476913928985596
-8.823525428771973 10.405409812927246 -2.247509479522705
-9.02978229522705 10.226564407348633 -2.2474658489227295
-9.232426643371582 10.043661117553711 -2.247422933578491
-9.43136215209961 9.856740951538086 -2.2473807334899902
-10.278735160827637 10.32076358795166 -2.3996026515960693
-10.482999801635742 10.112842559814453 -2.399559497833252
-5.976406097412109 10.36034870147705 -2.248110294342041
-7.363347053527832 9.423261642456055 -2.2478160858154297
-7.55028772354126 9.273877143859863 -2.247776508331299
-7.734203815460205 9.120794296264648 -2.2477376461029053
-7.915017127990723 8.964064598083496 -2.247699499130249
-8.267050743103027 8.63992977142334 -2.2476248741149902
-8.438139915466309 8.472648620605469 -2.247588634490967
-5.31460428237915 9.213088035583496 -2.2482504844665527
-6.207734107971191 8.635437965393066 -2.248058795928955
-6.379174709320068 8.509360313415527 -2.2480225563049316
-6.87786865234375 8.110940933227539 -2.2479171752929688
-7.351762294769287 7.683348178863525 -2.247816801071167
-7.799142837524414 7.228140830993652 -2.2477219104766846
-4.780195236206055 8.286673545837402 -2.248363494873047
-4.944970607757568 8.18923568725586 -2.24832820892334
-5.268491268157959 7.984586238861084 -2.2482588291168213
-5.737773418426514 7.653789043426514 -2.2481582164764404
-5.889687538146973 7.537339687347412 -2.2481257915496826
-6.039237976074219 7.417878150939941 -2.248093605041504
-6.331010818481445 7.170110702514648 -2.2480313777923584
-6.612636566162109 6.910889625549316 -2.247971773147583
-6.749516487121582 6.777108192443848 -2.2479426860809326
-4.339228630065918 7.522227764129639 -2.2484567165374756
-4.78249979019165 7.248046875 -2.248361825942993
-4.926498889923096 7.150796890258789 -2.24833083152771
-5.208515644073486 6.947782039642334 -2.2482705116271973
-5.346425533294678 6.842092037200928 -2.2482409477233887
-5.482182502746582 6.733656883239746 -2.2482118606567383
-5.615736961364746 6.622533798217773 -2.248183012008667
-5.747050762176514 6.508759498596191 -2.248154878616333
-6.002719402313232 6.273453235626221 -2.2480995655059814
-6.126977443695068 6.152022361755371 -2.2480733394622803
-6.24877405166626 6.028127193450928 -2.2480478286743164
-6.368066310882568 5.901824951171875 -2.2480223178863525
-3.96880841255188 6.880099773406982 -2.24853515625
-4.105634689331055 6.79922342300415 -2.2485060691833496
-4.240805625915527 6.715624809265137 -2.248476982116699
-4.763974666595459 6.354732513427734 -2.2483644485473633
-5.014238357543945 6.158895015716553 -2.2483108043670654
-5.374536037445068 5.846785545349121 -2.248236894607544
-5.604043006896973 5.626954078674316 -2.248189687728882
-5.715439319610596 5.513633728027344 -2.2481648921966553
-3.6529736518859863 6.332583904266357 -2.2486016750335693
-3.9033203125 6.181205749511719 -2.2485482692718506
-4.026171684265137 6.10180139541626 -2.2485220432281494
-4.266992092132568 5.935695648193359 -2.248471736907959
-4.500961780548096 5.760114669799805 -2.2484281063079834
-4.738764762878418 5.588322639465332 -2.2536325454711914
-5.053539752960205 5.281468391418457 -2.2483136653900146
-5.361137390136719 4.968620300292969 -2.2482473850250244
-3.496772289276123 5.790907859802246 -2.2486424446105957
-3.734199047088623 5.659306526184082 -2.2537970542907715
-3.9573681354522705 5.504997253417969 -2.2536427974700928
-4.066421031951904 5.424314022064209 -2.253477096557617
-4.485713005065918 5.080241680145264 -2.252779960632324
-4.586093425750732 4.989067077636719 -2.2525975704193115
-4.960903167724609 4.597691535949707 -2.2483327388763428
-3.1490917205810547 5.4590744972229 -2.253725290298462
-3.2574853897094727 5.394645690917969 -2.2535886764526367
-3.364570140838623 5.328052997589111 -2.253448486328125
-3.470278263092041 5.259332180023193 -2.2533047199249268
-3.574589729309082 5.188500881195068 -2.253157377243042
-3.778803586959839 5.040647983551025 -2.2528531551361084
-3.8786230087280273 4.963685035705566 -2.2526957988739014
-4.168525218963623 4.721017360687256 -2.2522053718566895
-4.261836051940918 4.636315822601318 -2.252035617828369
-4.353417873382568 4.54976749420166 -2.2518630027770996
-4.443232536315918 4.46140193939209 -2.251687526702881
-3.0389745235443115 5.03277587890625 -2.2529890537261963
-3.1388866901397705 4.970672607421875 -2.2528584003448486
-3.2375242710113525 4.906579494476318 -2.2527244091033936
-3.525390625 4.702630043029785 -2.252303123474121
-3.618544816970825 4.6308465003967285 -2.2521564960479736
-3.8890674114227295 4.404515266418457 -2.2516989707946777
-4.14541482925415 4.162369251251221 -2.251216173171997
-2.938359260559082 4.653124809265137 -2.2523343563079834
-3.030703067779541 4.593144416809082 -2.252208709716797
-3.121830940246582 4.531325817108154 -2.2520804405212402
-3.211679697036743 4.467695236206055 -2.251948833465576
-3.300234317779541 4.402276039123535 -2.251814603805542
-3.4732959270477295 4.266185760498047 -2.251537322998047
-3.557734251022339 4.19556999206543 -2.251394510269165
-3.8022849559783936 3.9737842082977295 -2.250950336456299
-3.8807713985443115 3.8966429233551025 -2.2507970333099365
-4.033007621765137 3.7377336025238037 -2.250483512878418
-2.582094669342041 4.476166248321533 -2.252091646194458
-2.8455517292022705 4.312531471252441 -2.2517471313476562
-2.931108236312866 4.254502296447754 -2.251626491546631
-3.180546760559082 4.070309162139893 -2.2512481212615967
-3.418398380279541 3.871467113494873 -2.2508461475372314
-3.4949657917022705 3.8020598888397217 -2.2507071495056152
-3.5701122283935547 3.7311370372772217 -2.250565767288208
-3.6438231468200684 3.658722400665283 -2.2504217624664307
-3.716059446334839 3.5848467350006104 -2.2502758502960205
-3.7867918014526367 3.5095465183258057 -2.2501275539398193
-2.514331102371216 4.1639251708984375 -2.2515499591827393
-2.678657054901123 4.05959939956665 -2.251331090927124
-2.91692852973938 3.8909807205200195 -2.2509825229644775
-3.069941282272339 3.7707488536834717 -2.2507376670837402
-3.144599437713623 3.7083630561828613 -2.2506115436553955
-3.2179784774780273 3.6444883346557617 -2.2504830360412598
-3.2900683879852295 3.5791642665863037 -2.250352144241333
-3.498242139816284 3.3747215270996094 -2.249946355819702
-2.450273275375366 3.8802013397216797 -2.2510581016540527
-2.6782665252685547 3.725677967071533 -2.250736951828003
-2.752143383026123 3.6711621284484863 -2.250624895095825
-2.824902296066284 3.615175724029541 -2.2505106925964355
-2.966967821121216 3.498892068862915 -2.250274896621704
-3.104248046875 3.3770134449005127 -2.250030279159546
-3.1710205078125 3.314040422439575 -2.2499046325683594
-3.23650860786438 3.2497448921203613 -2.24977707862854
-3.3006932735443115 3.184150218963623 -2.249647378921509
-3.3635449409484863 3.1172893047332764 -2.2495155334472656
-2.168017625808716 3.758352518081665 -2.250898599624634
-2.242690324783325 3.714066743850708 -2.2508046627044678
-2.316459894180298 3.6682891845703125 -2.2507083415985107
-2.3892822265625 3.621047258377075 -2.2506096363067627
-2.4611473083496094 3.5723559856414795 -2.2505083084106445
-2.601870059967041 3.470703601837158 -2.2502989768981934
-2.7383787631988525 3.3634965419769287 -2.2500805854797363
-2.9347851276397705 3.192662239074707 -2.249736785888672
-2.997919797897339 3.1331377029418945 -2.2496180534362793
-3.0598535537719727 3.0723626613616943 -2.249497413635254
-2.05322265625 3.559352397918701 -2.25056791305542
-2.1239452362060547 3.5174174308776855 -2.250478982925415
-2.2627928256988525 3.4293394088745117 -2.2502942085266113
-2.4641308784484863 3.2869787216186523 -2.25
-2.529287099838257 3.2368688583374023 -2.2498974800109863
-2.5934276580810547 3.185465097427368 -2.249793291091919
-2.7185449600219727 3.078857898712158 -2.2495779991149902
-2.779472589492798 3.023696184158325 -2.249467611312866
-2.8979246616363525 2.9097795486450195 -2.2492408752441406
-3.011713743209839 2.791213274002075 -2.249006986618042
-2.210883855819702 3.2090983390808105 -2.249912738800049
-2.2745556831359863 3.164088726043701 -2.2498199939727783
-2.3991308212280273 3.070289134979248 -2.2496275901794434
-2.459975481033325 3.0215368270874023 -2.249528646469116
-2.6364598274230957 2.868114471435547 -2.2492198944091797
-2.748832941055298 2.7600719928741455 -2.24900484085083
-2.8033740520477295 2.704385280609131 -2.248894691467285
