ply
format ascii 1.0
element vertex 253
property float x
property float y
property float z
end_header
41.52474594116211 -23.01216697692871 -2.4076530933380127
42.417118072509766 -21.32805061340332 -2.4077811241149902
42.83789825439453 -20.47254180908203 -2.407841682434082
43.62712860107422 -18.737943649291992 -2.4079551696777344
43.79601287841797 -16.762054443359375 -2.378202199935913
43.83818435668945 -15.776862144470215 -2.3628134727478027
44.482460021972656 -14.01926040649414 -2.365283250808716
46.13079071044922 -10.558950424194336 -2.399986505508423
46.48602294921875 -8.693028450012207 -2.398366689682007
46.63623046875 -7.755713939666748 -2.397601842880249
46.88175582885742 -5.8741068840026855 -2.396162509918213
46.97700881958008 -4.9305100440979 -2.395488739013672
29.013572692871094 -15.325724601745605 -2.4058892726898193
29.31587791442871 -14.740522384643555 -2.405932903289795
29.606386184692383 -14.149370193481445 -2.4059746265411377
30.149179458618164 -12.949136734008789 -2.405879020690918
30.872167587280273 -11.11054515838623 -2.4057421684265137
31.29212760925293 -9.862143516540527 -2.4056551456451416
31.48768424987793 -9.233532905578613 -2.4059786796569824
31.66714859008789 -8.599447250366211 -2.4059898853302
31.986982345581055 -7.3215484619140625 -2.406008005142212
32.12751007080078 -6.678092956542969 -2.406015157699585
32.55990982055664 -4.079634189605713 -2.4060306549072266
32.69736099243164 -2.769509792327881 -2.4060304164886475
22.14970588684082 -11.700051307678223 -2.404921293258667
22.81462860107422 -10.346182823181152 -2.4050166606903076
23.01797866821289 -9.886273384094238 -2.405045986175537
23.572059631347656 -8.483315467834473 -2.4051260948181152
23.737812042236328 -8.008544921875 -2.4051499366760254
24.040584564208984 -7.049470901489258 -2.40519380569458
24.30453109741211 -6.078948020935059 -2.4052324295043945
24.529062271118164 -5.0986127853393555 -2.4052467346191406
24.714052200317383 -4.1100053787231445 -2.40525484085083
24.916610717773438 -2.615147113800049 -2.405259132385254
17.8973331451416 -9.453839302062988 -2.4043214321136475
18.083690643310547 -9.092787742614746 -2.404348134994507
18.262723922729492 -8.728062629699707 -2.40437388420105
18.598711013793945 -7.988184452056885 -2.4044222831726074
18.75550651550293 -7.61333703994751 -2.404444932937622
19.180204391479492 -6.470919132232666 -2.404506206512451
19.42473602294922 -5.69596004486084 -2.4045417308807373
19.535146713256836 -5.304947376251221 -2.404557704925537
19.732685089111328 -4.516646862030029 -2.4045865535736084
20.086406707763672 -2.516752004623413 -2.4046387672424316
20.1329288482666 -2.113072395324707 -2.4046456813812256
20.171337127685547 -1.7085354328155518 -2.404651641845703
15.001771926879883 -7.9243292808532715 -2.4039130210876465
15.15794849395752 -7.621676921844482 -2.403935432434082
15.308027267456055 -7.31595516204834 -2.403956890106201
15.589579582214355 -6.695755958557129 -2.4039974212646484
15.846014976501465 -6.064747333526611 -2.404034376144409
16.07695198059082 -5.423935890197754 -2.4040677547454834
16.282617568969727 -4.774342060089111 -2.40409779548645
16.46051788330078 -4.117055892944336 -2.404123544692993
16.539901733398438 -3.7858433723449707 -2.40413498878479
16.612655639648438 -3.453105926513672 -2.4041457176208496
16.790546417236328 -2.4470455646514893 -2.404171943664551
16.907508850097656 -1.4320852756500244 -2.4041895866394043
12.901171684265137 -6.814736366271973 -2.4036166667938232
13.0354585647583 -6.554450035095215 -2.4036357402801514
13.288247108459473 -6.026069164276123 -2.403672218322754
13.7291259765625 -4.94095516204834 -2.403735876083374
13.825610160827637 -4.6644158363342285 -2.403749704360962
14.00182056427002 -4.105785369873047 -2.403775215148926
14.155463218688965 -3.5405256748199463 -2.4037976264953613
14.22374439239502 -3.2556943893432617 -2.4038076400756836
14.394062042236328 -2.393767833709717 -2.4038326740264893
14.478617668151855 -1.8141164779663086 -2.4038453102111816
12.03176212310791 -4.3300909996032715 -2.403496026992798
12.40536117553711 -3.1027941703796387 -2.403550386428833
12.465194702148438 -2.853177309036255 -2.4035589694976807
12.519989967346191 -2.6024069786071777 -2.40356707572937
12.569730758666992 -2.3505797386169434 -2.4035744667053223
12.654013633728027 -1.8441894054412842 -2.4035868644714355
12.717905044555664 -1.3348199129104614 -2.4035964012145996
12.74215316772461 -1.0792748928070068 -2.4036002159118652
10.354409217834473 -4.695612907409668 -2.4032580852508545
10.618417739868164 -4.0639872550964355 -2.4032962322235107
10.7730712890625 -3.6345629692077637 -2.4033186435699463
10.843911170959473 -3.417606830596924 -2.4033288955688477
10.910370826721191 -3.1992712020874023 -2.403338670730591
11.030057907104492 -2.758807420730591 -2.4033560752868652
11.083247184753418 -2.536862850189209 -2.4033637046813965
11.176196098327637 -2.089984655380249 -2.4033772945404053
11.281805992126465 -1.413568377494812 -2.403393030166626
11.330336570739746 -0.9596807360649109 -2.403400421142578
8.943676948547363 -4.956172943115234 -2.4030580520629883
9.135102272033691 -4.593287467956543 -2.403085470199585
9.225507736206055 -4.409021377563477 -2.4030985832214355
9.47427749633789 -3.845852851867676 -2.403134346008301
9.5496187210083 -3.654926061630249 -2.4031453132629395
9.688695907592773 -3.2687230110168457 -2.403165340423584
9.752387046813965 -3.0736002922058105 -2.403174638748169
9.81215763092041 -2.8772389888763428 -2.4031834602355957
9.919809341430664 -2.481114149093628 -2.4031989574432373
9.967626571655273 -2.281506299972534 -2.4032058715820312
10.011445045471191 -2.080979824066162 -2.403212308883667
10.086953163146973 -1.6774834394454956 -2.4032235145568848
10.118608474731445 -1.474680781364441 -2.403228282928467
10.146185874938965 -1.2712786197662354 -2.4032323360443115
10.169672966003418 -1.0673677921295166 -2.403235912322998
10.18905258178711 -0.8630254864692688 -2.4032387733459473
8.117538452148438 -4.498572826385498 -2.4029414653778076
8.206239700317383 -4.334751129150391 -2.402954339981079
8.452372550964355 -3.8330578804016113 -2.4029898643493652
8.527661323547363 -3.662645101547241 -2.403000593185425
8.599482536315918 -3.4907515048980713 -2.403010845184326
8.732733726501465 -3.1428139209747314 -2.4030301570892334
8.794086456298828 -2.966905355453491 -2.40303897857666
8.851899147033691 -2.7897987365722656 -2.4030473232269287
8.90615177154541 -2.6115691661834717 -2.403055429458618
8.956801414489746 -2.432286262512207 -2.403062582015991
9.087026596069336 -1.888828992843628 -2.4030816555023193
9.184287071228027 -1.3385121822357178 -2.4030961990356445
9.230629920959473 -0.9688097834587097 -2.4031028747558594
7.424027919769287 -4.11424446105957 -2.402843713760376
7.730244159698486 -3.505580425262451 -2.4028878211975098
7.864779949188232 -3.192516326904297 -2.402907133102417
7.927319049835205 -3.0340209007263184 -2.402916193008423
8.145238876342773 -2.388439655303955 -2.4029479026794434
8.234580039978027 -2.0596065521240234 -2.402960777282715
8.274276733398438 -1.893911361694336 -2.4029664993286133
8.34366226196289 -1.5602898597717285 -2.4029767513275146
8.399599075317383 -1.2241524457931519 -2.402985095977783
6.832773208618164 -3.786587953567505 -2.4027605056762695
6.907451152801514 -3.648693799972534 -2.40277099609375
6.979321002960205 -3.509321451187134 -2.4027814865112305
7.177958965301514 -3.0829498767852783 -2.4028100967407227
7.238412857055664 -2.9382596015930176 -2.4028186798095703
7.350575923919678 -2.6453840732574463 -2.4028351306915283
7.402202129364014 -2.497325897216797 -2.4028422832489014
7.450854301452637 -2.3482470512390137 -2.4028494358062744
7.539150238037109 -2.0473146438598633 -2.402862310409546
7.679145336151123 -1.436023473739624 -2.4028828144073486
7.706430435180664 -1.2815978527069092 -2.4028868675231934
7.751684188842773 -0.9712579250335693 -2.402893543243408
6.32226037979126 -3.503666877746582 -2.402688503265381
6.457841873168945 -3.247114419937134 -2.402707815170288
6.521742820739746 -3.1168479919433594 -2.402717113494873
6.641635417938232 -2.852595090866089 -2.4027342796325684
6.697577953338623 -2.7187206745147705 -2.402742385864258
6.750810623168945 -2.5837478637695312 -2.402750015258789
6.801337718963623 -2.447727680206299 -2.402757406234741
6.89415979385376 -2.1727800369262695 -2.402770757675171
6.936386585235596 -2.0339696407318115 -2.4027769565582275
7.046274185180664 -1.6128323078155518 -2.4027929306030273
7.130600452423096 -1.1858367919921875 -2.4028053283691406
7.15298318862915 -1.0424718856811523 -2.402808666229248
7.172465801239014 -0.8986840844154358 -2.4028115272521973
7.189076900482178 -0.7545364499092102 -2.4028141498565674
7.202773094177246 -0.6100839376449585 -2.4028162956237793
5.876562595367432 -3.256666898727417 -2.402625560760498
6.002577781677246 -3.018200397491455 -2.4026436805725098
6.173398494720459 -2.6514928340911865 -2.4026682376861572
6.321860313415527 -2.2751622200012207 -2.4026896953582764
6.408105373382568 -2.0196051597595215 -2.4027020931243896
6.48403787612915 -1.7607879638671875 -2.4027130603790283
6.549511432647705 -1.4991275072097778 -2.4027228355407715
6.627885818481445 -1.1022347211837769 -2.4027342796325684
6.648691177368164 -0.9689767360687256 -2.4027373790740967
6.666806697845459 -0.8353264927864075 -2.402740001678467
5.483681678771973 -3.0389561653137207 -2.4025702476501465
5.543598651885986 -2.92828106880188 -2.402578592300415
5.601284027099609 -2.816424608230591 -2.4025871753692627
5.760698318481445 -2.474228858947754 -2.4026100635528564
5.899213790893555 -2.123056650161743 -2.402629852294922
5.979701995849609 -1.8845843076705933 -2.402641534805298
6.111635684967041 -1.3989028930664062 -2.402660846710205
6.138500690460205 -1.275948405265808 -2.4026646614074707
6.184784889221191 -1.0285439491271973 -2.4026715755462646
6.204213619232178 -0.9041970372200012 -2.402674436569214
6.235507488250732 -0.6544533967971802 -2.402678966522217
5.134462833404541 -2.845414400100708 -2.4025208950042725
5.190561294555664 -2.7417895793914795 -2.402529001235962
5.244560241699219 -2.6370577812194824 -2.402536630630493
5.439242839813232 -2.207930326461792 -2.402564764022827
5.482475280761719 -2.09831166267395 -2.402570962905884
5.598866939544678 -1.7645611763000488 -2.402587890625
5.633168697357178 -1.6518267393112183 -2.402592658996582
5.665209770202637 -1.538427710533142 -2.402597427368164
5.694926738739014 -1.4244033098220825 -2.402601718902588
5.77038049697876 -1.0790798664093018 -2.4026129245758057
5.7908935546875 -0.9630395174026489 -2.402616024017334
5.824887752532959 -0.7298367023468018 -2.402621030807495
4.874360084533691 -2.574763059616089 -2.40248441696167
5.107890605926514 -2.073423147201538 -2.4025180339813232
5.290004730224609 -1.5511975288391113 -2.4025442600250244
5.320077896118164 -1.4447060823440552 -2.4025485515594482
5.348017692565918 -1.337630271911621 -2.402552843093872
5.438095569610596 -0.9043688774108887 -2.4025659561157227
5.455161094665527 -0.7950329184532166 -2.4025683403015137
5.470029354095459 -0.6853741407394409 -2.4025707244873047
5.482680320739746 -0.5754403471946716 -2.4025726318359375
5.493139743804932 -0.4652755558490753 -2.402574300765991
4.539638519287109 -2.51578426361084 -2.4024369716644287
4.589248180389404 -2.4241585731506348 -2.4024441242218018
4.80911111831665 -1.9521431922912598 -2.4024758338928223
4.847343444824219 -1.855222463607788 -2.4024813175201416
4.883608341217041 -1.757556438446045 -2.402486562728882
4.917914867401123 -1.6591808795928955 -2.402491569519043
5.008881568908691 -1.360199213027954 -2.4025046825408936
5.035190105438232 -1.2593868970870972 -2.402508497238159
5.059457778930664 -1.158066987991333 -2.4025120735168457
5.08169412612915 -1.056280493736267 -2.402515411376953
5.101870059967041 -0.9540661573410034 -2.4025182723999023
5.161982536315918 -0.5417807102203369 -2.402527332305908
4.375654220581055 -2.2001547813415527 -2.402414083480835
4.4189453125 -2.111887216567993 -2.4024202823638916
4.500165939331055 -1.9328325986862183 -2.4024319648742676
4.574135780334473 -1.7506628036499023 -2.402442693710327
4.608364105224609 -1.658500075340271 -2.4024477005004883
4.640737056732178 -1.5656689405441284 -2.402452230453491
4.774301528930664 -1.0927975177764893 -2.4024717807769775
4.814321041107178 -0.9002947807312012 -2.402477741241455
4.831435203552246 -0.8034793138504028 -2.402480125427246
4.846362113952637 -0.7063217163085938 -2.402482509613037
4.0504150390625 -2.244659662246704 -2.4023680686950684
4.178203105926514 -1.9968312978744507 -2.402386426925659
4.290834903717041 -1.7417608499526978 -2.402402639389038
4.324936389923096 -1.6552859544754028 -2.40240740776062
4.357304573059082 -1.5681442022323608 -2.402412176132202
4.387909889221191 -1.480371117591858 -2.402416706085205
4.416748046875 -1.3919991254806519 -2.40242075920105
4.443808555603027 -1.3030675649642944 -2.4024248123168945
4.534028053283691 -0.9424444437026978 -2.402437925338745
4.605669021606445 -0.4833917021751404 -2.4024484157562256
4.614443302154541 -0.3908489942550659 -2.4024498462677
3.8364696502685547 -2.1260926723480225 -2.4023377895355225
3.9574902057647705 -1.891353726387024 -2.402355194091797
4.156123161315918 -1.4021731615066528 -2.402383804321289
4.183447360992432 -1.318469762802124 -2.402387857437134
4.209082126617432 -1.234235167503357 -2.4023916721343994
4.255229473114014 -1.0643056631088257 -2.4023983478546143
4.275742053985596 -0.9786807298660278 -2.4024012088775635
4.311586856842041 -0.8062798976898193 -2.4024064540863037
4.326899528503418 -0.7195748686790466 -2.4024088382720947
4.340478420257568 -0.6325799226760864 -2.4024107456207275
4.352299690246582 -0.5453280806541443 -2.4024124145507812
4.362372875213623 -0.4578576683998108 -2.402414083480835
3.6394286155700684 -2.016894578933716 -2.4023098945617676
3.6791844367980957 -1.9434407949447632 -2.402315855026245
3.717460870742798 -1.8692030906677246 -2.4023213386535645
3.7542381286621094 -1.7942129373550415 -2.4023265838623047
3.789506673812866 -1.7184988260269165 -2.402331590652466
3.8554441928863525 -1.565022587776184 -2.40234112739563
3.8860790729522705 -1.4873217344284058 -2.4023454189300537
3.9928855895996094 -1.1708425283432007 -2.4023609161376953
4.015590667724609 -1.090462327003479 -2.4023642539978027
4.036674499511719 -1.0096410512924194 -2.402367353439331
4.056128025054932 -0.9284145832061768 -2.4023702144622803
4.073950290679932 -0.846811830997467 -2.4023728370666504
4.104667663574219 -0.6826162338256836 -2.4023773670196533
4.146205902099609 -0.3511889576911926 -2.40238356590271
