ply
format ascii 1.0
element vertex 204
property float x
property float y
property float z
end_header
-19.44428062438965 44.43612289428711 -0.2730845510959625
-19.116031646728516 46.11661148071289 -1.4056789875030518
-7.479352951049805 46.72496795654297 -2.399782180786133
-8.389055252075195 46.56526565551758 -2.399536371231079
-9.295366287231445 46.38785171508789 -2.399291515350342
-10.197949409484863 46.19293212890625 -2.399047613143921
-11.096479415893555 45.9804573059082 -2.3988046646118164
-11.990622520446777 45.75048828125 -2.3985631465911865
-14.714484214782715 42.350257873535156 -2.27370285987854
-18.516136169433594 40.16185760498047 -2.242816209793091
-5.174491882324219 32.32605743408203 -2.4003891944885254
-6.431296348571777 32.09493637084961 -2.4000496864318848
-7.677924633026123 31.81498908996582 -2.3997128009796143
-8.296857833862305 31.65691375732422 -2.399545431137085
-8.912524223327637 31.486705780029297 -2.399379014968872
-10.737772941589355 30.90473747253418 -2.398885488510132
-12.525529861450195 30.217321395874023 -2.398402214050293
-13.112060546875 29.965097427368164 -2.3982434272766113
-14.269701957702637 29.4266414642334 -2.397930383682251
-3.952458381652832 24.69179344177246 -2.4007110595703125
-5.389873027801514 24.414186477661133 -2.400322675704956
-6.337949275970459 24.182645797729492 -2.400066375732422
-6.808391094207764 24.053035736083984 -2.3999392986297607
-7.27618408203125 23.914363861083984 -2.399812936782837
-7.74114465713501 23.76652717590332 -2.3996870517730713
-8.661913871765137 23.44388198852539 -2.3994381427764893
-9.569303512573242 23.08555030822754 -2.3991928100585938
-10.017568588256836 22.89324188232422 -2.399071455001831
-3.194716691970825 19.958017349243164 -2.4009106159210205
-3.583488702774048 19.89097785949707 -2.400805711746216
-5.123134613037109 19.5474796295166 -2.4003894329071045
-5.503459453582764 19.442949295043945 -2.4002866744995117
-6.631064414978027 19.085107803344727 -2.399981737136841
-8.09810733795166 18.506671905517578 -2.399585008621216
-8.457436561584473 18.344358444213867 -2.3994879722595215
-8.81351089477539 18.175060272216797 -2.3993916511535645
-3.0044384002685547 16.67678451538086 -2.40095853805542
-3.6527392864227295 16.54559326171875 -2.4007833003997803
-4.295400142669678 16.389240264892578 -2.4006097316741943
-4.931418418884277 16.20793342590332 -2.400437831878662
-5.87090539932251 15.88988208770752 -2.40018367767334
-6.790087699890137 15.517448425292969 -2.399935007095337
-7.390034198760986 15.239596366882324 -2.399772882461548
-2.303784132003784 14.392218589782715 -2.4011452198028564
-2.8635594844818115 14.290433883666992 -2.400994062423706
-3.418898820877075 14.166906356811523 -2.400843858718872
-4.241755485534668 13.941234588623047 -2.4006214141845703
-4.782336235046387 13.764227867126465 -2.40047550201416
-5.049919128417969 13.667858123779297 -2.4004030227661133
-5.315566062927246 13.566279411315918 -2.4003312587738037
-5.579179763793945 13.459547996520996 -2.4002597332000732
-5.840651512145996 13.347700119018555 -2.400189161300659
-6.099880218505859 13.23076343536377 -2.4001190662384033
-6.356760025024414 13.108810424804688 -2.4000494480133057
-2.5098876953125 12.525404930114746 -2.401087522506714
-2.9966650009155273 12.417238235473633 -2.400956153869629
-3.238356828689575 12.356040000915527 -2.400890827178955
-3.7179222106933594 12.21957778930664 -2.400761127471924
-4.659196853637695 11.891105651855469 -2.4005064964294434
-4.890261173248291 11.797585487365723 -2.4004440307617188
-5.346721172332764 11.597150802612305 -2.4003207683563232
-5.571904182434082 11.49028491973877 -2.4002597332000732
-2.014106512069702 11.179758071899414 -2.4012200832366943
-2.231879949569702 11.138044357299805 -2.4011611938476562
-2.879692316055298 10.987528800964355 -2.4009861946105957
-3.093522787094116 10.928972244262695 -2.400928258895874
-3.306162118911743 10.866247177124023 -2.4008708000183105
-3.5175366401672363 10.799399375915527 -2.400813579559326
-3.93615460395813 10.6533784866333 -2.400700569152832
-4.954926490783691 10.21796703338623 -2.4004249572753906
-1.8115307092666626 10.055306434631348 -2.401273488998413
-2.0074048042297363 10.017816543579102 -2.4012205600738525
-2.2024998664855957 9.9765043258667 -2.401167869567871
-2.3967480659484863 9.931400299072266 -2.4011154174804688
-2.590078115463257 9.882513999938965 -2.4010632038116455
-2.78240704536438 9.82986831665039 -2.4010112285614014
-3.1638011932373047 9.713364601135254 -2.4009079933166504
-3.5403318405151367 9.58207893371582 -2.400806188583374
-1.64437735080719 9.127495765686035 -2.401317596435547
-1.8221850395202637 9.093485832214355 -2.4012696743011475
-1.9992773532867432 9.056002616882324 -2.401221752166748
-2.175607919692993 9.015079498291016 -2.4011740684509277
-2.3511035442352295 8.970718383789062 -2.4011266231536865
-2.6993260383605957 8.871773719787598 -2.4010324478149414
-2.8719139099121094 8.817228317260742 -2.4009859561920166
-3.043400764465332 8.75932502746582 -2.400939464569092
-3.2137255668640137 8.698095321655273 -2.400893449783325
-3.382814884185791 8.633540153503418 -2.4008476734161377
-3.550610303878784 8.56570816040039 -2.4008023738861084
-3.717050790786743 8.49461841583252 -2.400757312774658
-1.3407763242721558 8.376090049743652 -2.4013988971710205
-1.5039745569229126 8.348170280456543 -2.4013547897338867
-1.828579068183899 8.28281307220459 -2.4012670516967773
-1.9898632764816284 8.245391845703125 -2.4012234210968018
-2.468874454498291 8.114365577697754 -2.4010939598083496
-2.6267356872558594 8.064489364624023 -2.4010512828826904
-2.7835888862609863 8.011548042297363 -2.4010088443756104
-2.9393725395202637 7.955547332763672 -2.4009666442871094
-3.247512102127075 7.83449649810791 -2.400883436203003
-3.3997485637664795 7.769484043121338 -2.4008421897888184
-3.5506858825683594 7.701517581939697 -2.400801420211792
-1.3842675685882568 7.683695316314697 -2.401386260986328
-1.6830395460128784 7.623559951782227 -2.401305675506592
-1.8314868211746216 7.589132308959961 -2.4012656211853027
-1.9792308807373047 7.551813125610352 -2.4012255668640137
-2.126213312149048 7.51162052154541 -2.4011857509613037
-2.705449104309082 7.322417259216309 -2.401029348373413
-2.8478026390075684 7.26810359954834 -2.4009909629821777
-3.268129825592041 7.0886454582214355 -2.4008772373199463
-3.4058103561401367 7.02340030670166 -2.4008402824401855
-1.1418895721435547 7.1336493492126465 -2.4014511108398438
-1.41940176486969 7.0834269523620605 -2.401376247406006
-1.5573607683181763 7.054263114929199 -2.401338815689087
-1.6947191953659058 7.0224127769470215 -2.401301860809326
-1.9674413204193115 6.9507060050964355 -2.401228189468384
-2.1027002334594727 6.910871982574463 -2.401191473007202
-2.3707494735717773 6.823338985443115 -2.4011192321777344
-2.5034399032592773 6.775668144226074 -2.401083469390869
-2.6351659297943115 6.725414276123047 -2.401047945022583
-2.7658958435058594 6.6725993156433105 -2.401012420654297
-3.1515233516693115 6.499011516571045 -2.4009084701538086
-1.8288207054138184 6.460969924926758 -2.4012651443481445
-1.9545507431030273 6.423952102661133 -2.401231288909912
-2.079531192779541 6.384490013122559 -2.4011974334716797
-2.3270556926727295 6.298290252685547 -2.4011306762695312
-2.5710277557373047 6.202500343322754 -2.401064872741699
-2.6915600299835205 6.1510515213012695 -2.4010324478149414
-2.8110668659210205 6.097268581390381 -2.4010000228881836
-2.929499387741089 6.0411601066589355 -2.400968074798584
-0.9905028939247131 6.187869071960449 -2.401491165161133
-1.1110765933990479 6.167274475097656 -2.401458501815796
-1.2312207221984863 6.144331455230713 -2.401426076889038
-1.3508886098861694 6.119047164916992 -2.4013938903808594
-1.7066186666488647 6.0292582511901855 -2.4012978076934814
-1.8239550590515137 5.994718551635742 -2.401266098022461
-1.9405834674835205 5.9578986167907715 -2.4012346267700195
-2.056472063064575 5.918808937072754 -2.4012033939361572
-2.2858471870422363 5.833889484405518 -2.40114164352417
-2.511728525161743 5.740082263946533 -2.40108060836792
-2.6232566833496094 5.68989896774292 -2.401050567626953
-0.9274462461471558 5.793954372406006 -2.40150785446167
-1.040346622467041 5.7746734619140625 -2.401477336883545
-1.1528441905975342 5.753195285797119 -2.40144681930542
-1.2648974657058716 5.729526996612549 -2.401416778564453
-1.707851529121399 5.613131523132324 -2.4012973308563232
-1.8170604705810547 5.578662395477295 -2.4012677669525146
-2.0333518981933594 5.503359794616699 -2.401209592819214
-2.1403491497039795 5.462560176849365 -2.4011805057525635
-2.246537923812866 5.419678211212158 -2.4011518955230713
-0.9769921898841858 5.423025608062744 -2.401494264602661
-1.082643985748291 5.402859210968018 -2.401465654373169
-1.3969335556030273 5.330051898956299 -2.401381015777588
-1.5006811618804932 5.3017096519470215 -2.401352882385254
-1.8083300590515137 5.204616069793701 -2.4012699127197266
-1.9095458984375 5.168272018432617 -2.401242733001709
-2.109748601913452 5.089689254760742 -2.401188611984253
-2.2086620330810547 5.047485828399658 -2.4011619091033936
-1.0193407535552979 5.086953639984131 -2.401482582092285
-1.1184154748916626 5.066033363342285 -2.401455879211426
-1.2170703411102295 5.043181419372559 -2.4014291763305664
-1.5100903511047363 4.963143825531006 -2.401350259780884
-1.6066503524780273 4.932672500610352 -2.4013242721557617
-1.7979052066802979 4.8661065101623535 -2.4012725353240967
-1.9864062070846558 4.792125701904297 -2.401221752166748
-2.079543352127075 4.7523908615112305 -2.4011964797973633
-2.171879768371582 4.710850715637207 -2.4011716842651367
-2.2633886337280273 4.667515277862549 -2.40114688873291
-0.7738427519798279 4.834346294403076 -2.4015486240386963
-0.8680444359779358 4.818268299102783 -2.4015231132507324
-1.0554150342941284 4.780625343322754 -2.401472806930542
-1.2411620616912842 4.735688209533691 -2.4014227390289307
-1.8745068311691284 4.522171974182129 -2.401251792907715
-2.0495386123657227 4.445480823516846 -2.4012045860290527
-2.1358885765075684 4.404587268829346 -2.401181221008301
-0.731701672077179 4.571060657501221 -2.401559829711914
-0.8207641243934631 4.55586051940918 -2.401535987854004
-0.9979369640350342 4.520267963409424 -2.4014880657196045
-1.1735668182373047 4.477787494659424 -2.4014406204223633
-1.3474072217941284 4.428486347198486 -2.4013938903808594
-1.519189476966858 4.372440814971924 -2.4013473987579346
-1.6886498928070068 4.309736251831055 -2.401301860809326
-1.8555346727371216 4.2404656410217285 -2.401256561279297
-1.937929630279541 4.203404426574707 -2.4012346267700195
-2.019580125808716 4.164740085601807 -2.401212453842163
-0.7774291634559631 4.315286636352539 -2.401547431945801
-0.9452368021011353 4.2815775871276855 -2.4015021324157715
-1.0286132097244263 4.262272834777832 -2.401479721069336
-1.1941601037979126 4.2188005447387695 -2.401435136795044
-1.2762621641159058 4.194650173187256 -2.4014129638671875
-1.3578784465789795 4.168903827667236 -2.40139102935791
-1.43899405002594 4.141571044921875 -2.4013688564300537
-1.5994677543640137 4.082180023193359 -2.4013261795043945
-1.6788305044174194 4.050145626068115 -2.4013044834136963
-1.7575511932373047 4.016571998596191 -2.4012832641601562
-1.912939429283142 3.9448492527008057 -2.4012415409088135
-0.7374926805496216 4.093719482421875 -2.4015581607818604
-0.8172387480735779 4.078506946563721 -2.401536703109741
-1.0545141696929932 4.023576736450195 -2.401472806930542
-1.2107274532318115 3.979287624359131 -2.40143084526062
-1.2881616353988647 3.954864501953125 -2.401409864425659
-1.441506266593933 3.9015092849731445 -2.4013686180114746
-1.5173680782318115 3.872598886489868 -2.401348114013672
-1.6673290729522705 3.810361862182617 -2.4013078212738037
-1.8147387504577637 3.742324113845825 -2.4012680053710938
