ply
format ascii 1.0
element vertex 318
property float x
property float y
property float z
end_header
2.0924267768859863 9.931192398071289 1.7895814180374146
2.038569211959839 12.126505851745605 2.1682333946228027
1.783144474029541 12.126503944396973 2.1612229347229004
1.025209903717041 12.126495361328125 2.1458566188812256
0.7745996117591858 12.126492500305176 2.1425857543945312
0.275146484375 12.126487731933594 2.1387782096862793
0.020864257588982582 9.77713680267334 1.7239766120910645
-0.38368162512779236 9.840457916259766 1.7364557981491089
-0.9873876571655273 9.779207229614258 1.733104944229126
2.0923779010772705 9.93093204498291 1.5547642707824707
1.5292675495147705 12.126501083374023 1.8724250793457031
1.2766942977905273 12.126497268676758 1.8679783344268799
0.7745996117591858 12.12649154663086 1.8614966869354248
-0.1783788949251175 9.683760643005371 1.4837489128112793
-0.3787890672683716 9.714874267578125 1.489395260810852
-0.5763378739356995 9.671174049377441 1.4841974973678589
2.092289924621582 8.236678123474121 1.1066514253616333
2.0923047065734863 9.008723258972168 1.2043483257293701
2.092343807220459 11.052044868469238 1.464769721031189
2.038569211959839 12.126504898071289 1.601280689239502
1.7831395864486694 12.126504898071289 1.5961039066314697
1.0252050161361694 12.126495361328125 1.5847550630569458
0.275146484375 12.126486778259277 1.579528570175171
0.025874022394418716 12.126483917236328 1.5791233777999878
-0.22336913645267487 12.126482963562012 1.579387903213501
-0.37404295802116394 9.593254089355469 1.2501920461654663
2.091489315032959 8.23351764678955 0.9122086763381958
2.0922558307647705 9.008511543273926 0.9930958151817322
2.0922703742980957 9.930441856384277 1.0897581577301025
1.783144474029541 12.12650203704834 1.3161667585372925
1.2766894102096558 12.12649917602539 1.3093605041503906
1.025209903717041 12.126495361328125 1.3068091869354248
0.7745996117591858 12.12649154663086 1.3048163652420044
0.2751415967941284 12.126486778259277 1.3024979829788208
-0.22337402403354645 12.126482963562012 1.3023831844329834
-0.5664501786231995 9.505253791809082 1.022500991821289
-0.7652050852775574 9.53567886352539 1.0272483825683594
-0.9659228324890137 9.566638946533203 1.0325044393539429
1.5292577743530273 12.126500129699707 1.034671425819397
1.2766894102096558 12.12649917602539 1.0322147607803345
0.7745996117591858 12.12649154663086 1.0286316871643066
0.5246484279632568 12.12648868560791 1.0275019407272339
0.2751415967941284 12.126486778259277 1.0268031358718872
-0.4728173613548279 12.126480102539062 1.027320384979248
-0.5595703125 9.389902114868164 0.7962910532951355
-0.7558788657188416 9.419429779052734 0.7999448776245117
2.0914111137390137 11.047136306762695 0.6972038149833679
1.783144474029541 12.12650203704834 0.7600544691085815
1.2766894102096558 12.126497268676758 0.7561243772506714
0.7745996117591858 12.126490592956543 0.75350022315979
0.5246484279632568 12.126487731933594 0.7526713609695435
-0.4728125035762787 12.12647819519043 0.7525379657745361
-0.7226513624191284 12.126474380493164 0.753301203250885
-0.9731054306030273 12.126471519470215 0.7543830871582031
-0.9881396293640137 9.786636352539062 0.6099589467048645
2.091362237930298 8.233014106750488 0.33494704961776733
2.091362237930298 9.004644393920898 0.3645133972167969
2.091357469558716 9.926108360290527 0.3999888598918915
2.091357469558716 11.046819686889648 0.4433250427246094
0.5246484279632568 12.126487731933594 0.47860732674598694
-0.22337402403354645 12.126480102539062 0.47823989391326904
-0.47282224893569946 12.12647819519043 0.47852247953414917
-0.9731054306030273 12.126471519470215 0.479695588350296
2.091318368911743 8.2328462600708 0.14348509907722473
2.09130859375 9.00444221496582 0.1561509668827057
2.091303586959839 9.925873756408691 0.1713474988937378
2.091303586959839 11.04651927947998 0.1899101287126541
2.038569211959839 12.126503944396973 0.20771408081054688
1.529262661933899 12.12649917602539 0.20646071434020996
1.0252050161361694 12.126493453979492 0.2055692970752716
0.7745996117591858 12.12648868560791 0.20525680482387543
0.5246533155441284 12.126487731933594 0.20503005385398865
0.275146484375 12.126484870910645 0.20489150285720825
0.025874022394418716 12.126482963562012 0.20483841001987457
-0.22337402403354645 12.126480102539062 0.204873189330101
-0.4728173613548279 12.12647819519043 0.20499496161937714
2.091254949569702 9.925625801086426 -0.05710906907916069
2.091245174407959 11.04624080657959 -0.06329528987407684
2.038564443588257 12.126503944396973 -0.06923080235719681
1.5292577743530273 12.12649917602539 -0.06881485134363174
1.0252050161361694 12.126493453979492 -0.06851714849472046
0.7745996117591858 12.12648868560791 -0.06841231882572174
-0.22337889671325684 12.126480102539062 -0.06828521937131882
-0.4728173613548279 12.12647819519043 -0.06832519173622131
-0.72265625 12.126473426818848 -0.06839355081319809
2.038569211959839 12.126503944396973 -0.34624770283699036
0.7745996117591858 12.12648868560791 -0.3421511650085449
0.5246533155441284 12.126486778259277 -0.3417736887931824
0.275146484375 12.126484870910645 -0.3415428102016449
0.025874022394418716 12.126482009887695 -0.3414565920829773
-0.4728125035762787 12.126477241516113 -0.34171539545059204
-0.7226464748382568 12.126474380493164 -0.3420611619949341
2.091176748275757 9.003835678100586 -0.4687756299972534
2.0911521911621094 9.92514419555664 -0.5143961906433105
1.5292577743530273 12.12649917602539 -0.6198571920394897
1.2766894102096558 12.126495361328125 -0.618384838104248
1.025209903717041 12.126492500305176 -0.6171790957450867
0.275146484375 12.126483917236328 -0.6151446104049683
0.025874022394418716 12.126482963562012 -0.614985466003418
-0.7226513624191284 12.126473426818848 -0.6160745024681091
-0.9731103181838989 12.126471519470215 -0.6169610619544983
-1.224389672279358 12.126468658447266 -0.6181120276451111
2.0911474227905273 8.23217487335205 -0.6227705478668213
2.091127872467041 9.00363540649414 -0.6777371168136597
2.0911035537719727 9.924898147583008 -0.7436916828155518
1.783144474029541 12.126501083374023 -0.8987032771110535
1.529262661933899 12.12649917602539 -0.8961830139160156
0.7746044993400574 12.12648868560791 -0.8909525871276855
0.5246484279632568 12.126486778259277 -0.8899728059768677
0.025874022394418716 12.126480102539062 -0.8891430497169495
-0.22336913645267487 12.126479148864746 -0.8892895579338074
-0.9731054306030273 12.126469612121582 -0.8919975161552429
-1.2243847846984863 12.126468658447266 -0.8936593532562256
2.0911035537719727 8.232004165649414 -0.8154125809669495
2.0910840034484863 9.003430366516113 -0.8873801827430725
2.0910496711730957 9.924652099609375 -0.9737333655357361
2.091015577316284 11.045022010803223 -1.0792111158370972
2.038569211959839 12.12650203704834 -1.1805410385131836
1.5292577743530273 12.126497268676758 -1.1734241247177124
1.2766894102096558 12.126495361328125 -1.1706370115280151
1.025209903717041 12.12649154663086 -1.168357014656067
0.5246533155441284 12.126486778259277 -1.1652915477752686
-0.22337402403354645 12.126479148864746 -1.1643999814987183
-0.9731054306030273 12.126469612121582 -1.1679435968399048
-1.2243847846984863 12.126466751098633 -1.170120120048523
2.0910351276397705 9.003226280212402 -1.097922682762146
2.0909619331359863 11.044729232788086 -1.3352630138397217
2.038569211959839 12.12650203704834 -1.4606696367263794
1.5292577743530273 12.126497268676758 -1.451867699623108
1.2766894102096558 12.126495361328125 -1.4484201669692993
1.025209903717041 12.12649154663086 -1.445595383644104
0.7746044993400574 12.126487731933594 -1.4433917999267578
0.5246533155441284 12.126484870910645 -1.44180428981781
0.275146484375 12.126483917236328 -1.440826654434204
-0.22336913645267487 12.12647819519043 -1.4406996965408325
-0.4728125035762787 12.12647533416748 -1.4415502548217773
-0.9731005430221558 12.126469612121582 -1.4450860023498535
2.0909862518310547 9.003021240234375 -1.3095840215682983
2.090947151184082 9.924154281616211 -1.4370180368423462
1.529262661933899 12.126497268676758 -1.7318024635314941
1.025209903717041 12.126492500305176 -1.7243235111236572
0.5246533155441284 12.126484870910645 -1.7198009490966797
0.275146484375 12.126482963562012 -1.7186349630355835
0.025874022394418716 12.126482009887695 -1.7181957960128784
2.0909717082977295 8.231486320495605 -1.3991159200668335
2.0908496379852295 11.044121742248535 -1.8517178297042847
1.529262661933899 12.126497268676758 -2.0135324001312256
1.2766894102096558 12.126493453979492 -2.008749485015869
1.025209903717041 12.12649154663086 -2.0048344135284424
0.275146484375 12.126482963562012 -1.9982208013534546
-0.22337402403354645 12.12647819519043 -1.998044490814209
-0.5568554401397705 9.344326972961426 -1.5421066284179688
-0.909838855266571 9.011199951171875 -1.4920450448989868
2.0908446311950684 9.923680305480957 -1.9062156677246094
2.0907859802246094 11.043805122375488 -2.112675428390503
1.4975537061691284 11.87511157989502 -2.249735116958618
0.7629345655441284 11.943949699401855 -2.2495691776275635
0.5172997713088989 11.956809997558594 -2.2495133876800537
0.27146971225738525 11.964605331420898 -2.2494571208953857
-0.22040526568889618 11.96506118774414 -2.2493443489074707
-0.7118603587150574 11.945294380187988 -2.2492308616638184
-0.9203515648841858 9.115285873413086 -1.7220275402069092
2.0908446311950684 9.002411842346191 -1.9535801410675049
2.0907909870147705 9.923426628112793 -2.1436657905578613
1.9798290729522705 10.457751274108887 -2.249823808670044
1.7644530534744263 10.496003150939941 -2.2497754096984863
1.5483545064926147 10.529816627502441 -2.2497265338897705
1.3316015005111694 10.559183120727539 -2.2496776580810547
1.1143016815185547 10.584089279174805 -2.2496285438537598
0.896533191204071 10.604523658752441 -2.249579429626465
0.6783984303474426 10.620478630065918 -2.24953031539917
0.4599853456020355 10.63193416595459 -2.249480962753296
0.2413915991783142 10.63891315460205 -2.249431610107422
0.022705078125 10.641392707824707 -2.249382257461548
-0.1959814429283142 10.63937759399414 -2.249332904815674
-0.4145800769329071 10.632871627807617 -2.2492833137512207
-0.6329931616783142 10.621874809265137 -2.249234199523926
-0.8511279225349426 10.606389045715332 -2.2491848468780518
-0.9519628882408142 9.428338050842285 -2.0030930042266846
2.0908398628234863 8.23096752166748 -1.9959055185317993
2.0907957553863525 9.002202987670898 -2.1720399856567383
1.973574161529541 9.367116928100586 -2.249821424484253
1.5869238376617432 9.43993854522705 -2.2497341632843018
1.3925732374191284 9.470368385314941 -2.249690294265747
1.0021874904632568 9.519230842590332 -2.2496020793914795
0.8063378930091858 9.537623405456543 -2.2495579719543457
0.6101415753364563 9.551993370056152 -2.249513626098633
0.4137060344219208 9.56231689453125 -2.249469518661499
0.2171044945716858 9.568617820739746 -2.249424934387207
0.020419921725988388 9.570874214172363 -2.249380588531494
-0.17626464366912842 9.569084167480469 -2.2493362426757812
-0.37288084626197815 9.563251495361328 -2.2492918968200684
-0.5693163871765137 9.553380012512207 -2.2492473125457764
1.965795874595642 8.464030265808105 -2.2498185634613037
1.6162694692611694 8.537359237670898 -2.2497398853302
1.440454125404358 8.568624496459961 -2.2497000694274902
1.0870897769927979 8.620274543762207 -2.249620199203491
0.9096874594688416 8.640642166137695 -2.2495803833007812
0.7319140434265137 8.657357215881348 -2.249540090560913
0.5538330078125 8.670416831970215 -2.249500036239624
0.01853027381002903 8.687597274780273 -2.2493791580200195
-0.5167822241783142 8.67176628112793 -2.249258279800415
1.9566357135772705 7.702642440795898 -2.2498157024383545
1.638403296470642 7.776292324066162 -2.249743938446045
1.4782226085662842 7.808191776275635 -2.2497076988220215
0.8320019245147705 7.902692794799805 -2.2495620250701904
0.6694042682647705 7.917995452880859 -2.249525308609009
-0.14634276926517487 7.94424295425415 -2.2493410110473633
-0.3095654249191284 7.93943452835083 -2.2493042945861816
-0.4726513624191284 7.931259632110596 -2.249267339706421
-0.7981494069099426 7.904877662658691 -2.2491939067840576
1.800844669342041 7.089340686798096 -2.24977970123291
1.6547411680221558 7.124747276306152 -2.249746799468994
1.5079492330551147 7.157139778137207 -2.249713659286499
1.0640331506729126 7.236137390136719 -2.2496135234832764
0.915087878704071 7.256370544433594 -2.249580144882202
0.76576167345047 7.273529052734375 -2.2495462894439697
0.6161083579063416 7.287624359130859 -2.2495126724243164
0.31611326336860657 7.306564807891846 -2.2494447231292725
0.16588866710662842 7.31141471862793 -2.24941086769104
0.015605468302965164 7.31316614151001 -2.2493770122528076
-0.28492674231529236 7.307406902313232 -2.2493090629577637
-0.4350292980670929 7.299897193908691 -2.2492752075195312
-0.5849560499191284 7.289307594299316 -2.249241352081299
-0.7346142530441284 7.275638103485107 -2.2492074966430664
1.666298747062683 6.559751987457275 -2.249748706817627
1.5311328172683716 6.592523097991943 -2.249718189239502
1.2589013576507568 6.649691104888916 -2.249656915664673
0.7085595726966858 6.730238914489746 -2.24953293800354
0.5700878500938416 6.743284702301025 -2.2495017051696777
0.4313915967941284 6.753484725952148 -2.2494702339172363
0.15349608659744263 6.76531457901001 -2.2494075298309326
-0.12462890148162842 6.765723705291748 -2.249344825744629
-0.5412548780441284 6.74490213394165 -2.249250650405884
1.1701709032058716 6.181010723114014 -2.24963641166687
1.0428515672683716 6.203670501708984 -2.249607563018799
0.9151318073272705 6.223714351654053 -2.2495784759521484
0.14268554747104645 6.288536071777344 -2.249404191970825
-0.24506346881389618 6.285130500793457 -2.249316692352295
1.448452115058899 5.702096939086914 -2.2545454502105713
1.0921239852905273 5.768762111663818 -2.249962568283081
0.8538867235183716 5.807758808135986 -2.2495741844177246
0.7345214486122131 5.82401704788208 -2.2495462894439697
0.25377440452575684 5.864372253417969 -2.2494354248046875
0.1331494152545929 5.868273735046387 -2.249408006668091
0.012529296800494194 5.86970329284668 -2.249380350112915
-0.2287011593580246 5.865114688873291 -2.24932599067688
-0.5896191000938416 5.839669227600098 -2.2492451667785645
0.6892187595367432 5.465317249298096 -2.254534959793091
0.5767577886581421 5.478328704833984 -2.2545340061187744
0.4640527367591858 5.489011287689209 -2.254528760910034
0.011748046614229679 5.508426189422607 -2.2544658184051514
-0.21460936963558197 5.504117488861084 -2.2544095516204834
1.0662157535552979 5.060555458068848 -2.2538959980010986
0.9620019197463989 5.081431865692139 -2.253910779953003
0.8573729991912842 5.100153923034668 -2.2539215087890625
0.7523828148841858 5.11671257019043 -2.2539284229278564
0.6470751762390137 5.131099700927734 -2.2539312839508057
0.5414892435073853 5.143313884735107 -2.2539303302764893
0.2235400378704071 5.166841983795166 -2.253903865814209
-0.20148925483226776 5.167543888092041 -2.2538135051727295
-0.30763182044029236 5.162238597869873 -2.253781318664551
-0.41365233063697815 5.154741287231445 -2.2537453174591064
1.1985058784484863 4.718137264251709 -2.2533152103424072
1.1012988090515137 4.741815090179443 -2.2533364295959473
1.003627896308899 4.763484954833984 -2.253354072570801
0.7082226276397705 4.816340446472168 -2.253384590148926
0.6090917587280273 4.829884052276611 -2.253387212753296
0.5097070336341858 4.841376781463623 -2.2533862590789795
0.3103271424770355 4.858205318450928 -2.253373384475708
0.010385742411017418 4.86799430847168 -2.253326177597046
-0.08965820074081421 4.867129802703857 -2.253303289413452
-0.3893701136112213 4.852161884307861 -2.2532119750976562
-0.48899412155151367 4.843055248260498 -2.253174304962158
1.039028286933899 4.473665714263916 -2.2528460025787354
0.9468749761581421 4.494105339050293 -2.2528624534606934
0.8543261289596558 4.512641429901123 -2.252875566482544
0.5746435523033142 4.556746959686279 -2.2528939247131348
0.48087888956069946 4.567591667175293 -2.2528929710388184
0.2927783131599426 4.583467960357666 -2.252880811691284
0.10417968779802322 4.591577053070068 -2.252854824066162
-0.08458495885133743 4.591897010803223 -2.252814531326294
-0.4613427519798279 4.5691986083984375 -2.2526931762695312
0.9822363257408142 4.229160785675049 -2.252398729324341
0.6316503882408142 4.295619487762451 -2.252441644668579
0.5432323813438416 4.30769681930542 -2.25244402885437
0.4545947015285492 4.317949295043945 -2.252443313598633
0.36576658487319946 4.326373100280762 -2.252439260482788
0.09848632663488388 4.340626239776611 -2.2524070739746094
-0.07996093481779099 4.340935707092285 -2.2523691654205322
-0.16915038228034973 4.3383283615112305 -2.252345323562622
-0.34727537631988525 4.327602863311768 -2.2522878646850586
0.9302001595497131 4.005090236663818 -2.2519888877868652
0.8476952910423279 4.023387432098389 -2.2520036697387695
0.7648388743400574 4.039980888366699 -2.2520155906677246
0.6816552877426147 4.054858684539795 -2.252023935317993
0.5981835722923279 4.06802225112915 -2.2520294189453125
0.5144580006599426 4.079462051391602 -2.2520318031311035
0.4305175542831421 4.089170932769775 -2.252031087875366
0.34638670086860657 4.097146987915039 -2.2520272731781006
0.17772948741912842 4.107888221740723 -2.2520101070404053
0.09327147901058197 4.110650539398193 -2.2519967555999756
0.008774413727223873 4.111668586730957 -2.2519803047180176
-0.07572265714406967 4.110947132110596 -2.2519607543945312
-0.1601855456829071 4.108479022979736 -2.2519383430480957
-0.4130224585533142 4.090646266937256 -2.25185227394104
0.9601562023162842 3.779832124710083 -2.2515945434570312
0.8822851181030273 3.7987945079803467 -2.2516117095947266
0.8040331602096558 3.816148042678833 -2.2516257762908936
0.7254394292831421 3.8318846225738525 -2.2516367435455322
0.4879540801048279 3.8693296909332275 -2.251652240753174
0.24860839545726776 3.8920249938964844 -2.251641273498535
0.16856932640075684 3.896296262741089 -2.251631498336792
0.08846191316843033 3.8989148139953613 -2.2516191005706787
0.008320312015712261 3.8998827934265137 -2.251603603363037
-0.07182616740465164 3.899198532104492 -2.251585006713867
-0.23198729753494263 3.8928747177124023 -2.251539468765259
-0.3917529284954071 3.8799540996551514 -2.2514820098876953
