ply
format ascii 1.0
element vertex 389
property float x
property float y
property float z
end_header
15.553322792053223 -23.917179107666016 5.030534744262695
11.21957015991211 -16.511417388916016 3.519951820373535
16.05527114868164 -22.628253936767578 4.892270565032959
16.274431228637695 -21.073932647705078 4.6949567794799805
17.63206672668457 -20.1705322265625 4.723918437957764
18.261085510253906 -19.257282257080078 4.679512023925781
19.772829055786133 -19.228429794311523 4.863227844238281
19.77277946472168 -18.4642276763916 4.770254611968994
19.772741317749023 -17.7283935546875 4.682653903961182
19.772706985473633 -17.018779754638672 4.600067138671875
19.732507705688477 -16.300329208374023 4.512981414794922
19.73241424560547 -14.377460479736328 4.3049774169921875
19.73232650756836 -12.61783218383789 4.1298699378967285
15.553072929382324 -23.91679573059082 4.3704986572265625
15.375983238220215 -22.628259658813477 4.191088676452637
16.055274963378906 -22.628253936767578 4.250444412231445
12.253701210021973 -16.549701690673828 3.154641628265381
12.745502471923828 -16.504289627075195 3.194537401199341
16.504587173461914 -20.499996185302734 4.031810760498047
18.290090560913086 -19.287870407104492 4.072059154510498
18.828210830688477 -18.30980110168457 4.023359298706055
18.828170776367188 -17.582111358642578 3.946446418762207
18.828142166137695 -16.881433486938477 3.8739733695983887
19.22907829284668 -16.550853729248047 3.8866937160491943
19.732229232788086 -14.998334884643555 3.7969682216644287
22.924962997436523 -16.703598022460938 4.345335006713867
22.924474716186523 -16.002756118774414 4.282926082611084
22.925689697265625 -15.322609901428223 4.224301815032959
22.926076889038086 -14.660049438476562 4.1688079833984375
14.815910339355469 -22.783231735229492 3.539005756378174
15.839205741882324 -22.3237247467041 3.5644116401672363
16.528888702392578 -22.32372283935547 3.61712646484375
16.688688278198242 -20.728668212890625 3.46541690826416
17.69445037841797 -20.241893768310547 3.5010485649108887
18.212100982666016 -19.20562744140625 3.4466428756713867
18.828014373779297 -19.066537857055664 3.4893999099731445
18.827951431274414 -17.5819034576416 3.354581117630005
18.827922821044922 -16.881242752075195 3.292980194091797
19.135772705078125 -16.470544815063477 3.2878031730651855
20.883073806762695 -16.55084228515625 3.4699230194091797
24.76332664489746 -16.550811767578125 3.878640651702881
15.169059753417969 -22.32373046875 2.8982110023498535
17.769996643066406 -20.328311920166016 2.899332284927368
18.07314682006836 -19.849105834960938 2.8826019763946533
18.10668182373047 -19.094457626342773 2.825690269470215
18.82777976989746 -19.066308975219727 2.8773655891418457
18.827754974365234 -18.309362411499023 2.8201091289520264
18.82773208618164 -17.58169937133789 2.76619815826416
18.827701568603516 -16.881046295166016 2.715402364730835
19.229084014892578 -16.55085563659668 2.72438383102417
20.883073806762695 -16.550844192504883 2.8613433837890625
21.774763107299805 -16.55083465576172 2.9369847774505615
14.815446853637695 -22.782514572143555 2.300532579421997
15.16906452178955 -22.323732376098633 2.2847604751586914
15.839211463928223 -22.323726654052734 2.317117214202881
16.52888298034668 -22.32372283935547 2.3513832092285156
16.373430252075195 -20.337087631225586 2.2102088928222656
17.603986740112305 -20.13840103149414 2.2642910480499268
17.772809982299805 -19.51926040649414 2.2346951961517334
18.82750701904297 -17.581493377685547 2.1806674003601074
18.82748794555664 -16.880849838256836 2.140620470046997
19.229074478149414 -16.55085563659668 2.14772629737854
20.035797119140625 -16.550851821899414 2.1999356746673584
22.64361572265625 -16.498607635498047 2.3716964721679688
24.76332664489746 -16.550811767578125 2.521388292312622
14.734894752502441 -22.658641815185547 1.67603600025177
15.16906452178955 -22.323732376098633 1.6736446619033813
15.839211463928223 -22.323726654052734 1.6973495483398438
17.239587783813477 -22.323720932006836 1.7490373849868774
17.438243865966797 -19.948802947998047 1.6430376768112183
18.408079147338867 -20.216960906982422 1.6954864263534546
18.82732582092285 -19.065847396850586 1.661571979522705
18.827306747436523 -18.308929443359375 1.6285040378570557
18.827287673950195 -17.5812931060791 1.5973763465881348
18.827272415161133 -16.880659103393555 1.56804621219635
19.135772705078125 -16.47054672241211 1.5656298398971558
19.938575744628906 -16.470539093017578 1.6036913394927979
21.669103622436523 -16.47052764892578 1.6878060102462769
24.76333236694336 -16.550811767578125 1.846983551979065
15.169059753417969 -22.323732376098633 1.0642340183258057
16.528888702392578 -22.3237247467041 1.095269799232483
17.239582061767578 -22.323720932006836 1.112176537513733
17.972867965698242 -22.323713302612305 1.1300796270370483
17.681066513061523 -20.22658348083496 1.0593206882476807
18.827056884765625 -16.880462646484375 0.9970736503601074
19.135772705078125 -16.47054672241211 0.9955496191978455
19.938581466674805 -16.47054100036621 1.019750952720642
20.781734466552734 -16.47053337097168 1.0455975532531738
21.669109344482422 -16.47052764892578 1.0732412338256836
22.60507583618164 -16.47052001953125 1.1028460264205933
25.757326126098633 -16.47049331665039 1.2055290937423706
15.169059753417969 -22.323732376098633 0.45590758323669434
16.528888702392578 -22.3237247467041 0.4692004323005676
17.239582061767578 -22.323720932006836 0.4764449894428253
17.972858428955078 -22.323715209960938 0.48411375284194946
18.730470657348633 -22.32370948791504 0.49223846197128296
18.82689094543457 -20.676923751831055 0.4723654091358185
18.826862335205078 -18.308483123779297 0.44360044598579407
18.82684326171875 -16.880268096923828 0.42713043093681335
19.13576889038086 -16.47054672241211 0.42648404836654663
19.938575744628906 -16.47054100036621 0.4368536174297333
20.781740188598633 -16.47053337097168 0.4479220509529114
21.669109344482422 -16.47052764892578 0.45976561307907104
23.59454345703125 -16.47051239013672 0.48605895042419434
24.643171310424805 -16.470502853393555 0.5006820559501648
15.839205741882324 -22.32373046875 -0.15410658717155457
18.82664680480957 -19.85370635986328 -0.15404312312602997
18.82663345336914 -17.58068084716797 -0.14502593874931335
18.826627731323242 -16.880083084106445 -0.14236755669116974
19.135772705078125 -16.470548629760742 -0.1421479731798172
20.747575759887695 -17.138824462890625 -0.15151244401931763
21.62495231628418 -17.13882064819336 -0.15535034239292145
23.522262573242188 -17.138803482055664 -0.16386198997497559
25.424524307250977 -16.99272918701172 -0.17217299342155457
14.733976364135742 -22.657228469848633 -0.7610101103782654
15.169059753417969 -22.323734283447266 -0.7599735856056213
17.239587783813477 -22.323720932006836 -0.7942074537277222
17.972867965698242 -22.32371711730957 -0.8069941401481628
18.73047637939453 -22.32370948791504 -0.8205348253250122
18.826417922973633 -21.53683090209961 -0.8054661154747009
18.826417922973633 -20.67640495300293 -0.787385106086731
18.826417922973633 -19.853464126586914 -0.7704105973243713
18.826417922973633 -18.308055877685547 -0.7394402623176575
18.826412200927734 -17.58047103881836 -0.7253105044364929
20.74757957458496 -17.13882827758789 -0.7577546238899231
21.62495231628418 -17.13882064819336 -0.7769618034362793
22.548316955566406 -17.138813018798828 -0.7975027561187744
23.522268295288086 -17.138805389404297 -0.8195016384124756
24.551876068115234 -17.138795852661133 -0.8431103229522705
25.424264907836914 -16.992557525634766 -0.8610694408416748
25.757326126098633 -16.470495223999023 -0.8608759641647339
14.733747482299805 -22.65688705444336 -1.3706164360046387
16.528888702392578 -22.3237247467041 -1.4086782932281494
18.730470657348633 -22.323713302612305 -1.4778467416763306
18.826189041137695 -19.064693450927734 -1.3588063716888428
18.82619285583496 -18.307846069335938 -1.3317697048187256
18.82619857788086 -17.580270767211914 -1.3063127994537354
22.548322677612305 -17.138813018798828 -1.4363536834716797
24.551891326904297 -17.138797760009766 -1.518494963645935
25.42400550842285 -16.992389678955078 -1.550826072692871
25.75731658935547 -16.470497131347656 -1.5504958629608154
15.16906452178955 -22.323734283447266 -1.9789516925811768
16.528898239135742 -22.323726654052734 -2.0366575717926025
17.151403427124023 -20.44171905517578 -1.956522822380066
17.522375106811523 -20.0450439453125 -1.952129602432251
18.825958251953125 -19.064464569091797 -1.964528203010559
18.825979232788086 -17.580060958862305 -1.8886322975158691
18.82598304748535 -16.87950325012207 -1.853955626487732
19.135772705078125 -16.470548629760742 -1.8512365818023682
21.624963760375977 -17.13882064819336 -2.023183822631836
23.522262573242188 -17.138805389404297 -2.1339612007141113
26.018659591674805 -16.637598037719727 -2.264432430267334
13.205644607543945 -19.434247970581055 -2.255767583847046
13.59911823272705 -19.166542053222656 -2.256201982498169
13.987089157104492 -18.890792846679688 -2.2566275596618652
15.11318588256836 -18.012481689453125 -2.2573561668395996
15.486677169799805 -17.71626853942871 -2.2590835094451904
16.20322036743164 -17.08717918395996 -2.2607386112213135
16.54686737060547 -16.756505966186523 -2.260868549346924
17.206106185913086 -16.067386627197266 -2.2601163387298584
17.52398681640625 -15.712120056152344 -2.2596070766448975
18.719900131225586 -14.228859901428223 -2.2574307918548584
18.999309539794922 -13.843283653259277 -2.256852865219116
19.291481018066406 -13.46672248840332 -2.2586982250213623
11.04156494140625 -16.979206085205078 -2.4058480262756348
11.913142204284668 -15.42645263671875 -2.3152542114257812
12.170947074890137 -15.117270469665527 -2.3053767681121826
13.030937194824219 -14.311429977416992 -2.2991230487823486
14.10823917388916 -13.719788551330566 -2.3376243114471436
14.543951988220215 -13.58141803741455 -2.363757610321045
15.037111282348633 -13.482378005981445 -2.3990330696105957
15.361042022705078 -13.221555709838867 -2.4074923992156982
15.626276969909668 -12.908304214477539 -2.407592296600342
15.885114669799805 -12.5897216796875 -2.4076902866363525
16.62214469909668 -11.603328704833984 -2.407968521118164
16.85432243347168 -11.264750480651855 -2.4080562591552734
17.079601287841797 -10.921527862548828 -2.4081413745880127
9.25418472290039 -14.230652809143066 -2.4051804542541504
9.540900230407715 -14.040976524353027 -2.4052882194519043
9.823713302612305 -13.84550666809082 -2.4053947925567627
10.377184867858887 -13.437521934509277 -2.4056031703948975
10.647626876831055 -13.225189208984375 -2.405705213546753
10.913718223571777 -13.007387161254883 -2.4058053493499756
11.432414054870605 -12.555817604064941 -2.406000852584839
12.175097465515137 -11.839837074279785 -2.406280755996704
12.412824630737305 -11.591238975524902 -2.4063711166381836
12.64548110961914 -11.338019371032715 -2.4064598083496094
12.87295150756836 -11.080005645751953 -2.4065468311309814
13.523356437683105 -10.279001235961914 -2.406794786453247
14.123871803283691 -9.439828872680664 -2.40702486038208
14.312567710876465 -9.152156829833984 -2.407097339630127
7.957761287689209 -12.237072944641113 -2.4046952724456787
8.204255104064941 -12.07388687133789 -2.4047882556915283
9.609379768371582 -10.99282169342041 -2.405317544937134
9.83035659790039 -10.796338081359863 -2.4054007530212402
10.047314643859863 -10.595429420471191 -2.405482530593872
10.67315673828125 -9.966798782348633 -2.4057183265686035
10.87313461303711 -9.748922348022461 -2.4057936668395996
11.25966739654541 -9.301204681396484 -2.4059395790100098
12.306083679199219 -7.869112491607666 -2.406334400177002
6.973554611206055 -10.723604202270508 -2.404326915740967
7.402548789978027 -10.433126449584961 -2.4044885635375977
7.81945276260376 -10.125492095947266 -2.4046456813812256
8.023151397705078 -9.965384483337402 -2.4047224521636963
8.42062759399414 -9.632925987243652 -2.404872179031372
8.61423110961914 -9.460709571838379 -2.404945135116577
8.804304122924805 -9.284610748291016 -2.4050166606903076
9.173583984375 -8.921000480651855 -2.405155897140503
9.352614402770996 -8.733651161193848 -2.4052233695983887
9.69912338256836 -8.348227500915527 -2.4053540229797363
9.866450309753418 -8.150311470031738 -2.4054172039031982
10.029730796813965 -7.949043273925781 -2.4054787158966064
10.1889009475708 -7.744504451751709 -2.40553879737854
10.641080856323242 -7.112069129943848 -2.4057095050811768
6.2001953125 -9.534369468688965 -2.4040377140045166
6.581574440002441 -9.276042938232422 -2.4041812419891357
6.768259048461914 -9.14112377166748 -2.4042515754699707
6.952179908752441 -9.002449989318848 -2.4043209552764893
7.311432838439941 -8.714049339294434 -2.404456377029419
8.315075874328613 -7.764776229858398 -2.404834508895874
8.623090744018555 -7.422069549560547 -2.4049506187438965
8.916979789733887 -7.067131996154785 -2.4050614833831787
9.196229934692383 -6.700559139251709 -2.4051668643951416
9.460405349731445 -6.32295036315918 -2.405266523361206
5.575917720794678 -8.574386596679688 -2.403804063796997
6.252114295959473 -8.095929145812988 -2.4040586948394775
6.414950847625732 -7.967867851257324 -2.4041202068328857
6.575151443481445 -7.836522102355957 -2.4041805267333984
6.887423992156982 -7.564218521118164 -2.4042983055114746
7.039350509643555 -7.423368453979492 -2.404355525970459
7.617650985717773 -6.830034255981445 -2.404573440551758
7.754570007324219 -6.6745123863220215 -2.4046249389648438
8.14603042602539 -6.191731929779053 -2.4047727584838867
8.269902229309082 -6.025619983673096 -2.4048194885253906
8.390382766723633 -5.8570237159729 -2.40486478805542
8.507429122924805 -5.686018943786621 -2.4049088954925537
5.217617034912109 -7.678566932678223 -2.4036705493927
5.674619197845459 -7.34812068939209 -2.4038424491882324
5.967785358428955 -7.112638473510742 -2.4039530754089355
6.524331092834473 -6.606982707977295 -2.404162645339966
6.656930923461914 -6.473641395568848 -2.404212713241577
6.78679895401001 -6.337637901306152 -2.404261827468872
7.277936935424805 -5.7681145668029785 -2.404447078704834
7.393383502960205 -5.619653701782227 -2.4044904708862305
7.615136623382568 -5.315853595733643 -2.404574155807495
4.628432750701904 -7.1173834800720215 -2.403449535369873
5.052375316619873 -6.823674201965332 -2.403609275817871
5.189638614654541 -6.7201128005981445 -2.403661012649536
5.324770450592041 -6.613776683807373 -2.403712034225464
5.457722187042236 -6.504725933074951 -2.403762102127075
5.842963695526123 -6.161713600158691 -2.403907060623169
6.087914943695068 -5.920291423797607 -2.4039993286132812
6.322878360748291 -5.669132709503174 -2.404088020324707
6.655786037445068 -5.275029182434082 -2.4042136669158936
6.864145278930664 -5.00135612487793 -2.404292345046997
7.0612473487854 -4.719453811645508 -2.4043664932250977
7.155480861663818 -4.575562477111816 -2.404402017593384
5.143205642700195 -5.883663177490234 -2.403644561767578
5.261398792266846 -5.778409481048584 -2.403688907623291
5.712128639221191 -5.334096431732178 -2.4038589000701904
5.819072246551514 -5.2174177169799805 -2.4038991928100586
5.923635005950928 -5.098588943481445 -2.4039387702941895
6.125429630279541 -4.854695796966553 -2.4040145874023438
6.222575664520264 -4.729730606079102 -2.4040513038635254
6.317175388336182 -4.60282039642334 -2.4040870666503906
6.585273265838623 -4.210943222045898 -2.404188394546509
4.06338357925415 -5.979923725128174 -2.403238534927368
4.183722972869873 -5.896523475646973 -2.4032838344573975
4.419220924377441 -5.722491264343262 -2.4033725261688232
4.758784294128418 -5.4438934326171875 -2.403500556945801
4.8681321144104 -5.346499919891357 -2.4035415649414062
5.285146236419678 -4.93536901473999 -2.4036989212036133
5.384086608886719 -4.827404499053955 -2.403736114501953
5.575314998626709 -4.605564117431641 -2.403808116912842
5.667526721954346 -4.491782188415527 -2.4038429260253906
5.844916820526123 -4.258725643157959 -2.403909921646118
6.09295129776001 -3.8961284160614014 -2.404003620147705
3.663456916809082 -5.633495330810547 -2.4030885696411133
3.8887059688568115 -5.4807257652282715 -2.4031732082366943
3.99896240234375 -5.400946140289307 -2.403214931488037
4.214521408081055 -5.234766006469727 -2.4032962322235107
4.4231858253479 -5.0599799156188965 -2.403374671936035
4.524819374084473 -4.969449996948242 -2.4034130573272705
4.624597072601318 -4.876879692077637 -2.4034504890441895
4.912399768829346 -4.587290287017822 -2.4035589694976807
5.004357814788818 -4.486938953399658 -2.4035937786102295
5.09426736831665 -4.384736061096191 -2.403627634048462
5.182094573974609 -4.280737400054932 -2.403660774230957
5.267787933349609 -4.174973011016846 -2.403693199157715
5.432658672332764 -3.9583451747894287 -2.4037551879882812
5.511772155761719 -3.8475701808929443 -2.403785228729248
3.4184935092926025 -5.256803035736084 -2.4029974937438965
3.7315526008605957 -5.039785861968994 -2.4031147956848145
3.8329052925109863 -4.963267803192139 -2.4031529426574707
4.222224235534668 -4.637118816375732 -2.403299570083618
4.315319538116455 -4.550731658935547 -2.403334856033325
4.406652927398682 -4.4624762535095215 -2.403369188308716
4.5838623046875 -4.28049898147583 -2.4034359455108643
4.669667720794678 -4.1868510246276855 -2.403468370437622
4.753559589385986 -4.091482162475586 -2.4035000801086426
4.993405818939209 -3.795449733734131 -2.403590440750122
5.069301605224609 -3.693596124649048 -2.4036192893981934
5.214826583862305 -3.4853780269622803 -2.403674602508545
3.493889093399048 -4.7187089920043945 -2.4030258655548096
3.5886425971984863 -4.6472039222717285 -2.403061628341675
3.9532859325408936 -4.3416666984558105 -2.4031989574432373
4.125964164733887 -4.178140640258789 -2.403264045715332
4.372126579284668 -3.920152425765991 -2.4033567905426025
4.675280570983887 -3.5536134243011475 -2.403470993041992
4.746288776397705 -3.45829701423645 -2.4034976959228516
4.815310001373291 -3.3616020679473877 -2.4035239219665527
4.947695255279541 -3.1637964248657227 -2.403573751449585
3.0057225227355957 -4.6220622062683105 -2.4028427600860596
3.1905102729797363 -4.4966936111450195 -2.402912139892578
3.370070695877075 -4.363936901092529 -2.402980089187622
3.4577977657318115 -4.294856548309326 -2.403012990951538
3.628974437713623 -4.151426792144775 -2.4030773639678955
3.712346076965332 -4.077139377593994 -2.403108835220337
3.9532055854797363 -3.844356060028076 -2.4031996726989746
4.030285358428955 -3.763558864593506 -2.403228521347046
4.105727672576904 -3.6812188625335693 -2.403257131576538
4.179482460021973 -3.597360372543335 -2.403284788131714
4.457062721252441 -3.2475056648254395 -2.4033894538879395
4.584997653961182 -3.064424991607666 -2.403437852859497
4.646157264709473 -2.9709794521331787 -2.403460741043091
2.8298802375793457 -4.351657867431641 -2.4027769565582275
2.9174656867980957 -4.293520927429199 -2.4028100967407227
3.003852367401123 -4.233617305755615 -2.4028425216674805
3.172900438308716 -4.108620643615723 -2.4029061794281006
3.2554931640625 -4.0435791015625 -2.402937173843384
3.3367576599121094 -3.9768741130828857 -2.402967691421509
3.572199583053589 -3.7670719623565674 -2.4030563831329346
3.865488290786743 -3.4658215045928955 -2.4031670093536377
4.00274658203125 -3.306523323059082 -2.4032187461853027
4.196254730224609 -3.0574779510498047 -2.403291702270508
4.25735330581665 -2.9719042778015137 -2.4033148288726807
4.316699028015137 -2.8851070404052734 -2.403337001800537
4.374279499053955 -2.7971267700195312 -2.4033589363098145
2.7530126571655273 -4.0514984130859375 -2.4027483463287354
2.834526300430298 -3.994969606399536 -2.4027791023254395
2.9148802757263184 -3.936800479888916 -2.4028093814849854
2.9940428733825684 -3.8770148754119873 -2.402839183807373
3.071974992752075 -3.815633535385132 -2.4028685092926025
3.298110246658325 -3.622195243835449 -2.402953624725342
3.3708202838897705 -3.554706573486328 -2.4029810428619385
3.442148447036743 -3.4857559204101562 -2.403007984161377
3.6475658416748047 -3.2704296112060547 -2.403085231781006
3.900400400161743 -2.96466326713562 -2.4031805992126465
4.017316818237305 -2.804346799850464 -2.4032247066497803
4.073322772979736 -2.7224438190460205 -2.403245687484741
4.1276535987854 -2.63942289352417 -2.403266429901123
2.5248632431030273 -3.882617712020874 -2.402662992477417
2.6030054092407227 -3.830740213394165 -2.4026923179626465
2.8308959007263184 -3.665755033493042 -2.402778148651123
3.1183862686157227 -3.4248123168945312 -2.402886390686035
3.320685863494873 -3.229252338409424 -2.4029626846313477
3.385429620742798 -3.1613781452178955 -2.402987003326416
3.510737180709839 -3.0217599868774414 -2.403034210205078
3.571244955062866 -2.9500732421875 -2.4030568599700928
3.6878392696380615 -2.8030972480773926 -2.4031009674072266
3.9026975631713867 -2.495574474334717 -2.403182029724121
2.391477108001709 -3.6774985790252686 -2.4026129245758057
2.4654881954193115 -3.6283605098724365 -2.4026408195495605
2.8197925090789795 -3.3607354164123535 -2.4027740955352783
3.018740177154541 -3.183419942855835 -2.402848958969116
3.0826196670532227 -3.121668577194214 -2.4028732776641846
3.206555128097534 -2.994342565536499 -2.4029197692871094
3.3252367973327637 -2.862097978591919 -2.4029645919799805
3.3825488090515137 -2.7941970825195312 -2.4029862880706787
3.438466787338257 -2.7251501083374023 -2.4030072689056396
3.49297833442688 -2.6549839973449707 -2.4030280113220215
3.5460546016693115 -2.5837273597717285 -2.403047800064087
3.5976758003234863 -2.511409282684326 -2.4030673503875732
3.6478271484375 -2.4380581378936768 -2.4030864238739014
2.268632650375366 -3.4885966777801514 -2.402566909790039
2.3388378620147705 -3.44197678565979 -2.4025933742523193
2.408085823059082 -3.393946647644043 -2.4026193618774414
2.4763500690460205 -3.344522714614868 -2.4026451110839844
2.543596029281616 -3.293724298477173 -2.4026706218719482
2.674936532974243 -3.1880900859832764 -2.4027199745178223
2.7389745712280273 -3.1332991123199463 -2.4027440547943115
2.983649730682373 -2.9014999866485596 -2.402836322784424
3.041823625564575 -2.8405120372772217 -2.402858257293701
3.098747491836548 -2.778355598449707 -2.402879476547241
3.1544041633605957 -2.715057611465454 -2.4029006958007812
3.2087669372558594 -2.650644540786743 -2.402921199798584
3.3135204315185547 -2.5185818672180176 -2.4029605388641357
3.3638720512390137 -2.4509835243225098 -2.402979612350464
3.412841796875 -2.382380723953247 -2.4029979705810547
