ply
format ascii 1.0
element vertex 264
property float x
property float y
property float z
end_header
-28.807783126831055 6.583745002746582 3.1731908321380615
-36.125057220458984 -2.5408313274383545 -1.0197199583053589
-42.19454574584961 12.300676345825195 -2.228940010070801
-42.423255920410156 11.467464447021484 -2.22868013381958
-42.83236312866211 9.788922309875488 -2.228214740753174
-43.01266860961914 8.94420051574707 -2.228015184402466
-42.25840759277344 5.369308948516846 -2.1603264808654785
-43.971370697021484 4.71059513092041 -2.2427330017089844
-47.06487274169922 3.177057981491089 -2.392287015914917
-47.11775588989258 2.251202344894409 -2.39227557182312
-47.11134338378906 -2.383904457092285 -2.3922717571258545
-34.13877487182617 -2.401125431060791 -1.7355940341949463
-34.04019546508789 -3.067744731903076 -1.7333199977874756
-29.374311447143555 8.563295364379883 -2.243445873260498
-29.53660011291504 7.984068393707275 -2.243412494659424
-29.68741226196289 7.401763916015625 -2.2433815002441406
-29.826810836791992 6.816635608673096 -2.2433536052703857
-30.071157455444336 5.638777732849121 -2.243311643600464
-32.543296813964844 2.840447425842285 -2.3952157497406006
-32.59268569946289 2.2001280784606934 -2.39520525932312
-32.62953186035156 1.558976411819458 -2.3951971530914307
-32.65382385253906 0.9172124862670898 -2.3951914310455322
-32.66548156738281 0.27511289715766907 -2.395188331604004
-32.62495803833008 -1.6508609056472778 -2.3951945304870605
-32.586299896240234 -2.291938066482544 -2.3952016830444336
-32.47133255004883 -3.5711617469787598 -2.395223379135132
-24.10148048400879 6.514902114868164 -2.396907329559326
-24.33850860595703 5.562327861785889 -2.396862506866455
-24.442941665649414 5.082753658294678 -2.396841287612915
-24.5379581451416 4.601222991943359 -2.3968217372894287
-24.623485565185547 4.117915153503418 -2.396806478500366
-24.870365142822266 2.170738458633423 -2.396754741668701
-24.90814208984375 1.681396484375 -2.3967466354370117
-24.96312141418457 -0.2805645763874054 -2.396733522415161
-24.932861328125 -1.2616448402404785 -2.3967387676239014
-24.90326690673828 -1.751558542251587 -2.3967440128326416
-24.815351486206055 -2.7291624546051025 -2.3967607021331787
-19.379703521728516 5.649627685546875 -2.3978610038757324
-19.586444854736328 4.883359432220459 -2.3978188037872314
-19.763002395629883 4.109589099884033 -2.3977839946746826
-19.83983612060547 3.720250129699707 -2.397768497467041
-19.909021377563477 3.329484224319458 -2.397754192352295
-20.02431297302246 2.5442633628845215 -2.3977301120758057
-20.07038116455078 2.150111675262451 -2.3977203369140625
-20.16208267211914 0.963305652141571 -2.397700786590576
-20.17705726623535 0.5667517185211182 -2.3976974487304688
-20.18428611755371 0.16999205946922302 -2.397695541381836
-20.159259796142578 -1.0200958251953125 -2.3976993560791016
-20.13533592224121 -1.41620934009552 -2.3977036476135254
-20.10364532470703 -1.8117705583572388 -2.397709846496582
-20.06422233581543 -2.2066404819488525 -2.397717237472534
-20.017047882080078 -2.6006577014923096 -2.39772629737854
-16.34120750427246 4.41721248626709 -2.3984720706939697
-16.572851181030273 3.446218252182007 -2.398425579071045
-16.637296676635742 3.1197338104248047 -2.3984122276306152
-16.695329666137695 2.792046546936035 -2.39840030670166
-16.79203987121582 2.1335771083831787 -2.3983800411224365
-16.830678939819336 1.8030468225479126 -2.398371934890747
-16.862831115722656 1.4718254804611206 -2.398365020751953
-16.920185089111328 0.4752715826034546 -2.39835262298584
-16.926233291625977 0.1425512731075287 -2.398350954055786
-16.885169982910156 -1.1876097917556763 -2.39835786819458
-13.980148315429688 4.075537204742432 -2.3989474773406982
-14.057477951049805 3.7998924255371094 -2.3989319801330566
-14.12939167022705 3.522786855697632 -2.3989171981811523
-14.312238693237305 2.683748722076416 -2.3988795280456543
-14.362162590026855 2.4018609523773193 -2.398869276046753
-14.445383071899414 1.8354119062423706 -2.3988518714904785
-14.5447998046875 0.6949194073677063 -2.3988306522369385
-14.555631637573242 0.4088543653488159 -2.3988282680511475
-14.554426193237305 -0.4498571753501892 -2.3988282680511475
-14.440138816833496 -1.8760970830917358 -2.3988494873046875
-12.32254409790039 3.330918550491333 -2.399280548095703
-12.443830490112305 2.8439178466796875 -2.3992555141448975
-12.628581047058105 1.8575255870819092 -2.3992176055908203
-12.6917724609375 1.3596490621566772 -2.399205207824707
-12.716020584106445 1.1098803281784058 -2.399199962615967
-12.763861656188965 0.1074981689453125 -2.3991892337799072
-12.763505935668945 -0.1434490978717804 -2.399188995361328
-12.758214950561523 -0.394338995218277 -2.3991899490356445
-12.748017311096191 -0.6450732350349426 -2.3991916179656982
-12.687872886657715 -1.3954006433486938 -2.399203062057495
-12.658026695251465 -1.644559621810913 -2.3992085456848145
-10.898266792297363 3.177095890045166 -2.3995676040649414
-10.958566665649414 2.9622185230255127 -2.3995556831359863
-11.014633178710938 2.746206045150757 -2.3995442390441895
-11.157218933105469 2.092137336730957 -2.39951491355896
-11.196154594421387 1.8723888397216797 -2.3995068073272705
-11.230769157409668 1.6519194841384888 -2.3994996547698975
-11.261032104492188 1.4308141469955444 -2.3994932174682617
-11.286954879760742 1.2091565132141113 -2.3994879722595215
-11.3085298538208 0.9870318174362183 -2.3994832038879395
-11.325729370117188 0.7645300030708313 -2.399479389190674
-11.351069450378418 0.09559813886880875 -2.3994736671447754
-11.350753784179688 -0.12757140398025513 -2.3994734287261963
-11.346052169799805 -0.35068967938423157 -2.3994741439819336
-11.28349781036377 -1.2409484386444092 -2.3994858264923096
-10.035768508911133 1.881866455078125 -2.3997421264648438
-10.070791244506836 1.6841894388198853 -2.3997349739074707
-10.129150390625 1.2869982719421387 -2.3997223377227783
-10.198898315429688 0.487283319234848 -2.399707317352295
-10.206501007080078 0.28668883442878723 -2.399705410003662
-10.197465896606445 -0.5160110592842102 -2.3997066020965576
-10.185365676879883 -0.716381847858429 -2.3997087478637695
-10.169330596923828 -0.9164742827415466 -2.399711847305298
-10.149362564086914 -1.116214632987976 -2.3997156620025635
-8.993874549865723 2.242382049560547 -2.3999598026275635
-9.075002670288086 1.887087345123291 -2.3999414443969727
-9.110309600830078 1.7083055973052979 -2.399933338165283
-9.216266632080078 0.9873217344284058 -2.3999099731445312
-9.233888626098633 0.8059521317481995 -2.3999061584472656
-9.247929573059082 0.6242700219154358 -2.3999030590057373
-9.258410453796387 0.44234800338745117 -2.3999006748199463
-9.268630027770996 0.07806029915809631 -2.399898052215576
-9.268373489379883 -0.1041705310344696 -2.399898052215576
-9.257121086120605 -0.4684295654296875 -2.399899959564209
-9.246129989624023 -0.6503234505653381 -2.399902105331421
-9.213441848754883 -1.01328706741333 -2.3999083042144775
-8.139443397521973 2.3728349208831787 -2.4001364707946777
-8.226366996765137 2.051025867462158 -2.400118350982666
-8.332890510559082 1.5625360012054443 -2.4000954627990723
-8.410444259643555 1.0686211585998535 -2.4000778198242188
-8.429804801940918 0.9030718803405762 -2.400073289871216
-8.445924758911133 0.7371801733970642 -2.40006947517395
-8.477702140808105 0.07140136510133743 -2.4000608921051025
-8.473952293395996 -0.26191404461860657 -2.4000613689422607
-8.467164993286133 -0.4284515380859375 -2.4000625610351562
-8.45711898803711 -0.5948187112808228 -2.400064468383789
-8.407387733459473 -1.0922985076904297 -2.4000742435455322
-7.533359050750732 2.0363495349884033 -2.400259494781494
-7.571913719177246 1.8878551721572876 -2.4002513885498047
-7.607533931732178 1.7386291027069092 -2.4002439975738525
-7.774018287658691 0.6785327196121216 -2.4002087116241455
-7.803266525268555 0.06571899354457855 -2.4002015590667725
-7.803051471710205 -0.08768554776906967 -2.4002013206481934
-7.793564319610596 -0.3943865895271301 -2.4002022743225098
-7.784316062927246 -0.5475249886512756 -2.4002037048339844
-6.932656288146973 2.021031379699707 -2.4003806114196777
-7.0396728515625 1.6088507175445557 -2.4003586769104004
-7.122216701507568 1.1910864114761353 -2.400341510772705
-7.144243240356445 1.0508391857147217 -2.400336980819702
-7.163505554199219 0.910184919834137 -2.4003329277038574
-7.204677581787109 0.4863421618938446 -2.4003241062164307
-7.212841510772705 0.3446160852909088 -2.400322437286377
-7.218222618103027 0.20275145769119263 -2.4003212451934814
-7.220805644989014 0.060814209282398224 -2.400320291519165
-7.217612266540527 -0.22308653593063354 -2.4003207683563232
-7.211840629577637 -0.3649304211139679 -2.4003217220306396
-7.203271389007568 -0.5066378712654114 -2.4003233909606934
-7.160912990570068 -0.9303622245788574 -2.400331497192383
-6.444360256195068 1.8786773681640625 -2.4004790782928467
-6.543842792510986 1.495532751083374 -2.400458574295044
-6.571958065032959 1.3665984869003296 -2.4004526138305664
-6.597538948059082 1.237134337425232 -2.400447368621826
-6.620571136474609 1.1071966886520386 -2.400442600250244
-6.641044616699219 0.9768304228782654 -2.4004383087158203
-6.658955097198486 0.846085786819458 -2.400434732437134
-6.704819202423096 0.32034483551979065 -2.4004247188568115
-6.71203088760376 -0.07543395459651947 -2.4004228115081787
-6.70925760269165 -0.20737364888191223 -2.400423288345337
-6.703891277313232 -0.3392285108566284 -2.4004242420196533
-6.685385704040527 -0.6024966239929199 -2.40042781829834
-6.672245979309082 -0.7338042855262756 -2.400430202484131
-6.078129768371582 1.515419840812683 -2.40055251121521
-6.106733322143555 1.395635962486267 -2.4005465507507324
-6.197451114654541 0.9115759134292603 -2.4005277156829834
-6.24038553237915 0.5446752905845642 -2.4005186557769775
-6.249882698059082 0.4218902587890625 -2.4005167484283447
-6.256962776184082 0.2989446818828583 -2.400515079498291
-6.263872146606445 0.052754513919353485 -2.4005134105682373
-6.26110315322876 -0.19352172315120697 -2.4005136489868164
-6.256088733673096 -0.3165692090988159 -2.400514602661133
-6.238822937011719 -0.5622518658638 -2.4005179405212402
-6.226567268371582 -0.6847918629646301 -2.4005203247070312
-5.631191253662109 1.6416229009628296 -2.4006428718566895
-5.662363052368164 1.530598759651184 -2.4006364345550537
-5.765058517456055 1.0810296535491943 -2.4006152153015137
-5.785180568695068 0.9674859642982483 -2.400611162185669
-5.818730354309082 0.7393200397491455 -2.400604009628296
-5.832123756408691 0.6247875690460205 -2.4006011486053467
-5.843276023864746 0.5100146532058716 -2.4005987644195557
-5.858798503875732 0.2799224853515625 -2.4005954265594482
-5.865273475646973 0.049397580325603485 -2.4005937576293945
-5.86510705947876 -0.06591735780239105 -2.4005937576293945
-5.862680435180664 -0.18120604753494263 -2.4005942344665527
-5.857988357543945 -0.29642394185066223 -2.40059494972229
-5.841816425323486 -0.5264734029769897 -2.4005980491638184
-5.830341815948486 -0.641214907169342 -2.4006001949310303
-5.816616058349609 -0.7557070851325989 -2.4006028175354004
-5.288398265838623 1.5416887998580933 -2.40071177482605
-5.344887733459473 1.3326056003570557 -2.400700092315674
-5.370043754577637 1.227272868156433 -2.4006950855255127
-5.393119812011719 1.121466040611267 -2.4006903171539307
-5.433017253875732 0.9085925221443176 -2.400681972503662
-5.449824333190918 0.8016070127487183 -2.4006783962249756
-5.48757791519165 0.4789678752422333 -2.4006705284118652
-5.495932579040527 0.3709954619407654 -2.4006686210632324
-5.506264686584473 0.15466491878032684 -2.4006664752960205
-5.505805492401123 -0.17017638683319092 -2.4006662368774414
-5.501396179199219 -0.27838072180747986 -2.4006669521331787
-5.486201286315918 -0.49442413449287415 -2.400669813156128
-5.462543964385986 -0.7097064256668091 -2.400674343109131
-4.979291915893555 1.451574683189392 -2.4007740020751953
-5.0068359375 1.3534027338027954 -2.400768280029297
-5.056157112121582 1.1555352210998535 -2.4007582664489746
-5.156958103179932 0.5524572730064392 -2.4007372856140137
-5.166821002960205 0.4509698450565338 -2.4007351398468018
-5.174687385559082 0.34930846095085144 -2.400733470916748
-5.184413909912109 0.14562438428401947 -2.400731325149536
-5.186269283294678 0.043678589165210724 -2.400730848312378
-5.186127662658691 -0.058287352323532104 -2.400730609893799
-5.179829120635986 -0.26210877299308777 -2.4007318019866943
-5.173676490783691 -0.36388731002807617 -2.40073299407959
-4.698828220367432 1.3698174953460693 -2.4008305072784424
-4.724843502044678 1.2771764993667603 -2.400825023651123
-4.749028205871582 1.1840447187423706 -2.400820255279541
-4.771381855010986 1.0904529094696045 -2.400815725326538
-4.827333927154541 0.8072991967201233 -2.400804042816162
-4.842265605926514 0.7122436165809631 -2.400800943374634
-4.866513729095459 0.5213409066200256 -2.4007959365844727
-4.875815391540527 0.42557188868522644 -2.4007937908172607
-4.883237361907959 0.32963743805885315 -2.400792121887207
-4.888774394989014 0.23357665538787842 -2.4007909297943115
-4.892421722412109 0.1374230980873108 -2.400790214538574
-4.892006874084473 -0.1512042135000229 -2.400789976119995
-4.882289886474609 -0.343392938375473 -2.400791645050049
-4.874594688415527 -0.4393063187599182 -2.4007933139801025
-4.86501932144165 -0.5350494384765625 -2.4007949829101562
-4.442997932434082 1.295235514640808 -2.4008820056915283
-4.467597484588623 1.2076404094696045 -2.400876998901367
-4.490463733673096 1.1195776462554932 -2.400872230529785
-4.511601448059082 1.0310821533203125 -2.4008679389953613
-4.530986309051514 0.9421905279159546 -2.4008638858795166
-4.548627853393555 0.8529326915740967 -2.40086030960083
-4.590976238250732 0.5833245515823364 -2.4008514881134033
-4.622602462768555 0.22085875272750854 -2.4008445739746094
-4.627573013305664 -0.05201110616326332 -2.400843381881714
-4.616469860076904 -0.3246966600418091 -2.400845527648926
-4.609199047088623 -0.41538816690444946 -2.4008467197418213
-4.600146293640137 -0.5059194564819336 -2.400848388671875
-4.253413200378418 1.0604729652404785 -2.4009201526641846
-4.30850076675415 0.807906448841095 -2.4009087085723877
-4.336918830871582 0.6379125714302063 -2.40090274810791
-4.348618030548096 0.5525305271148682 -2.400900363922119
-4.366967678070068 0.3811584413051605 -2.4008963108062744
-4.378573894500732 0.20919983088970184 -2.4008939266204834
-4.3814697265625 -0.1354229748249054 -2.400892972946167
-4.377968788146973 -0.22153136134147644 -2.4008936882019043
-4.372768402099609 -0.30755430459976196 -2.4008946418762207
-4.3572998046875 -0.47921112179756165 -2.40089750289917
-3.9924168586730957 1.163883090019226 -2.400972843170166
-4.014521598815918 1.0851696729660034 -2.400968313217163
-4.035068035125732 1.0060381889343262 -2.4009640216827393
-4.054062366485596 0.9265173077583313 -2.4009602069854736
-4.087343692779541 0.7664343118667603 -2.4009532928466797
-4.101611137390137 0.6859338283538818 -2.4009501934051514
-2.247128963470459 0.33052733540534973 -1.311338186264038
-2.2254490852355957 0.2827618420124054 -1.2951908111572266
-2.2290380001068115 0.23879271745681763 -1.2942969799041748
-2.2305662631988525 0.19468872249126434 -1.2927132844924927
-2.225414991378784 0.10632506757974625 -1.28630793094635
-2.213574171066284 0.018641356378793716 -1.2780526876449585
-2.226005792617798 -0.112640380859375 -1.2868293523788452
-2.2306151390075684 -0.20102599263191223 -1.2930657863616943
