ply
format ascii 1.0
element vertex 830
property float x
property float y
property float z
end_header
-18.270751953125 12.181000709533691 2.8595147132873535
-18.27138328552246 11.660234451293945 2.8225317001342773
-18.71063804626465 10.416601181030273 2.788649797439575
-19.3320369720459 10.261371612548828 2.8500921726226807
-11.449955940246582 5.78699254989624 1.6706411838531494
-21.355749130249023 10.262402534484863 3.0853967666625977
-22.49925994873047 10.262983322143555 3.220288038253784
-23.74783706665039 10.263620376586914 3.3689208030700684
-26.133710861206055 10.679455757141113 3.676337242126465
-27.797365188598633 10.71542739868164 3.879429817199707
-34.44438934326172 10.199840545654297 4.6779093742370605
-40.55177307128906 10.263090133666992 5.447177410125732
-18.266124725341797 18.365245819091797 2.781442880630493
-18.79805564880371 17.44518280029297 2.7538812160491943
-18.269922256469727 13.26605224609375 2.424492120742798
-18.27058219909668 12.716135025024414 2.3903326988220215
-18.208051681518555 11.113532066345215 2.290637254714966
-18.337186813354492 10.694769859313965 2.2795026302337646
-18.645002365112305 10.380056381225586 2.291491746902466
-19.332046508789062 10.261371612548828 2.3502213954925537
-21.355741500854492 10.262402534484863 2.5442538261413574
-23.747821807861328 10.263617515563965 2.7780566215515137
-29.96459197998047 11.550861358642578 3.4484405517578125
-30.702388763427734 11.13500690460205 3.50700306892395
-30.702396392822266 10.444828987121582 3.4824321269989014
-32.072967529296875 10.199853897094727 3.614016056060791
-40.30172348022461 10.199795722961426 4.464111328125
-40.032222747802734 -28.127023696899414 5.253710746765137
-18.208175659179688 18.306991577148438 2.1857516765594482
-18.798608779907227 17.445690155029297 2.1710445880889893
-18.208316802978516 15.58959674835205 2.02915620803833
-18.20834732055664 14.968793869018555 1.995380163192749
-18.2083740234375 14.368081092834473 1.9634816646575928
-18.208425521850586 13.221385955810547 1.9048773050308228
-18.20844841003418 12.672895431518555 1.8779739141464233
-18.2084903717041 11.620095252990723 1.8285290002822876
-19.216230392456055 10.199893951416016 1.841660976409912
-21.22563934326172 10.199885368347168 1.9935048818588257
-23.6003360748291 10.199875831604004 2.17643666267395
-30.703081130981445 11.135258674621582 2.7647545337677
-32.271629333496094 10.26302719116211 2.8667004108428955
-34.65364074707031 10.261792182922363 3.059440851211548
-37.3841667175293 10.261476516723633 3.2817258834838867
-43.98344802856445 10.199779510498047 3.822122097015381
-18.208730697631836 18.30755615234375 1.6011672019958496
-18.462400436401367 17.834314346313477 1.5917761325836182
-18.208810806274414 16.232507705688477 1.5126628875732422
-18.208831787109375 15.590031623840332 1.4864529371261597
-18.208852767944336 14.969205856323242 1.4617067575454712
-18.208873748779297 14.368474006652832 1.4383392333984375
-18.208953857421875 11.620389938354492 1.339479923248291
-18.208967208862305 11.114091873168945 1.3228566646575928
-18.337841033935547 10.695148468017578 1.316406488418579
-11.44683837890625 5.785416603088379 0.7953323125839233
-22.360918045043945 10.199880599975586 1.5240508317947388
-23.600332260131836 10.199875831604004 1.5942944288253784
-24.96011734008789 10.199870109558105 1.672029972076416
-34.44438934326172 10.199837684631348 2.2275850772857666
-40.55173873901367 10.26308536529541 2.593907356262207
-18.799692153930664 18.160131454467773 1.0306689739227295
-18.799726486206055 16.759288787841797 0.9930865168571472
-18.799753189086914 15.454967498779297 0.9596325755119324
-18.799774169921875 14.233796119689941 0.929799497127533
-19.258113861083984 13.403456687927246 0.9251837134361267
-19.950420379638672 13.300825119018555 0.9454656839370728
-20.56965446472168 12.554972648620605 0.9502276182174683
-20.933734893798828 12.209150314331055 0.955570638179779
-21.391767501831055 11.909235954284668 0.9654064774513245
-11.445329666137695 5.784661293029785 0.5056695342063904
-24.585582733154297 11.814492225646973 1.0755596160888672
-25.96112823486328 11.842114448547363 1.1251424551010132
-27.710311889648438 11.32373046875 1.1803597211837769
-29.982303619384766 10.19986343383789 1.2487738132476807
-32.072998046875 10.199851036071777 1.3270833492279053
-37.15948486328125 10.199806213378906 1.5194348096847534
-40.30169677734375 10.199792861938477 1.639237880706787
-43.98337936401367 10.199776649475098 1.7803387641906738
-18.80024528503418 18.90226936340332 0.45033538341522217
-18.800256729125977 17.447214126586914 0.4332534670829773
-18.80026626586914 16.759765625 0.42543914914131165
-18.800273895263672 15.455394744873047 0.41110748052597046
-18.898305892944336 13.722331047058105 0.3945077359676361
-19.25839614868164 13.40364933013916 0.39634430408477783
-20.366655349731445 12.997363090515137 0.4081149101257324
-21.120389938354492 12.318007469177246 0.41300535202026367
-22.176000595092773 11.770936965942383 0.42409148812294006
-11.44382095336914 5.783899307250977 0.2165951430797577
-30.013187408447266 12.264784812927246 0.5476797223091125
-44.65221405029297 12.2564697265625 0.7821524143218994
-18.80081558227539 18.90285301208496 -0.1501043736934662
-18.800804138183594 17.447738647460938 -0.144409641623497
-18.80080223083496 16.760257720947266 -0.14180541038513184
-18.800798416137695 16.096866607666016 -0.13934509456157684
-18.80078887939453 14.835543632507324 -0.13483627140522003
-18.898582458496094 13.722526550292969 -0.13149428367614746
-19.258682250976562 13.403840065002441 -0.1321060210466385
-19.950956344604492 13.301176071166992 -0.1349998414516449
-20.366928100585938 12.997538566589355 -0.13602691888809204
-20.78944969177246 12.68912124633789 -0.13712692260742188
-21.39236831665039 11.909567832946777 -0.13784652948379517
-22.176010131835938 11.770936965942383 -0.14135588705539703
-25.55000877380371 12.27794361114502 -0.15959426760673523
-27.20530128479004 11.757917404174805 -0.16686537861824036
-30.01320457458496 12.26479721069336 -0.18254226446151733
-38.82152557373047 12.346030235290527 -0.22935347259044647
-39.74962615966797 11.770849227905273 -0.2333996593952179
-44.653202056884766 12.25673770904541 -0.2607054114341736
-41.50324249267578 -23.347997665405273 -0.2681097388267517
-40.81324005126953 -24.047245025634766 -0.266703337430954
-18.8013858795166 18.90342903137207 -0.7507259845733643
-18.801368713378906 18.16175079345703 -0.7360696196556091
-18.801342010498047 16.760740280151367 -0.7092300057411194
-18.801326751708984 16.097318649291992 -0.6969355344772339
-18.801311492919922 15.456252098083496 -0.685331404209137
-18.801286697387695 14.234935760498047 -0.6640249490737915
-18.89885711669922 13.722723960876465 -0.657641589641571
-19.258955001831055 13.404040336608887 -0.6607052683830261
-20.367202758789062 12.997712135314941 -0.6803289651870728
-20.789735794067383 12.689289093017578 -0.6858239769935608
-22.176000595092773 11.77093505859375 -0.7069410681724548
-11.440802574157715 5.7823710441589355 -0.3609570264816284
-32.55540466308594 11.807047843933105 -0.975128173828125
-38.822662353515625 12.346391677856445 -1.1471107006072998
-44.65418243408203 12.256989479064941 -1.3038750886917114
-43.19196319580078 -23.172826766967773 -1.3801724910736084
-41.19231414794922 -23.17308807373047 -1.33082914352417
-40.549259185791016 -23.89169692993164 -1.3252297639846802
-40.652957916259766 -26.198505401611328 -1.3618130683898926
-29.162986755371094 -23.223388671875 -1.0497231483459473
-27.995468139648438 -23.22395133972168 -1.0242234468460083
-35.44862365722656 -34.54859924316406 -1.3938055038452148
-34.53462219238281 -35.03217697143555 -1.3851563930511475
-18.80192756652832 18.162296295166016 -1.325748085975647
-18.801856994628906 16.097763061523438 -1.2552645206451416
-18.80183219909668 15.456684112548828 -1.2343651056289673
-18.80181121826172 14.836359977722168 -1.2146292924880981
-18.80179214477539 14.23532485961914 -1.1959874629974365
-18.89912986755371 13.72292423248291 -1.1844747066497803
-21.12313461303711 12.319611549377441 -1.2401397228240967
-21.392969131469727 11.90990161895752 -1.2417272329330444
-22.176006317138672 11.77093505859375 -1.2732493877410889
-11.439295768737793 5.781611919403076 -0.6500213742256165
-25.549964904785156 12.27791690826416 -1.437593698501587
-26.946245193481445 12.291481971740723 -1.5020126104354858
-27.206533432006836 11.758440017700195 -1.5031112432479858
-30.01324462890625 12.264823913574219 -1.6442824602127075
-32.55615234375 11.807307243347168 -1.7562835216522217
-38.5556526184082 12.26147174835205 -2.051816940307617
-39.763671875 11.77499771118164 -2.1031441688537598
-41.174198150634766 11.301806449890137 -2.165348768234253
-41.57898712158203 9.64219856262207 -2.1646034717559814
-26.292011260986328 5.5452752113342285 -1.362707495689392
-29.30189323425293 5.570215225219727 -1.5126287937164307
-36.797706604003906 5.4801435470581055 -1.886741042137146
-43.28858184814453 4.6856818199157715 -2.2081727981567383
-43.36897277832031 3.818258047103882 -2.207929849624634
-46.37759780883789 3.1495299339294434 -2.357416868209839
-46.48097229003906 0.3616766333580017 -2.357316017150879
-46.478904724121094 -0.5683413743972778 -2.3573169708251953
-46.28810501098633 -4.282709121704102 -2.3574938774108887
-46.194969177246094 -5.208152770996094 -2.357581377029419
-46.08354568481445 -6.131601333618164 -2.3576858043670654
-45.64071273803711 -8.886609077453613 -2.358102798461914
-45.457157135009766 -9.798672676086426 -2.358275890350342
-45.25558090209961 -10.707011222839355 -2.3584659099578857
-45.03633499145508 -11.611346244812012 -2.358672857284546
-44.799495697021484 -12.511240005493164 -2.358896493911743
-41.88625717163086 -12.60634994506836 -2.2183473110198975
-38.185089111328125 -19.512975692749023 -2.1747190952301025
-37.39380645751953 -21.036203384399414 -2.1758792400360107
-36.9760627746582 -21.78636932373047 -2.1765058040618896
-36.54378890991211 -22.52861213684082 -2.1771624088287354
-35.6874885559082 -22.998554229736328 -2.153136968612671
-22.933712005615234 -15.437478065490723 -1.4020174741744995
-35.16032028198242 -24.703981399536133 -2.1792571544647217
-34.16633224487305 -26.107973098754883 -2.180689573287964
-25.398685455322266 -23.78178596496582 -1.7645827531814575
-30.883512496948242 -30.099395751953125 -2.1870546340942383
-28.441986083984375 -32.54502868652344 -2.191957473754883
-18.802486419677734 18.162822723388672 -1.9168128967285156
-18.802419662475586 16.76168441772461 -1.8469117879867554
-18.802387237548828 16.098224639892578 -1.814902663230896
-18.802297592163086 14.235700607299805 -1.7291921377182007
-18.899410247802734 13.723119735717773 -1.7125258445739746
-19.259517669677734 13.404430389404297 -1.7205049991607666
-19.951759338378906 13.301713943481445 -1.758219838142395
-20.367746353149414 12.99807071685791 -1.7716013193130493
-20.79029655456543 12.689640998840332 -1.785908579826355
-21.393259048461914 11.910078048706055 -1.7953035831451416
-22.176015853881836 11.77093505859375 -1.8408584594726562
-25.959720611572266 11.841474533081055 -2.092094659805298
-27.434860229492188 11.857160568237305 -2.1914219856262207
-27.66123390197754 11.303681373596191 -2.190993309020996
-28.08119773864746 10.184362411499023 -2.1902055740356445
-28.274688720703125 9.618932723999023 -2.1898465156555176
-17.272268295288086 5.4929351806640625 -1.3289388418197632
-20.30584144592285 5.573694229125977 -1.5439373254776
-29.778188705444336 5.660763263702393 -2.2224996089935303
-29.87581443786621 5.062211036682129 -2.2217867374420166
-30.038183212280273 3.860873222351074 -2.2205827236175537
-32.21011734008789 2.8358190059661865 -2.3708484172821045
-32.32072830200195 0.8984161019325256 -2.370741605758667
-32.330623626708984 -0.3953436315059662 -2.3707306385040283
-32.31640625 -1.0420769453048706 -2.3707435131073
-32.1972541809082 -2.978973388671875 -2.370854377746582
-31.96351432800293 -4.905548572540283 -2.3710739612579346
-31.86028289794922 -5.5442705154418945 -2.371171236038208
-31.4750919342041 -7.446688652038574 -2.3715343475341797
-30.97791862487793 -9.323290824890137 -2.3720037937164307
-30.143348693847656 -11.773970603942871 -2.3727922439575195
-29.90523338317871 -12.37584400177002 -2.3730173110961914
-28.844133377075195 -12.618657112121582 -2.3084428310394287
-27.52732276916504 -12.704169273376465 -2.2228715419769287
-27.270599365234375 -13.254304885864258 -2.223200559616089
-27.004344940185547 -13.799468994140625 -2.2235565185546875
-26.73885726928711 -14.345598220825195 -2.2248950004577637
-26.446481704711914 -14.877690315246582 -2.2248923778533936
-24.907129287719727 -16.765859603881836 -2.201444387435913
-23.874311447143555 -18.243391036987305 -2.203089952468872
-23.51083755493164 -18.72240447998047 -2.203679323196411
-23.13797378540039 -19.194379806518555 -2.204288959503174
-22.755807876586914 -19.659021377563477 -2.20491886138916
-21.554935455322266 -21.007648468017578 -2.206908702850342
-20.70978546142578 -21.866411209106445 -2.2082440853118896
-20.27456283569336 -22.283422470092773 -2.2089407444000244
-16.252593994140625 16.340805053710938 -2.212635040283203
-16.884157180786133 15.66903018951416 -2.211435079574585
-17.780012130737305 14.61666488647461 -2.2097327709198
-18.341642379760742 13.886984825134277 -2.208667516708374
-18.61155128479004 13.514108657836914 -2.208155870437622
-18.873947143554688 13.136086463928223 -2.2076587677001953
-19.12884521484375 12.753064155578613 -2.2071781158447266
-19.6156005859375 11.97261905670166 -2.2062604427337646
-19.84721565246582 11.575458526611328 -2.205822467803955
-15.83459758758545 5.386868000030518 -1.6057595014572144
-17.272716522216797 5.493071556091309 -1.7401058673858643
-20.30635643005371 5.5738396644592285 -2.021613121032715
-22.625473022460938 5.246857166290283 -2.2297980785369873
-22.794218063354492 4.333120822906494 -2.2275447845458984
-22.946073532104492 3.4172704219818115 -2.227231979370117
-24.674057006835938 2.172335147857666 -2.3779923915863037
-24.74053955078125 1.183449625968933 -2.3779284954071045
-24.767807006835938 0.1927325427532196 -2.377901315689087
-24.73507308959961 -1.293418288230896 -2.3779308795928955
-24.664188385009766 -2.281999111175537 -2.3779971599578857
-24.61408233642578 -2.77506160736084 -2.3780441284179688
-24.554210662841797 -3.2670323848724365 -2.3781001567840576
-24.484622955322266 -3.7577428817749023 -2.3781657218933105
-24.40532112121582 -4.246968746185303 -2.3782403469085693
-24.31629753112793 -4.7345733642578125 -2.378324270248413
-24.217695236206055 -5.220324993133545 -2.3784172534942627
-23.58114242553711 -7.614871501922607 -2.3790183067321777
-23.42551612854004 -8.085618019104004 -2.3791651725769043
-23.260570526123047 -8.55323314666748 -2.3793210983276367
-23.086360931396484 -9.017531394958496 -2.379485607147217
-22.90304183959961 -9.478290557861328 -2.3796591758728027
-22.29855728149414 -10.837751388549805 -2.380230665206909
-22.079191207885742 -11.282696723937988 -2.3804380893707275
-21.85102653503418 -11.72323989868164 -2.3806540966033936
-19.27536392211914 -12.974919319152832 -2.2307236194610596
-19.014577865600586 -13.359882354736328 -2.231044054031372
-18.47974967956543 -14.12116813659668 -2.2328271865844727
-18.203495025634766 -14.496003150939941 -2.234053134918213
-17.913225173950195 -14.860240936279297 -2.2344911098480225
-17.15968132019043 -15.434711456298828 -2.2157886028289795
-16.86016845703125 -15.786835670471191 -2.217465400695801
-16.54494285583496 -16.124876022338867 -2.21799635887146
-15.89454460144043 -16.7822265625 -2.219102621078491
-15.559602737426758 -17.101301193237305 -2.219676971435547
-15.218379020690918 -17.413782119750977 -2.2202658653259277
-13.170369148254395 13.241830825805664 -2.218484401702881
-13.429728507995605 12.972814559936523 -2.2179925441741943
-13.931941986083984 12.419840812683105 -2.217043399810791
-14.174736976623535 12.136093139648438 -2.2165849208831787
-14.411712646484375 11.847678184509277 -2.216137409210205
-14.643033027648926 11.554706573486328 -2.215698719024658
-15.087825775146484 10.95547866821289 -2.214855194091797
-15.30118465423584 10.649467468261719 -2.2144505977630615
-15.709535598754883 10.025328636169434 -2.2136807441711426
-15.904333114624023 9.70742130279541 -2.213315725326538
-16.092802047729492 9.385764122009277 -2.2129626274108887
-9.777652740478516 5.44342565536499 -1.329306960105896
-16.937503814697266 7.7260003089904785 -2.211364507675171
-17.346834182739258 7.088773727416992 -2.225982904434204
-14.278247833251953 5.5040388107299805 -1.81771981716156
-17.674461364746094 6.410093307495117 -2.2332892417907715
-15.834794998168945 5.386934280395508 -1.9868181943893433
-17.27316665649414 5.4932122230529785 -2.1530721187591553
-18.455411911010742 3.5083189010620117 -2.231501579284668
-19.838918685913086 2.954543352127075 -2.382577419281006
-19.9404296875 2.1584088802337646 -2.3824801445007324
-20.033260345458984 0.9582830667495728 -2.3823909759521484
-20.05537986755371 0.1560644507408142 -2.38236927986145
-20.054487228393555 -0.24522216618061066 -2.3823695182800293
-20.028860092163086 -1.0473190546035767 -2.3823928833007812
-20.004037857055664 -1.4478462934494019 -2.382416248321533
-19.971343994140625 -1.8478047847747803 -2.382446765899658
-19.82565689086914 -3.0427181720733643 -2.3825836181640625
-19.689117431640625 -3.833627939224243 -2.3827121257781982
-19.521303176879883 -4.618542194366455 -2.3828704357147217
-19.42571449279785 -5.008368492126465 -2.382960557937622
-18.96656608581543 -6.546559810638428 -2.383394241333008
-18.6915225982666 -7.300897121429443 -2.3836543560028076
-18.54283332824707 -7.673838138580322 -2.3837947845458984
-18.38672637939453 -8.043783187866211 -2.3839423656463623
-18.052595138549805 -8.774087905883789 -2.384258270263672
-16.87969970703125 -10.878003120422363 -2.3853681087493896
-16.660146713256836 -11.214521408081055 -2.385576009750366
-16.201120376586914 -11.874212265014648 -2.3860104084014893
-14.083171844482422 -12.66844367980957 -2.25022029876709
-13.481901168823242 -13.13962173461914 -2.2362449169158936
-13.21809196472168 -13.40854263305664 -2.236546039581299
-12.952105522155762 -13.675480842590332 -2.237393379211426
-12.40502643585205 -14.19454288482666 -2.23926043510437
-11.061419486999512 11.12144947052002 -2.222496271133423
-11.493237495422363 10.666089057922363 -2.22167706489563
-11.702248573303223 10.432135581970215 -2.221280574798584
-12.675207138061523 9.203630447387695 -2.219449043273926
-12.854820251464844 8.946826934814453 -2.219109535217285
-8.385083198547363 5.351109027862549 -1.40939199924469
-13.36259937286377 8.15604019165039 -2.2181499004364014
-13.521271705627441 7.885990619659424 -2.217848777770996
-10.310908317565918 5.472994804382324 -1.6539968252182007
-10.830574989318848 5.47395658493042 -1.7194433212280273
-11.288139343261719 5.424469470977783 -1.7744922637939453
-12.788575172424316 5.5271220207214355 -1.9739975929260254
-14.278642654418945 5.504186153411865 -2.168240785598755
-15.042375564575195 4.783773899078369 -2.2365269660949707
-15.129304885864258 4.480162143707275 -2.235672950744629
-15.210111618041992 4.174986362457275 -2.2348215579986572
-15.288907051086426 3.8694090843200684 -2.234574556350708
-16.600643157958984 2.812833786010742 -2.3856472969055176
-16.653162002563477 2.480095863342285 -2.3855972290039062
-16.699127197265625 2.1463751792907715 -2.3855531215667725
-16.738475799560547 1.81182062625885 -2.3855154514312744
-16.835079193115234 0.13100524246692657 -2.3854222297668457
-16.834331512451172 -0.20584715902805328 -2.385422468185425
-16.79194450378418 -1.215362548828125 -2.3854615688323975
-16.76444435119629 -1.5510927438735962 -2.3854873180389404
-16.730281829833984 -1.8862136602401733 -2.38551926612854
-16.689464569091797 -2.2205944061279297 -2.3855578899383545
-16.58793830871582 -2.8865981101989746 -2.385653257369995
-16.527259826660156 -3.217991828918457 -2.3857104778289795
-16.026092529296875 -5.17517614364624 -2.386183500289917
-15.563901901245117 -6.441029071807861 -2.386620283126831
-14.685745239257812 -8.261513710021973 -2.387450933456421
-14.51833438873291 -8.554226875305176 -2.3876092433929443
-13.982000350952148 -9.411767959594727 -2.3881170749664307
-13.596362113952637 -9.965113639831543 -2.388482093811035
-13.18893814086914 -10.502763748168945 -2.3888676166534424
-12.97726058959961 -10.7654390335083 -2.389068126678467
-12.311332702636719 -11.52757740020752 -2.3896985054016113
-12.07935905456543 -11.772661209106445 -2.389918327331543
-11.842514038085938 -12.013124465942383 -2.3901426792144775
-11.600561141967773 -12.248807907104492 -2.390371561050415
-11.35456371307373 -12.479670524597168 -2.3906047344207764
-11.056600570678711 -12.651656150817871 -2.3806891441345215
-9.526211738586426 9.57794189453125 -2.22541880607605
-9.714442253112793 9.383926391601562 -2.225064277648926
-9.898641586303711 9.186264991760254 -2.2247164249420166
-10.078936576843262 8.985002517700195 -2.2243754863739014
-10.255148887634277 8.780241012573242 -2.2240421772003174
-10.427230834960938 8.572054862976074 -2.2237167358398438
-11.073067665100098 7.706736087799072 -2.2224910259246826
-8.289145469665527 5.52632999420166 -1.6412055492401123
-8.38516902923584 5.351160049438477 -1.6386998891830444
-11.596123695373535 7.077587127685547 -2.237985849380493
-9.778043746948242 5.4436492919921875 -1.8436315059661865
-12.005952835083008 6.372713088989258 -2.2392075061798096
-11.288366317749023 5.424576759338379 -2.063215494155884
-12.586788177490234 5.143550395965576 -2.23998761177063
-12.6829833984375 4.8890838623046875 -2.2392477989196777
-12.7740478515625 4.632830619812012 -2.238508462905884
-12.940617561340332 4.115378379821777 -2.2370340824127197
-13.01855182647705 3.8551201820373535 -2.236725330352783
-13.092373847961426 3.5936949253082275 -2.236604928970337
-13.994864463806152 3.245326519012451 -2.36661696434021
-14.2398681640625 2.7069780826568604 -2.387885332107544
-14.29095458984375 2.421488046646118 -2.3878366947174072
-14.37590217590332 1.8477672338485718 -2.3877556324005127
-14.437962532043457 1.271132230758667 -2.3876960277557373
-14.460350036621094 0.9820098876953125 -2.387674570083618
-14.473803520202637 -0.756848156452179 -2.387659788131714
-14.455860137939453 -1.0462771654129028 -2.38767671585083
-14.432168960571289 -1.3353054523468018 -2.3876986503601074
-14.367554664611816 -1.9116594791412354 -2.3877594470977783
-14.326669692993164 -2.1987643241882324 -2.3877978324890137
-14.280070304870605 -2.4849932193756104 -2.3878417015075684
-14.169845581054688 -3.0544261932373047 -2.3879456520080566
-13.88187313079834 -4.1779704093933105 -2.3882174491882324
-13.795978546142578 -4.455026626586914 -2.388298511505127
-13.704583168029785 -4.73031759262085 -2.388385057449341
-13.607728958129883 -5.003736972808838 -2.388476610183716
-13.284743309020996 -5.811777114868164 -2.388781785964966
-13.0428466796875 -6.339200973510742 -2.3890106678009033
-12.914068222045898 -6.599217414855957 -2.389132499694824
-12.780130386352539 -6.856637954711914 -2.389259099960327
-12.64107894897461 -7.1113481521606445 -2.389390707015991
-12.496976852416992 -7.363248348236084 -2.3895270824432373
-12.03498649597168 -8.101165771484375 -2.3899643421173096
-11.871234893798828 -8.340851783752441 -2.3901193141937256
-11.529562950134277 -8.810277938842773 -2.3904426097869873
-10.98272705078125 -9.488130569458008 -2.390960216522217
-10.791510581970215 -9.70670223236084 -2.391141414642334
-10.595973014831543 -9.921424865722656 -2.391326427459717
-10.396181106567383 -10.132230758666992 -2.3915157318115234
-10.192195892333984 -10.339040756225586 -2.3917088508605957
-9.984134674072266 -10.541749000549316 -2.3919060230255127
-9.772048950195312 -10.7402925491333 -2.392106771469116
-9.556038856506348 -10.93459415435791 -2.3923115730285645
-5.335756778717041 5.364724636077881 -1.4221893548965454
-8.522916793823242 8.232966423034668 -2.2273309230804443
-8.68472957611084 8.059704780578613 -2.227024793624878
-8.843070030212402 7.88326358795166 -2.226724863052368
-8.997908592224121 7.703742027282715 -2.2264275550842285
-9.154139518737793 7.52536153793335 -2.227370023727417
-9.501041412353516 7.193319320678711 -2.2398881912231445
-9.783758163452148 6.8094048500061035 -2.2405221462249756
-8.289453506469727 5.5265398025512695 -1.8726122379302979
-10.178826332092285 6.212784767150879 -2.2414445877075195
-9.778244018554688 5.443756580352783 -2.1035525798797607
-10.537935256958008 5.5934977531433105 -2.242455005645752
-10.648451805114746 5.381903648376465 -2.2426047325134277
-10.750872611999512 5.166288375854492 -2.2419557571411133
-10.848958969116211 4.948732376098633 -2.241306781768799
-10.942611694335938 4.729311943054199 -2.2406575679779053
-11.031831741333008 4.5081305503845215 -2.240008592605591
-11.116608619689941 4.285269260406494 -2.2393598556518555
-11.196878433227539 4.0608367919921875 -2.2387120723724365
-12.325241088867188 3.119344472885132 -2.3897011280059814
-12.534111022949219 2.12380313873291 -2.3895018100738525
-12.573888778686523 1.8725842237472534 -2.3894639015197754
-12.608665466308594 1.620618224143982 -2.389430522918701
-12.63841438293457 1.3680181503295898 -2.389402151107788
-12.68280029296875 0.8612951636314392 -2.389359712600708
-12.711483001708984 0.09891418367624283 -2.389331579208374
-12.710916519165039 -0.15543028712272644 -2.389331817626953
-12.70529842376709 -0.4096963405609131 -2.3893370628356934
-12.678847312927246 -0.9176656603813171 -2.389361619949341
-12.601346015930176 -1.676658034324646 -2.3894340991973877
-12.478672981262207 -2.429699420928955 -2.389549732208252
-12.427818298339844 -2.678920269012451 -2.3895976543426514
-12.311277389526367 -3.1741135120391846 -2.389707565307617
-12.245617866516113 -3.4198763370513916 -2.3897695541381836
-12.175084114074707 -3.6642906665802 -2.389836311340332
-12.019479751586914 -4.148685455322266 -2.3899831771850586
-11.750078201293945 -4.862753868103027 -2.390237808227539
-11.54723072052002 -5.329374313354492 -2.390429735183716
-11.208205223083496 -6.013282775878906 -2.3907504081726074
-11.08617877960205 -6.23662805557251 -2.3908658027648926
-10.410653114318848 -7.314620018005371 -2.391505002975464
-10.110882759094238 -7.726166248321533 -2.391788959503174
-9.95490837097168 -7.927402019500732 -2.3919365406036377
-9.291831970214844 -8.700196266174316 -2.392564296722412
-9.116411209106445 -8.884950637817383 -2.392730474472046
-8.937453269958496 -9.066218376159668 -2.392899990081787
-8.754918098449707 -9.243878364562988 -2.3930728435516357
-8.568852424621582 -9.417881965637207 -2.393249034881592
-8.379339218139648 -9.588155746459961 -2.393428325653076
-7.616137981414795 7.3570404052734375 -2.2383484840393066
-5.8885955810546875 5.46480655670166 -1.6981528997421265
-6.130636692047119 5.465254306793213 -1.736067295074463
-8.586566925048828 6.234808921813965 -2.243034601211548
-8.289761543273926 5.526742458343506 -2.106032133102417
-8.385335922241211 5.3512701988220215 -2.102670431137085
-9.170496940612793 5.348496437072754 -2.2440590858459473
-9.273290634155273 5.162635803222656 -2.2434847354888916
-9.467538833618164 4.785055637359619 -2.242332935333252
-9.88641357421875 3.811060667037964 -2.23968768119812
-10.234297752380371 3.2547173500061035 -2.2700886726379395
-10.908169746398926 2.994145393371582 -2.3910443782806396
-10.965598106384277 2.7752439975738525 -2.3909895420074463
-11.244402885437012 1.2171257734298706 -2.390723705291748
-11.26639461517334 0.9919049143791199 -2.390702724456787
-11.283910751342773 0.766294538974762 -2.390685796737671
-11.29692554473877 0.5403838753700256 -2.3906731605529785
-11.305438041687012 0.3142559826374054 -2.39066481590271
-11.308934211730957 -0.13828612864017487 -2.3906610012054443
-11.303921699523926 -0.3645098805427551 -2.3906655311584473
-11.29440689086914 -0.5905963182449341 -2.390674352645874
-11.28039264678955 -0.8164474368095398 -2.3906874656677246
-11.261894226074219 -1.0419814586639404 -2.39070463180542
-11.179469108581543 -1.7157528400421143 -2.390782117843628
-11.143062591552734 -1.9390947818756104 -2.3908164501190186
-11.102209091186523 -2.161691904067993 -2.390854835510254
-10.895033836364746 -3.042647361755371 -2.391050338745117
-10.764852523803711 -3.476207733154297 -2.3911733627319336
-10.617781639099121 -3.9043004512786865 -2.39131236076355
-10.53787612915039 -4.116083145141602 -2.391387939453125
-10.365946769714355 -4.534663200378418 -2.391550302505493
-10.27309513092041 -4.7413177490234375 -2.3916382789611816
-10.07594108581543 -5.14890718460083 -2.391824722290039
-9.97131061553955 -5.349688529968262 -2.391923666000366
-9.862714767456055 -5.548357009887695 -2.392026424407959
-9.633718490600586 -5.9390177726745605 -2.3922431468963623
-9.389327049255371 -6.3202805519104 -2.392474412918091
-9.261456489562988 -6.507191181182861 -2.3925955295562744
-9.129903793334961 -6.691530227661133 -2.3927199840545654
-8.994670867919922 -6.873217582702637 -2.392848014831543
-8.855855941772461 -7.052189826965332 -2.392979383468628
-8.713479042053223 -7.228362083435059 -2.3931143283843994
-8.418301582336426 -7.572056770324707 -2.3933937549591064
-8.109634399414062 -7.9037299156188965 -2.393686056137085
-7.622373580932617 -8.377602577209473 -2.3941473960876465
-6.867004871368408 6.633388996124268 -2.2439167499542236
-7.254317283630371 6.210999011993408 -2.2444591522216797
-7.377782821655273 6.065155506134033 -2.244657039642334
-7.615941524505615 5.766223430633545 -2.2450778484344482
-7.7305498123168945 5.613255977630615 -2.245300769805908
-7.842113494873047 5.45803165435791 -2.2455317974090576
-8.150493621826172 4.974767208099365 -2.244180917739868
-8.246508598327637 4.809603691101074 -2.2436656951904297
-8.339160919189453 4.642587184906006 -2.2431492805480957
-8.514289855957031 4.303261756896973 -2.2421138286590576
-8.67560863494873 3.957365036010742 -2.2410762310028076
-8.751781463623047 3.782461404800415 -2.2407586574554443
-8.825325965881348 3.6064422130584717 -2.240654945373535
-8.895305633544922 3.428997755050659 -2.2405545711517334
-8.993773460388184 3.2618205547332764 -2.2484638690948486
-9.512675285339355 3.236159086227417 -2.361515998840332
-9.699857711791992 3.084744691848755 -2.3921899795532227
-9.759390830993652 2.889995574951172 -2.3921334743499756
-9.815034866333008 2.694100856781006 -2.392080545425415
-9.91462230682373 2.299192428588867 -2.3919856548309326
-10.066031455993652 1.4990984201431274 -2.391841173171997
-10.093897819519043 1.2973918914794922 -2.3918144702911377
-10.117738723754883 1.0951751470565796 -2.391791820526123
-10.137543678283691 0.892521321773529 -2.391772747039795
-10.15330982208252 0.6895159482955933 -2.3917574882507324
-10.165021896362305 0.4862377941608429 -2.3917462825775146
-10.172675132751465 0.2827679514884949 -2.3917388916015625
-10.17629623413086 0.07918761670589447 -2.391735076904297
-10.175844192504883 -0.12443114817142487 -2.391735315322876
-10.17133617401123 -0.3279876708984375 -2.3917393684387207
-10.162765502929688 -0.5314165949821472 -2.39174747467041
-10.150142669677734 -0.7346404790878296 -2.391759157180786
-10.133488655090332 -0.9375750422477722 -2.3917746543884277
-10.112777709960938 -1.1401422023773193 -2.391793966293335
-10.088044166564941 -1.342254877090454 -2.391817331314087
-10.026525497436523 -1.744800329208374 -2.3918752670288086
-9.94898509979248 -2.1445863246917725 -2.3919482231140137
-9.904266357421875 -2.3432507514953613 -2.3919904232025146
-9.746468544006348 -2.933359384536743 -2.392139434814453
-9.686056137084961 -3.127840757369995 -2.3921964168548584
-9.621782302856445 -3.3210830688476562 -2.3922572135925293
-9.553675651550293 -3.513012647628784 -2.3923215866088867
-9.326560020446777 -4.080159664154053 -2.392536163330078
-9.156482696533203 -4.450315475463867 -2.3926970958709717
-9.065893173217773 -4.632782459259033 -2.3927829265594482
-8.874004364013672 -4.992148399353027 -2.3929643630981445
-8.559626579284668 -5.516188621520996 -2.3932619094848633
-8.447918891906738 -5.686587333679199 -2.3933675289154053
-8.214414596557617 -6.020551681518555 -2.3935885429382324
-7.967764854431152 -6.344977855682373 -2.393822193145752
-7.8396196365356445 -6.503448486328125 -2.3939433097839355
-7.573953151702881 -6.8125901222229 -2.394195079803467
-7.296162128448486 -7.110912799835205 -2.394458055496216
-7.006640434265137 -7.397956371307373 -2.3947322368621826
-6.857632160186768 -7.5371012687683105 -2.3948733806610107
-6.705865383148193 -7.67326021194458 -2.395017147064209
-5.335899353027344 5.364870071411133 -1.959134578704834
-6.59055233001709 5.642698287963867 -2.246408700942993
-6.70266580581665 5.510156631469727 -2.2465884685516357
-6.916310787200928 5.236517906188965 -2.246124029159546
-7.018251895904541 5.0960516929626465 -2.245664596557617
-7.306789398193359 4.662972450256348 -2.2442753314971924
-7.397090435028076 4.514913082122803 -2.2438089847564697
-7.568634033203125 4.213618755340576 -2.242872953414917
-7.727900981903076 3.905809164047241 -2.2419331073760986
-7.876621723175049 3.592909574508667 -2.2415521144866943
-8.013596534729004 3.274686813354492 -2.2413887977600098
-8.750179290771484 2.9767754077911377 -2.39309024810791
-8.807829856872559 2.8010520935058594 -2.393035411834717
-8.95944881439209 2.2675023078918457 -2.3928911685943604
-9.002823829650879 2.087761878967285 -2.392849922180176
-9.042652130126953 1.9071954488754272 -2.3928117752075195
-9.16573429107666 1.1780925989151 -2.3926942348480225
-9.187390327453613 0.9944701790809631 -2.3926734924316406
-9.240577697753906 0.07190673798322678 -2.392622232437134
-9.240166664123535 -0.11298888921737671 -2.392622470855713
-9.216809272766113 -0.6670944094657898 -2.392643928527832
-9.182881355285645 -1.0353041887283325 -2.3926756381988525
-9.160408973693848 -1.2188286781311035 -2.3926968574523926
-9.104516983032227 -1.584352970123291 -2.392749309539795
-9.034100532531738 -1.9473751783370972 -2.3928158283233643
-8.993474960327148 -2.1277623176574707 -2.3928542137145996
-8.901473999023438 -2.4859423637390137 -2.3929409980773926
-8.609675407409668 -3.3629326820373535 -2.393216848373413
-8.468719482421875 -3.7048747539520264 -2.393350124359131
-8.393150329589844 -3.8736815452575684 -2.3934214115142822
-8.146450996398926 -4.370632648468018 -2.3936548233032227
-7.965649127960205 -4.693375587463379 -2.3938260078430176
-7.870441913604736 -4.85198974609375 -2.393915891647339
-7.670646667480469 -5.1633782386779785 -2.3941049575805664
-7.4585394859313965 -5.466569900512695 -2.39430570602417
-7.348023414611816 -5.614943027496338 -2.3944106101989746
-7.234541893005371 -5.761086940765381 -2.3945178985595703
-7.118160724639893 -5.9049506187438965 -2.3946280479431152
-6.998929977416992 -6.046468257904053 -2.3947410583496094
-6.752083778381348 -6.322237968444824 -2.394974708557129
-6.624581813812256 -6.456384181976318 -2.3950953483581543
-6.49440860748291 -6.587976455688477 -2.395218849182129
-6.361650466918945 -6.716941833496094 -2.3953444957733154
-5.710316181182861 5.516055107116699 -2.2475967407226562
-5.819738864898682 5.40090274810791 -2.247678518295288
-5.9255547523498535 5.282425880432129 -2.2472705841064453
-6.129893779754639 5.039292335510254 -2.246446371078491
-6.324235916137695 4.78824520111084 -2.2456130981445312
-6.596372604370117 4.397765636444092 -2.2443480491638184
-6.681771755218506 4.264103889465332 -2.2439229488372803
-6.764461994171143 4.128782749176025 -2.2434964179992676
-6.921576499938965 3.8533873558044434 -2.242640495300293
-7.138942241668701 3.430583953857422 -2.242220640182495
-8.005288124084473 2.7233726978302 -2.39379620552063
-8.23651123046875 1.910053014755249 -2.393576145172119
-8.335930824279785 1.412457823753357 -2.393481492996216
-8.362436294555664 1.2453887462615967 -2.393455982208252
-8.385604858398438 1.0778210163116455 -2.3934340476989746
-8.42188835144043 0.741473376750946 -2.393399238586426
-8.434988975524902 0.5728222727775574 -2.3933863639831543
-8.45109748840332 0.2349139302968979 -2.3933708667755127
-8.453722953796387 -0.10337158292531967 -2.3933680057525635
-8.442853927612305 -0.44148221611976624 -2.3933780193328857
-8.432379722595215 -0.6103146076202393 -2.393387794494629
-8.401299476623535 -0.9471853375434875 -2.3934168815612793
-8.380738258361816 -1.1150906085968018 -2.3934361934661865
-8.329585075378418 -1.4494997262954712 -2.393484354019165
-8.299018859863281 -1.6158868074417114 -2.3935132026672363
-8.265135765075684 -1.7816162109375 -2.393544912338257
-8.096763610839844 -2.436856746673584 -2.3937039375305176
-7.813790798187256 -3.2336909770965576 -2.3939714431762695
-7.678583145141602 -3.543887138366699 -2.394099235534668
-7.606359004974365 -3.6969118118286133 -2.39416766166687
-7.531095027923584 -3.8484649658203125 -2.3942389488220215
-7.452818870544434 -3.9984943866729736 -2.394312858581543
-7.371573448181152 -4.146939754486084 -2.3943896293640137
-7.017417907714844 -4.723665237426758 -2.3947248458862305
-6.823331356048584 -5.001003742218018 -2.3949084281921387
-6.722201347351074 -5.136723041534424 -2.3950042724609375
-6.4027533531188965 -5.531424522399902 -2.3953068256378174
-6.176891326904297 -5.783665180206299 -2.3955206871032715
-6.060222148895264 -5.906351566314697 -2.3956310749053955
-5.9411234855651855 -6.026711940765381 -2.3957438468933105
-2.8176939487457275 -2.975062131881714 -1.1600046157836914
-2.457648754119873 -2.8121914863586426 -1.0572853088378906
-5.255390644073486 5.07660436630249 -2.247450590133667
-5.355014324188232 4.969620704650879 -2.2470779418945312
-5.547688007354736 4.749817371368408 -2.2463247776031494
-5.640652179718018 4.637088298797607 -2.2459444999694824
-5.9056315422058105 4.2881574630737305 -2.244791269302368
-6.225222587585449 3.7996509075164795 -2.2432303428649902
-6.371500015258789 3.547152519226074 -2.242971181869507
-6.50786828994751 3.289186954498291 -2.24281644821167
-6.744441509246826 3.2410197257995605 -2.3015408515930176
-7.264007568359375 2.8001463413238525 -2.3944990634918213
-7.318358421325684 2.654203414916992 -2.3944473266601562
-7.369880199432373 2.507202625274658 -2.3943984508514404
-7.41841983795166 2.359205961227417 -2.3943521976470947
-7.464003086090088 2.210278272628784 -2.3943088054656982
-7.506601333618164 2.0604662895202637 -2.394268274307251
-7.546206474304199 1.9098399877548218 -2.394230604171753
-7.582789897918701 1.7584527730941772 -2.394195795059204
-7.61635684967041 1.606372594833374 -2.3941638469696045
-7.69874906539917 1.14654541015625 -2.394085168838501
-7.738331317901611 0.8376196026802063 -2.394047260284424
-7.753494739532471 0.6826251149177551 -2.3940327167510986
-7.765559673309326 0.5273632407188416 -2.3940210342407227
-7.780397891998291 0.21627074480056763 -2.3940067291259766
-7.78281307220459 -0.0951678454875946 -2.3940041065216064
-7.779365539550781 -0.25085386633872986 -2.3940072059631348
-7.772806644439697 -0.40644651651382446 -2.3940134048461914
-7.763140678405762 -0.5618786215782166 -2.394022226333618
-7.750394344329834 -0.7170867919921875 -2.3940341472625732
-7.715600967407227 -1.0265880823135376 -2.39406681060791
-7.609148979187012 -1.6402138471603394 -2.394167184829712
-7.574918270111084 -1.7921496629714966 -2.3941993713378906
-7.497381210327148 -2.0938189029693604 -2.394272565841675
-7.407876491546631 -2.392167568206787 -2.394357204437256
-7.306538105010986 -2.6867103576660156 -2.3944528102874756
-7.2514824867248535 -2.8324224948883057 -2.394505023956299
-7.193525791168213 -2.9769957065582275 -2.394559621810913
-7.132701873779297 -3.1203975677490234 -2.3946173191070557
-7.069016456604004 -3.2625582218170166 -2.3946776390075684
-7.002509593963623 -3.403423309326172 -2.394740343093872
-6.933210372924805 -3.542938232421875 -2.394805908203125
-6.786312103271484 -3.8176982402801514 -2.394944906234741
-6.708780288696289 -3.952824592590332 -2.3950183391571045
-6.6285624504089355 -4.086391448974609 -2.395094156265259
-6.460206985473633 -4.348589897155762 -2.3952536582946777
-6.092751979827881 -4.851846694946289 -2.395601511001587
-3.1421031951904297 -2.714505672454834 -1.2771488428115845
-2.9773058891296387 -2.6780142784118652 -1.2317012548446655
-2.6446118354797363 -2.577465772628784 -1.1358481645584106
-2.303746223449707 -2.532007932662964 -1.052903413772583
-2.1972131729125977 -2.5141875743865967 -1.0270030498504639
-4.953911781311035 4.597382068634033 -2.2465593814849854
-5.132277488708496 4.39415168762207 -2.2458627223968506
-5.302296161651611 4.184001445770264 -2.245157480239868
-5.4636993408203125 3.967266798019409 -2.2444443702697754
-5.54109525680542 3.856545925140381 -2.2440855503082275
-5.689792156219482 3.631052255630493 -2.24363374710083
-5.7610697746276855 3.516348123550415 -2.243544340133667
-5.844822883605957 3.4088690280914307 -2.2491440773010254
-5.89680290222168 3.2828404903411865 -2.2433958053588867
-6.10468053817749 3.2403478622436523 -2.2973790168762207
-6.614151477813721 2.8585643768310547 -2.395115375518799
-6.669824600219727 2.725604772567749 -2.3950624465942383
-6.773248672485352 2.4564929008483887 -2.3949639797210693
-6.820908546447754 2.3204474449157715 -2.39491868019104
-6.908041000366211 2.045644998550415 -2.3948357105255127
-7.018004417419434 1.6274797916412354 -2.394731044769287
-7.077333450317383 1.3453832864761353 -2.39467453956604
-7.102761745452881 1.2035070657730103 -2.3946502208709717
-7.14509916305542 0.9183764457702637 -2.3946096897125244
-7.203173637390137 -0.08807922154664993 -2.3945536613464355
-7.193909168243408 -0.3761749267578125 -2.394562244415283
-7.184969902038574 -0.5200304985046387 -2.3945705890655518
-7.173154830932617 -0.6636816263198853 -2.3945815563201904
-7.120572566986084 -1.092820405960083 -2.3946309089660645
-7.097349643707275 -1.2350692749023438 -2.394652843475342
-7.071293354034424 -1.3768380880355835 -2.3946774005889893
-6.976220607757568 -1.7986215353012085 -2.3947670459747314
-6.938943386077881 -1.937862515449524 -2.3948020935058594
-6.898899555206299 -2.07633376121521 -2.3948400020599365
-6.856087684631348 -2.213981866836548 -2.394880533218384
-6.6576690673828125 -2.7552337646484375 -2.3950679302215576
-6.480842113494873 -3.14987850189209 -2.395235300064087
-6.416685581207275 -3.2789905071258545 -2.3952958583831787
-6.3499627113342285 -3.406803846359253 -2.3953590393066406
-6.0579729080200195 -3.904017210006714 -2.3956353664398193
-5.978838920593262 -4.024564266204834 -2.3957102298736572
-5.813425540924072 -4.260806560516357 -2.395866870880127
-3.1095519065856934 -2.476229429244995 -1.3213293552398682
-2.7689878940582275 -2.3921661376953125 -1.2163389921188354
-2.5377185344696045 -2.376166343688965 -1.1556143760681152
-2.4321117401123047 -2.370361566543579 -1.1288968324661255
-2.066281795501709 -2.364362955093384 -1.0437602996826172
-4.5181097984313965 4.364407062530518 -2.246427297592163
-4.603867530822754 4.272533416748047 -2.2461068630218506
-4.7697319984436035 4.0837507247924805 -2.245459794998169
-4.927851676940918 3.8885295391082764 -2.2448041439056396
-5.0039262771606445 3.7886040210723877 -2.244473934173584
-5.078158855438232 3.687323570251465 -2.244224786758423
-5.150690078735352 3.584841728210449 -2.244136333465576
-5.221183776855469 3.480943441390991 -2.244049549102783
-5.979025363922119 3.021898031234741 -2.3957176208496094
-6.038145542144775 2.9016058444976807 -2.3956613540649414
-6.094818592071533 2.7801549434661865 -2.3956074714660645
-6.1491265296936035 2.657601833343506 -2.3955559730529785
-6.296858310699463 2.283804178237915 -2.3954155445098877
-6.383206844329834 2.0299901962280273 -2.3953332901000977
-6.579865455627441 1.2508165836334229 -2.395146131515503
-6.603512287139893 1.1189111471176147 -2.3951234817504883
-6.624519348144531 0.9865673780441284 -2.3951034545898438
-6.642886161804199 0.8538262844085693 -2.3950858116149902
-6.689758777618408 0.3200012147426605 -2.39504075050354
-6.69688606262207 -0.08188903331756592 -2.395033597946167
-6.693915843963623 -0.2158532738685608 -2.395036458969116
-6.688272476196289 -0.34973570704460144 -2.3950417041778564
-6.679958343505859 -0.4834795892238617 -2.3950493335723877
-6.668974876403809 -0.6170318722724915 -2.395059585571289
-6.574251174926758 -1.2800594568252563 -2.395148754119873
-6.517922878265381 -1.5420739650726318 -2.3952019214630127
-6.451187610626221 -1.801641821861267 -2.3952648639678955
-6.413938999176025 -1.9303765296936035 -2.3952999114990234
-6.33178186416626 -2.1854987144470215 -2.3953776359558105
-6.239506244659424 -2.437145709991455 -2.3954648971557617
-6.1896233558654785 -2.561537504196167 -2.395512104034424
-6.137266635894775 -2.6849167346954346 -2.395561456680298
-5.903507709503174 -3.16727614402771 -2.395782470703125
-5.839105606079102 -3.284837484359741 -2.395843505859375
-5.703323841094971 -3.5159971714019775 -2.3959720134735107
-5.631997585296631 -3.6295013427734375 -2.3960394859313965
-3.0149986743927 -2.3038902282714844 -1.3569351434707642
-2.666478157043457 -2.30360746383667 -1.2601137161254883
-2.4606993198394775 -2.304050922393799 -1.2054961919784546
-2.370333194732666 -2.3101518154144287 -1.1836353540420532
-2.185694456100464 -2.307765245437622 -1.1366645097732544
-2.1100451946258545 -2.319112777709961 -1.1212327480316162
-2.028578996658325 -2.3212220668792725 -1.1024054288864136
-4.133604526519775 4.156036376953125 -2.2463035583496094
-4.215373516082764 4.071966648101807 -2.246006965637207
-4.373729705810547 3.8990252017974854 -2.2454073429107666
-4.598237991333008 3.628434896469116 -2.24466872215271
-4.669733047485352 3.535579204559326 -2.2445831298828125
-4.807109832763672 3.3457000255584717 -2.244428873062134
-5.071545124053955 3.236504554748535 -2.3055450916290283
-5.4014763832092285 3.150287389755249 -2.3962652683258057
-5.580280780792236 2.8203845024108887 -2.3960952758789062
-5.635486125946045 2.7081170082092285 -2.396042823791504
-5.688425064086914 2.5947699546813965 -2.3959927558898926
-5.73909854888916 2.48039174079895 -2.395944356918335
-5.787463665008545 2.365029811859131 -2.3958985805511475
-5.833432674407959 2.248725652694702 -2.3958547115325928
-5.877236843109131 2.131528854370117 -2.39581298828125
-5.91860818862915 2.013486862182617 -2.3957736492156982
-5.957612037658691 1.8946404457092285 -2.3957366943359375
-5.994239330291748 1.7750451564788818 -2.3957018852233887
-6.116667747497559 1.2900713682174683 -2.395585298538208
-6.1411943435668945 1.1674261093139648 -2.395561933517456
-6.1828765869140625 0.920794665813446 -2.395522117614746
-6.200018882751465 0.7969030737876892 -2.395505666732788
-6.226869583129883 0.548219621181488 -2.395479917526245
-6.243776798248291 0.2986676096916199 -2.395463705062866
-6.248488426208496 0.17368774116039276 -2.3954591751098633
-6.25070858001709 0.048640746623277664 -2.3954567909240723
-6.250430583953857 -0.07643066346645355 -2.3954570293426514
-6.247654914855957 -0.20146118104457855 -2.3954596519470215
-6.234626293182373 -0.45124754309654236 -2.3954715728759766
-6.224373817443848 -0.5758959650993347 -2.3954811096191406
-6.196419715881348 -0.8244585990905762 -2.395507335662842
-6.178729057312012 -0.9482717514038086 -2.395524024963379
-6.0833659172058105 -1.4392632246017456 -2.3956139087677
-6.053426265716553 -1.5607030391693115 -2.3956422805786133
-6.021066665649414 -1.6815224885940552 -2.3956727981567383
-5.867717266082764 -2.157637596130371 -2.395817756652832
-5.82347297668457 -2.2746422290802 -2.395859479904175
-5.72802734375 -2.5058858394622803 -2.395949602127075
-5.623426914215088 -2.733149290084839 -2.3960485458374023
-5.509828567504883 -2.9560635089874268 -2.396156072616577
-5.449708938598633 -3.065781593322754 -2.3962128162384033
-5.187701225280762 -3.4920225143432617 -2.396460771560669
-5.116940975189209 -3.595211982727051 -2.3965277671813965
-3.0507237911224365 -2.2359530925750732 -1.4494764804840088
-2.6861486434936523 -2.228325843811035 -1.3374714851379395
-2.5871362686157227 -2.2350637912750244 -1.3101791143417358
-2.487604856491089 -2.2375400066375732 -1.2821941375732422
-2.403212785720825 -2.250223398208618 -1.2616521120071411
-2.222252130508423 -2.254270315170288 -1.2130619287490845
-1.9916491508483887 -2.2789642810821533 -1.1598501205444336
