ply
format ascii 1.0
element vertex 268
property float x
property float y
property float z
end_header
1.9930419921875 16.71931266784668 2.9689412117004395
1.620144009590149 16.432323455810547 2.9115121364593506
1.279061198234558 16.384214401245117 2.89776873588562
-0.05463012680411339 15.323298454284668 2.70192813873291
-0.3682605028152466 15.383710861206055 2.7133407592773438
1.5187829732894897 15.404264450073242 2.3712902069091797
1.2269518375396729 15.716713905334473 2.4150390625
0.9222875833511353 16.010845184326172 2.456838846206665
0.27498045563697815 16.362993240356445 2.5070741176605225
-0.05885253846645355 16.506534576416016 2.528726100921631
1.9389073848724365 16.265180587768555 2.1330621242523193
1.595742106437683 16.184799194335938 2.117818593978882
0.605175793170929 16.27297592163086 2.1205456256866455
-0.06220336630940437 17.446378707885742 2.2718968391418457
0.2548535168170929 15.165385246276855 1.628717303276062
-0.05304199084639549 14.876803398132324 1.5975087881088257
-0.4157971143722534 17.36963653564453 1.8657177686691284
1.9712340831756592 16.536367416381836 1.4097610712051392
1.629913330078125 16.531322479248047 1.4062087535858154
0.9067102074623108 15.740431785583496 1.3346810340881348
0.6113622784614563 16.439342498779297 1.392599105834961
0.2799072265625 16.65614891052246 1.4101897478103638
-0.05993896350264549 16.81245994567871 1.4232314825057983
-0.7409142851829529 16.713197708129883 1.416209101676941
-1.3751708269119263 16.13203239440918 1.370574951171875
-1.83059561252594 17.302440643310547 1.4728755950927734
1.9648973941802979 16.483217239379883 1.0293670892715454
1.6104857921600342 16.334327697753906 1.0178087949752808
0.9149804711341858 15.883994102478027 0.9866052269935608
0.5965991020202637 16.042308807373047 0.9954772591590881
0.2723974585533142 16.209144592285156 1.0052770376205444
-1.4021508693695068 16.448497772216797 1.0236767530441284
1.3645055294036865 17.47868537902832 0.6912997364997864
0.7764855623245239 46.20553970336914 1.8221887350082397
-0.48320555686950684 20.185443878173828 0.796160876750946
-0.7347314357757568 16.57361602783203 0.6541568040847778
-1.4280920028686523 16.75281524658203 0.6629769802093506
-1.7823596000671387 16.846487045288086 0.6679818630218506
-2.136255979537964 16.89484405517578 0.6714856028556824
2.714078426361084 47.11619186401367 0.7971954345703125
1.8011596202850342 48.43258285522461 0.8186776638031006
-0.16988158226013184 47.65050506591797 0.8049063086509705
1.3638134002685547 17.469852447509766 -0.09865737706422806
2.8487401008605957 28.893320083618164 -0.8175156712532043
1.0718493461608887 28.821659088134766 -0.8121142387390137
-0.1029687449336052 28.879518508911133 -0.8131877183914185
-1.863037109375 28.767807006835938 -0.8117333650588989
-3.0448803901672363 28.779550552368164 -0.814889669418335
-4.898867607116699 29.14779281616211 -0.8322476148605347
-6.067234516143799 28.854440689086914 -0.8302436470985413
-6.698840618133545 28.919965744018555 -0.8358816504478455
3.439343214035034 28.852079391479492 -1.473571538925171
2.8431150913238525 28.83631134033203 -1.469503402709961
1.3631335496902466 17.46113395690918 -0.8882228136062622
-0.1029064953327179 28.864591598510742 -1.463855504989624
-0.6893517971038818 28.797033309936523 -1.4608385562896729
-1.860225796699524 28.724332809448242 -1.4597845077514648
-3.0503320693969727 28.831100463867188 -1.4703081846237183
-3.6875133514404297 29.16315269470215 -1.4907647371292114
-4.249080657958984 28.867084503173828 -1.4797472953796387
-5.459926128387451 28.87501335144043 -1.4903249740600586
-6.06529426574707 28.845211029052734 -1.4948534965515137
-6.693410873413086 28.896507263183594 -1.5042650699615479
2.600900888442993 21.81855010986328 -1.6111090183258057
2.151202440261841 21.81855010986328 -1.6075396537780762
1.2568334341049194 21.81855010986328 -1.6024352312088013
0.8114111423492432 21.81855010986328 -1.600888967514038
0.3670580983161926 21.842092514038086 -1.6017358303070068
-0.5228637456893921 21.842092514038086 -1.6019681692123413
-0.968280017375946 21.842092514038086 -1.6030820608139038
-3.050065755844116 28.82855987548828 -2.1255691051483154
-5.492861270904541 29.049150466918945 -2.1676888465881348
-6.113284111022949 29.073436737060547 -2.178342580795288
2.4656407833099365 20.683847427368164 -1.9998128414154053
1.0731066465377808 13.74603271484375 -1.323706030845642
1.1979211568832397 20.795818328857422 -1.9998128414154053
0.2308361828327179 13.73624038696289 -1.3189339637756348
-0.32866576313972473 13.72973346710205 -1.3185011148452759
-0.9225207567214966 20.809852600097656 -1.9998128414154053
-0.8887365460395813 13.723222732543945 -1.320258617401123
-3.406289577484131 23.141420364379883 -2.24562931060791
-3.8761346340179443 23.06262969970703 -2.245182514190674
-4.344182014465332 22.97437286376953 -2.2447378635406494
1.0731042623519897 13.74603271484375 -1.6378066539764404
0.5109533667564392 13.739497184753418 -1.633186936378479
-0.06002441421151161 16.83533477783203 -1.9998128414154053
-0.32866576313972473 13.72973346710205 -1.63136625289917
-0.7456005811691284 16.818920135498047 -1.9998128414154053
-1.4512280225753784 13.716681480407715 -1.6384425163269043
-2.3725621700286865 18.763696670532227 -2.246610164642334
-3.1337480545043945 18.64550018310547 -2.2458865642547607
-3.889265775680542 18.496490478515625 -2.245168447494507
-4.264497756958008 18.4105167388916 -2.244811773300171
1.0731042623519897 13.74603271484375 -1.9535939693450928
0.8116796612739563 14.090707778930664 -1.9998128414154053
0.5109545588493347 13.739497184753418 -1.9480865001678467
0.2308361828327179 13.73624038696289 -1.9465535879135132
-0.32866576313972473 13.72973346710205 -1.945914626121521
-0.6250817775726318 14.1002197265625 -1.9998128414154053
-0.8887365460395813 13.723222732543945 -1.9485082626342773
-1.9893676042556763 15.733173370361328 -2.2469730377197266
-2.627753734588623 15.634880065917969 -2.246366262435913
-2.94524884223938 15.576020240783691 -2.2460646629333496
-3.2614476680755615 15.51073169708252 -2.2457640171051025
-3.5761985778808594 15.439030647277832 -2.24546480178833
1.6169506311416626 13.564345359802246 -2.2503998279571533
1.3401904106140137 13.592870712280273 -2.250136613845825
0.7853124737739563 13.632978439331055 -2.2496092319488525
0.5074242949485779 13.644542694091797 -2.249345302581787
0.22939574718475342 13.650444030761719 -2.2490808963775635
-0.04867187514901161 13.650683403015137 -2.248816728591919
-0.6044164896011353 13.634169578552246 -2.248288631439209
-1.158911108970642 13.595053672790527 -2.2477614879608154
-1.4353917837142944 13.567045211791992 -2.2474987506866455
-1.9862719774246216 13.494189262390137 -2.2469751834869385
-2.533594846725464 13.398993492126465 -2.246454954147339
1.4170788526535034 11.88754653930664 -2.2502129077911377
1.1745288372039795 11.912721633911133 -2.2499823570251465
0.4447424113750458 11.958524703979492 -2.24928879737854
0.20105956494808197 11.963871955871582 -2.2490575313568115
-0.2862902879714966 11.959672927856445 -2.2485945224761963
-0.5297607183456421 11.9501314163208 -2.248363494873047
-0.7729528546333313 11.935636520385742 -2.2481324672698975
-1.0157934427261353 11.916203498840332 -2.2479021549224854
-1.2581517696380615 11.891820907592773 -2.2476720809936523
0.8283239603042603 10.610431671142578 -2.2496559619903564
0.6119909286499023 10.624130249023438 -2.24945068359375
0.1787768453359604 10.638293266296387 -2.2490391731262207
-0.037928465753793716 10.638754844665527 -2.248833179473877
-0.2545764148235321 10.634801864624023 -2.2486276626586914
-0.6873547434806824 10.613669395446777 -2.2482166290283203
-0.9032971262931824 10.596503257751465 -2.248011589050293
-1.1188268661499023 10.574943542480469 -2.247807025909424
-1.3338611125946045 10.549006462097168 -2.247602701187134
-1.7620495557785034 10.48403549194336 -2.2471961975097656
0.7449633479118347 9.542724609375 -2.2495830059051514
0.5504162311553955 9.555131912231445 -2.2493982315063477
0.35564208030700684 9.56357479095459 -2.249213218688965
0.16077636182308197 9.568044662475586 -2.249028205871582
-0.22898192703723907 9.565082550048828 -2.2486581802368164
-0.4237145781517029 9.557649612426758 -2.2484734058380127
-1.0063427686691284 9.511600494384766 -2.2479209899902344
-1.1997570991516113 9.488354682922363 -2.2477378845214844
-1.58492910861969 9.430089950561523 -2.247372627258301
-1.7765172719955444 9.395092964172363 -2.2471911907196045
-1.967348575592041 9.35621166229248 -2.2470102310180664
0.6762011647224426 8.661818504333496 -2.249523162841797
0.4996057152748108 8.673145294189453 -2.2493553161621094
0.08973998576402664 5.339689254760742 -1.382734775543213
-0.019260253757238388 5.40401554107666 -1.3992037773132324
-0.561187744140625 8.665487289428711 -2.2483487129211426
-0.7375085353851318 8.651617050170898 -2.2481815814971924
-1.0890796184539795 8.61312198638916 -2.2478480339050293
-1.6126720905303955 8.528658866882324 -2.24735164642334
0.9406859874725342 7.891264915466309 -2.2497787475585938
0.2027856409549713 5.4526824951171875 -1.5446828603744507
0.08973998576402664 5.339689254760742 -1.511841058731079
-0.35176756978034973 7.935006618499756 -2.248551845550537
-0.5132763385772705 7.925663471221924 -2.248398542404175
-0.6745446920394897 7.913026332855225 -2.2482457160949707
-0.8355126976966858 7.8971099853515625 -2.2480928897857666
-0.9961169362068176 7.877920150756836 -2.2479405403137207
-1.3160265684127808 7.8297553062438965 -2.2476372718811035
-1.7913744449615479 7.733229160308838 -2.2471845149993896
0.6502135992050171 5.45448637008667 -1.6895595788955688
0.2027856409549713 5.452683448791504 -1.6782864332199097
-0.1755041480064392 7.331434726715088 -2.255638599395752
-0.3247765898704529 7.326338291168213 -2.2556378841400146
-0.35335448384284973 5.4563469886779785 -1.6817697286605835
-0.46513792872428894 5.456554412841797 -1.6844043731689453
-0.6899963021278381 5.456970691680908 -1.6918102502822876
-1.3626501560211182 7.206429958343506 -2.2558207511901855
-1.509182095527649 7.1773505210876465 -2.255873680114746
-1.6551073789596558 7.145310401916504 -2.2559332847595215
0.8037170171737671 6.742257595062256 -2.2570316791534424
0.6662157773971558 6.7570953369140625 -2.2569873332977295
0.5284448266029358 6.769148349761963 -2.2569491863250732
0.2027856409549713 5.4526824951171875 -1.813753604888916
-0.019261473789811134 5.404017925262451 -1.7963356971740723
-0.16248168051242828 6.787508964538574 -2.256852149963379
-0.576678454875946 6.7649664878845215 -2.256868600845337
-0.9887548685073853 6.717341899871826 -2.256941318511963
-1.1253820657730103 6.695918560028076 -2.2569780349731445
-1.3972033262252808 6.644801616668701 -2.2570700645446777
-1.532286286354065 6.615126132965088 -2.25712513923645
0.747424304485321 6.270022392272949 -2.2580795288085938
0.619555652141571 6.2838287353515625 -2.2580385208129883
0.36311644315719604 6.3036651611328125 -2.2579734325408936
0.08973998576402664 5.339689254760742 -1.9097800254821777
-0.6643164157867432 6.278988361358643 -2.2579448223114014
0.6977587938308716 5.853386878967285 -2.2590043544769287
0.5783886313438416 5.866281986236572 -2.2589659690856934
0.3389880359172821 5.884814739227295 -2.2589051723480225
0.2027856409549713 5.452683448791504 -2.091010332107544
0.08973998576402664 5.339689254760742 -2.046552896499634
-0.38093137741088867 5.882108688354492 -2.25885272026062
-0.5006567239761353 5.8731584548950195 -2.2588629722595215
-0.6201757788658142 5.861781597137451 -2.258878469467163
-0.8584069609642029 5.831786155700684 -2.2589261531829834
-1.2129980325698853 5.768764972686768 -2.259037733078003
0.5417639017105103 5.494808673858643 -2.259791135787964
0.4297277629375458 5.504626750946045 -2.2597601413726807
0.31752195954322815 5.512173175811768 -2.2597341537475586
-0.13212768733501434 5.519599914550781 -2.259680986404419
-0.8040502667427063 5.462499141693115 -2.259753704071045
-0.9151501059532166 5.4450602531433105 -2.2597835063934326
-1.2459630966186523 5.379003047943115 -2.259779453277588
0.40348875522613525 5.1685709953308105 -2.259403705596924
0.19266600906848907 5.180741310119629 -2.2594146728515625
-0.33503660559654236 5.1733293533325195 -2.2593469619750977
-0.44032835960388184 5.16536283493042 -2.25931715965271
-0.7548913359642029 5.1285576820373535 -2.259195566177368
-0.8591723442077637 5.112003803253174 -2.2591443061828613
-0.96308833360672 5.093316078186035 -2.259087562561035
-1.066597819328308 5.072504043579102 -2.2590255737304688
0.5775659084320068 4.8451104164123535 -2.2586069107055664
0.3797692656517029 4.864678382873535 -2.2586376667022705
0.2806127965450287 4.8714213371276855 -2.258645534515381
0.08198730647563934 4.87880802154541 -2.258645534515381
-0.017396239563822746 4.879449844360352 -2.2586379051208496
-0.11677245795726776 4.87805700302124 -2.258625030517578
-0.2160974144935608 4.8746256828308105 -2.2586073875427246
-0.3153332471847534 4.86916446685791 -2.258584499359131
-0.4144311547279358 4.861672878265381 -2.258556365966797
-0.9064697027206421 4.793890953063965 -2.258340358734131
0.4516528248786926 4.580893516540527 -2.2579309940338135
0.35826170444488525 4.589166641235352 -2.2579431533813477
0.26472166180610657 4.595527172088623 -2.2579503059387207
0.17106933891773224 4.599969863891602 -2.257952928543091
-0.2038598656654358 4.598554611206055 -2.2579145431518555
-0.29747435450553894 4.593406677246094 -2.2578928470611572
-0.3909619152545929 4.586340427398682 -2.257866382598877
-0.577404797077179 4.566476345062256 -2.2577993869781494
-0.6702783107757568 4.55368709564209 -2.257758378982544
-0.7628686428070068 4.539000034332275 -2.2577130794525146
-0.9470483064651489 4.503954887390137 -2.257607936859131
-1.0385546684265137 4.483614444732666 -2.2575480937957764
0.5150353908538818 4.320551872253418 -2.2572827339172363
0.4269360303878784 4.330176830291748 -2.257298469543457
0.338653564453125 4.337995529174805 -2.257310152053833
0.25023192167282104 4.344006061553955 -2.257317066192627
0.07311279326677322 4.350594520568848 -2.257317066192627
-0.015512694604694843 4.351168155670166 -2.257310390472412
-0.2811962962150574 4.342007160186768 -2.2572624683380127
-0.3695654273033142 4.33533239364624 -2.257237672805786
-0.45778074860572815 4.326849460601807 -2.2572081089019775
-0.6335961818695068 4.304478645324707 -2.2571356296539307
-0.8952221274375916 4.257483005523682 -2.256993055343628
-0.9817248582839966 4.238260269165039 -2.25693678855896
0.4877111613750458 4.091335296630859 -2.2567038536071777
0.40428465604782104 4.100446701049805 -2.2567191123962402
0.23695556819438934 4.113541126251221 -2.2567365169525146
0.15312500298023224 4.117518901824951 -2.2567386627197266
0.06923339515924454 4.119779109954834 -2.2567365169525146
-0.014689940959215164 4.120323181152344 -2.256730079650879
-0.09860595315694809 4.1191511154174805 -2.2567193508148193
-0.6828662157058716 4.06298828125 -2.256524085998535
-0.7654589414596558 4.04815673828125 -2.256479024887085
0.3041467070579529 3.895991802215576 -2.2561960220336914
0.2247338891029358 3.9013891220092773 -2.256201982498169
0.06566283851861954 3.907304525375366 -2.256202220916748
-0.013933105394244194 3.9078197479248047 -2.2561960220336914
-0.09351928532123566 3.9067089557647705 -2.25618577003479
-0.25254392623901367 3.8996026515960693 -2.2561533451080322
-0.3319104015827179 3.89361310005188 -2.2561309337615967
-0.4111388921737671 3.8859996795654297 -2.2561044692993164
-0.569042980670929 3.8659214973449707 -2.2560391426086426
-0.8817101716995239 3.8064842224121094 -2.2558608055114746
