ply
format ascii 1.0
element vertex 266
property float x
property float y
property float z
end_header
-12.684141159057617 -13.652199745178223 3.2858870029449463
-12.676740646362305 -14.77674388885498 2.9825825691223145
-12.64295768737793 -15.341920852661133 3.045602560043335
-12.643025398254395 -15.341994285583496 2.5888938903808594
-12.643088340759277 -15.342073440551758 2.1348822116851807
-12.643156051635742 -15.342146873474121 1.682932734489441
-12.643406867980957 -15.34245777130127 -0.11193054169416428
-21.70458984375 -23.36107635498047 -0.8978910446166992
-20.44768714904785 -23.835004806518555 -0.8842741250991821
-12.64346981048584 -15.342534065246582 -0.5598020553588867
-20.70537567138672 -27.256454467773438 -0.9638131260871887
-22.31173324584961 -23.080745697021484 -1.628021478652954
-21.510255813598633 -23.15191650390625 -1.6026861667633057
-19.80813217163086 -23.089487075805664 -1.542817234992981
-24.51182746887207 -36.589717864990234 -2.2335197925567627
-22.325668334960938 -38.0305061340332 -2.236461639404297
-21.577945709228516 -38.48240280151367 -2.2374675273895264
-20.821170806884766 -38.91975402832031 -2.23848557472229
-19.24003028869629 -39.66438293457031 -2.235710859298706
-18.499589920043945 -40.14325714111328 -2.241608142852783
-19.887617111206055 -23.18214225769043 -2.23954176902771
-11.986934661865234 -17.14898681640625 -1.5341248512268066
-12.012496948242188 -18.72289276123047 -1.6310616731643677
-15.498568534851074 -26.400949478149414 -2.2446818351745605
-13.379189491271973 -27.581974029541016 -2.247739553451538
-12.285118103027344 -28.109405517578125 -2.2492823600769043
-16.91228485107422 -16.162548065185547 -2.2458853721618652
-16.59116554260254 -16.4964542388916 -2.2461867332458496
-16.263530731201172 -16.82406997680664 -2.2464985847473145
-15.929515838623047 -17.145254135131836 -2.246821165084839
-15.589240074157715 -17.459897994995117 -2.2471539974212646
-15.242768287658691 -17.767839431762695 -2.24749755859375
-12.643665313720703 -15.342761039733887 -1.9086946249008179
-14.53196907043457 -18.363300323486328 -2.2482147216796875
-13.798166275024414 -18.93060302734375 -2.248971939086914
-11.987018585205078 -17.149112701416016 -2.008730173110962
-12.25577449798584 -19.960941314697266 -2.248732805252075
-11.85566234588623 -20.19545555114746 -2.2482666969299316
-11.042936325073242 -20.641881942749023 -2.247486114501953
-9.792468070983887 -21.249202728271484 -2.246232509613037
-9.6343994140625 -22.04432487487793 -2.3096580505371094
-13.402904510498047 -13.326382637023926 -2.2451207637786865
-12.308334350585938 -14.347291946411133 -2.2454628944396973
-11.731546401977539 -14.824539184570312 -2.2456398010253906
-10.832053184509277 -15.496779441833496 -2.2459142208099365
-10.210866928100586 -15.914865493774414 -2.2461068630218506
-9.729716300964355 -16.574033737182617 -2.282935857772827
-9.662549018859863 -17.232328414916992 -2.3467917442321777
-9.52566909790039 -17.80575942993164 -2.3987200260162354
-9.171671867370605 -17.991703033447266 -2.3988311290740967
-8.452924728393555 -18.34246253967285 -2.399056911468506
-8.088469505310059 -18.507104873657227 -2.3991713523864746
-11.520198822021484 -12.399418830871582 -2.3981130123138428
-11.272801399230957 -12.625494956970215 -2.3981897830963135
-10.239835739135742 -13.479667663574219 -2.3985095024108887
-9.698793411254883 -13.87548542022705 -2.398677110671997
-8.858855247497559 -14.428397178649902 -2.3989386558532715
-8.571642875671387 -14.601511001586914 -2.3990275859832764
-8.281259536743164 -14.768940925598145 -2.3991177082061768
-7.987546443939209 -14.930590629577637 -2.3992092609405518
-7.690617561340332 -15.086398124694824 -2.399301767349243
-7.087612152099609 -15.380280494689941 -2.3994901180267334
-10.3243989944458 -10.265463829040527 -2.398486375808716
-10.11938190460205 -10.468167304992676 -2.398550271987915
-9.910400390625 -10.666763305664062 -2.398615837097168
-9.260415077209473 -11.237289428710938 -2.3988194465637207
-9.036356925964355 -11.418774604797363 -2.3988893032073975
-8.808752059936523 -11.595804214477539 -2.398960828781128
-7.864606857299805 -12.257929801940918 -2.3992550373077393
-7.123666763305664 -12.704449653625488 -2.399487257003784
-6.35748291015625 -13.106289863586426 -2.3997273445129395
-5.833984375 -13.34864330291748 -2.3998916149139404
-9.226574897766113 -8.817554473876953 -2.3988325595855713
-8.870641708374023 -9.176377296447754 -2.3989439010620117
-8.68741226196289 -9.35043716430664 -2.399001121520996
-8.500781059265137 -9.520851135253906 -2.399059534072876
-7.721584320068359 -10.164652824401855 -2.399303436279297
-7.519013404846191 -10.315821647644043 -2.399367094039917
-7.31347131729126 -10.462949752807617 -2.3994314670562744
-7.104950904846191 -10.605883598327637 -2.399496555328369
-6.89385986328125 -10.744887351989746 -2.399561643600464
-6.463390827178955 -11.010032653808594 -2.3996963500976562
-6.244304180145264 -11.13617992401123 -2.3997650146484375
-8.048735618591309 -8.002789497375488 -2.399203062057495
-7.888866901397705 -8.160764694213867 -2.3992531299591064
-7.725903034210205 -8.315546035766602 -2.399304151535034
-7.559899806976318 -8.467071533203125 -2.3993561267852783
-7.21905517578125 -8.76014232635498 -2.399462938308716
-6.503898620605469 -9.30473518371582 -2.399686813354492
-6.318540096282959 -9.43191909790039 -2.399744749069214
-5.940446853637695 -9.675169944763184 -2.399862766265869
-5.747848987579346 -9.791143417358398 -2.3999226093292236
-5.156808853149414 -10.115900993347168 -2.4001078605651855
-4.955625057220459 -10.216289520263672 -2.4001710414886475
-4.547490119934082 -10.40504264831543 -2.400298833847046
-7.380788326263428 -7.053586483001709 -2.399413824081421
-7.239809513092041 -7.198482513427734 -2.3994579315185547
-6.800060749053955 -7.616050720214844 -2.3995954990386963
-6.648054122924805 -7.74935245513916 -2.3996431827545166
-6.336276531219482 -8.006824493408203 -2.399740695953369
-6.1766357421875 -8.130880355834961 -2.3997907638549805
-6.014553070068359 -8.25175666809082 -2.399841547012329
-5.850117206573486 -8.36941146850586 -2.399893045425415
-5.683373928070068 -8.483782768249512 -2.3999452590942383
-5.343092918395996 -8.702371597290039 -2.4000515937805176
-4.994736194610596 -8.907676696777344 -2.400160074234009
-4.817492485046387 -9.005038261413574 -2.4002156257629395
-4.638354301452637 -9.098873138427734 -2.4002718925476074
-4.457387447357178 -9.189143180847168 -2.4003286361694336
-4.274665355682373 -9.2758207321167 -2.400385856628418
-4.090263366699219 -9.358871459960938 -2.4004435539245605
-6.700231552124023 -6.403200626373291 -2.399628162384033
-6.441672325134277 -6.663692951202393 -2.3997092247009277
-6.035009860992432 -7.034751892089844 -2.399836301803589
-5.89464807510376 -7.153000831604004 -2.3998804092407227
-5.459887504577637 -7.490771770477295 -2.4000163078308105
-5.159228324890137 -7.701373100280762 -2.4001104831695557
-4.210529804229736 -8.259625434875488 -2.400407075881958
-4.046247482299805 -8.341559410095215 -2.400458574295044
-6.128518104553223 -5.856833457946777 -2.399808168411255
-5.520011901855469 -6.43444299697876 -2.399998664855957
-5.391621112823486 -6.542594909667969 -2.400038957595825
-5.261103630065918 -6.648182392120361 -2.4000797271728516
-5.128525257110596 -6.751164436340332 -2.4001212120056152
-4.993935585021973 -6.851504802703857 -2.400163412094116
-4.857380390167236 -6.949164867401123 -2.4002063274383545
-4.718923091888428 -7.044106960296631 -2.400249481201172
-4.578610897064209 -7.136296272277832 -2.4002935886383057
-4.292624473571777 -7.312250137329102 -2.4003829956054688
-4.147082328796387 -7.395956039428711 -2.4004287719726562
-3.999870538711548 -7.476737022399902 -2.4004745483398438
-3.851147413253784 -7.554646015167236 -2.400521755218506
-3.700878858566284 -7.629569053649902 -2.4005677700042725
-3.5491528511047363 -7.701501369476318 -2.4006154537200928
-5.641005516052246 -5.390934467315674 -2.3999617099761963
-4.842548847198486 -6.119274139404297 -2.400211811065674
-4.596623420715332 -6.306405067443848 -2.4002885818481445
-4.214316368103027 -6.568509578704834 -2.4004085063934326
-4.083498477935791 -6.6507744789123535 -2.400449514389038
-3.9510815143585205 -6.730443477630615 -2.4004909992218018
-3.681633234024048 -6.881845951080322 -2.4005753993988037
-3.544682502746582 -6.953487396240234 -2.400618076324463
-3.2667675018310547 -7.088701248168945 -2.400705099105835
-5.219975471496582 -4.988566875457764 -2.400094509124756
-5.1202392578125 -5.091013431549072 -2.400125503540039
-5.018498420715332 -5.191468238830566 -2.4001574516296387
-4.914792537689209 -5.2898850440979 -2.4001898765563965
-4.809150218963623 -5.386237144470215 -2.4002227783203125
-4.701621055603027 -5.4804792404174805 -2.400256633758545
-4.592248439788818 -5.572580814361572 -2.4002907276153564
-4.368139743804932 -5.750202655792236 -2.4003610610961914
-4.253496170043945 -5.8356475830078125 -2.4003970623016357
-4.019235610961914 -5.999664306640625 -2.40047025680542
-3.899714231491089 -6.078168869018555 -2.400507688522339
-3.7786595821380615 -6.15428352355957 -2.400545835494995
-3.6561155319213867 -6.227996826171875 -2.4005839824676514
-3.5321409702301025 -6.299271583557129 -2.400622844696045
-3.1519360542297363 -6.498042583465576 -2.4007420539855957
-4.852338790893555 -4.637233257293701 -2.40021014213562
-4.665043830871582 -4.82583475112915 -2.400268793106079
-4.568634986877441 -4.91731595993042 -2.400298833847046
-4.370475769042969 -5.09447717666626 -2.4003610610961914
-4.268801212310791 -5.180084228515625 -2.400392770767212
-4.165453910827637 -5.263665676116943 -2.4004251956939697
-4.060473442077637 -5.345180988311768 -2.4004580974578857
-3.845766544342041 -5.50191068649292 -2.4005253314971924
-3.398576498031616 -5.7892889976501465 -2.400665283203125
-3.1667895317077637 -5.919487953186035 -2.400738000869751
-2.9300317764282227 -6.040414810180664 -2.4008121490478516
-2.8098950386047363 -6.097344398498535 -2.4008498191833496
-4.528244495391846 -4.3275017738342285 -2.4003121852874756
-4.353452205657959 -4.503500938415527 -2.400367021560669
-3.9836645126342773 -4.834075450897217 -2.400482654571533
-3.887211799621582 -4.912069797515869 -2.400512933731079
-3.6897826194763184 -5.062249183654785 -2.4005746841430664
-3.4865503311157227 -5.204507350921631 -2.4006383419036865
-3.382863759994507 -5.272590160369873 -2.4006707668304443
-2.9552319049835205 -5.52403450012207 -2.4008047580718994
-2.509030818939209 -5.740882396697998 -2.400944709777832
-4.159089088439941 -4.135346412658691 -2.400428295135498
-3.906364679336548 -4.375120639801025 -2.4005074501037598
-3.73016357421875 -4.526459217071533 -2.4005625247955322
-3.548102855682373 -4.6707072257995605 -2.4006195068359375
-3.454970598220825 -4.740103244781494 -2.400648832321167
-3.360480785369873 -4.807644844055176 -2.4006783962249756
-3.1675779819488525 -4.9370503425598145 -2.4007387161254883
-3.0692455768585205 -4.998860836029053 -2.4007697105407715
-2.9696996212005615 -5.058721542358398 -2.400800943374634
-2.8689939975738525 -5.11659574508667 -2.400832414627075
-2.6642308235168457 -5.226318359375 -2.4008965492248535
-2.560258626937866 -5.278117656707764 -2.4009289741516113
-3.9820141792297363 -3.805492401123047 -2.400484323501587
-3.9059226512908936 -3.883626699447632 -2.400508165359497
-3.66857647895813 -4.108797550201416 -2.4005823135375977
-3.586538076400757 -4.1806745529174805 -2.4006080627441406
-3.3321142196655273 -4.386382579803467 -2.4006876945495605
-3.1559081077575684 -4.51497220993042 -2.400743007659912
-3.065930128097534 -4.5766282081604 -2.400771141052246
-2.882390022277832 -4.69454288482666 -2.4008285999298096
-2.7889060974121094 -4.750749111175537 -2.400857925415039
-2.4043822288513184 -4.956775665283203 -2.4009783267974854
-2.305798292160034 -5.003474235534668 -2.4010093212127686
-2.206306219100952 -5.048215389251709 -2.401040554046631
-3.749272346496582 -3.5830676555633545 -2.400557518005371
-3.677626848220825 -3.656632661819458 -2.4005799293518066
-3.6045384407043457 -3.728771209716797 -2.4006028175354004
-3.376904249191284 -3.9363110065460205 -2.4006741046905518
-3.298334836959839 -4.002445697784424 -2.400698661804199
-3.2184667587280273 -4.067014217376709 -2.400723695755005
-3.137346029281616 -4.129984378814697 -2.4007492065429688
-3.05499005317688 -4.191339492797852 -2.4007749557495117
-2.7138988971710205 -4.4201178550720215 -2.400881767272949
-2.6258764266967773 -4.473036289215088 -2.400909423828125
-2.5368237495422363 -4.52420711517334 -2.40093731880188
-2.446774959564209 -4.573604583740234 -2.400965452194214
-2.2638256549835205 -4.6670026779174805 -2.4010229110717773
-3.5381176471710205 -3.381272554397583 -2.4006240367889404
-3.4705052375793457 -3.4506945610046387 -2.4006452560424805
-3.4015307426452637 -3.5187692642211914 -2.4006667137145996
-3.3312206268310547 -3.585461139678955 -2.400688886642456
-3.186711311340332 -3.714613676071167 -2.4007339477539062
-2.960639476776123 -3.897369861602783 -2.4008047580718994
-2.8829197883605957 -3.9552671909332275 -2.400829315185547
-2.804069757461548 -4.011618137359619 -2.4008538722991943
-2.561037540435791 -4.17114782333374 -2.4009299278259277
-2.477971076965332 -4.221083641052246 -2.400956153869629
-2.393933057785034 -4.2693705558776855 -2.40098237991333
-2.308952569961548 -4.31598424911499 -2.4010090827941895
-2.136306047439575 -4.404114723205566 -2.4010632038116455
-2.048710823059082 -4.445603370666504 -2.401090621948242
-1.9603075981140137 -4.485349178314209 -2.401118278503418
-3.3454954624176025 -3.1971874237060547 -2.4006848335266113
-3.0132129192352295 -3.5123727321624756 -2.4007887840270996
-2.9431004524230957 -3.571380138397217 -2.400810718536377
-2.871833324432373 -3.6289896965026855 -2.4008331298828125
-2.725954532623291 -3.739915609359741 -2.400878667831421
-2.6513988971710205 -3.793194532394409 -2.400902032852173
-2.4215917587280273 -3.944035053253174 -2.4009740352630615
-2.3430442810058594 -3.9912514686584473 -2.400998592376709
-2.2635815143585205 -4.03690242767334 -2.4010233879089355
-2.1020190715789795 -4.123445510864258 -2.401074171066284
-1.9371508359909058 -4.203529357910156 -2.401125907897949
-1.8535594940185547 -4.241108417510986 -2.4011521339416504
-3.108332395553589 -3.090590715408325 -2.40075945854187
-2.787731885910034 -3.3828442096710205 -2.4008595943450928
-2.720227003097534 -3.4374101161956787 -2.400880813598633
-2.6516575813293457 -3.4906299114227295 -2.400902271270752
-2.582045793533325 -3.5424792766571045 -2.40092396736145
-2.511423349380493 -3.592942953109741 -2.4009461402893066
-2.367243528366089 -3.689628839492798 -2.400991201400757
-1.834875464439392 -3.9815948009490967 -2.401158332824707
-1.7556982040405273 -4.017187595367432 -2.4011831283569336
-3.006235361099243 -2.8729686737060547 -2.400791645050049
-2.948781728744507 -2.9319515228271484 -2.4008095264434814
-2.830432176589966 -3.0464508533477783 -2.4008467197418213
-2.7695751190185547 -3.1019206047058105 -2.4008657932281494
-2.6446313858032227 -3.209198236465454 -2.400904893875122
-2.314567804336548 -3.4550395011901855 -2.401008129119873
-2.245722532272339 -3.500222682952881 -2.4010298252105713
-2.105417490005493 -3.5864579677581787 -2.401073694229126
-2.034006357192993 -3.62747859954834 -2.4010961055755615
-1.9617992639541626 -3.6670775413513184 -2.401118755340576
-1.8888256549835205 -3.7052361965179443 -2.40114164352417
-1.8151073455810547 -3.741946220397949 -2.4011645317077637
-1.7406762838363647 -3.7771880626678467 -2.4011878967285156
-1.6655614376068115 -3.810950517654419 -2.4012115001678467
