ply
format ascii 1.0
element vertex 199
property float x
property float y
property float z
end_header
-3.0177295207977295 15.576446533203125 2.797618865966797
-3.357144594192505 15.597315788269043 2.813211679458618
-2.962648868560791 15.29216194152832 2.028386116027832
-2.8979687690734863 14.958304405212402 1.6361150741577148
-3.224375009536743 16.643108367919922 1.435083270072937
-4.219390869140625 16.30113410949707 1.4254117012023926
-4.480610370635986 15.94616985321045 1.4021621942520142
-3.575063467025757 16.609773635864258 0.6699413657188416
-4.357483863830566 16.834617614746094 0.6856820583343506
-4.763682842254639 16.953601837158203 0.6943866014480591
-5.126834392547607 16.898799896240234 0.6963269114494324
-3.6859519481658936 19.025596618652344 0.3273547291755676
-5.588690280914307 28.84687042236328 -0.8273693919181824
-6.186136245727539 28.740863800048828 -0.8278124928474426
-7.4413161277771 28.7486572265625 -0.8361767530441284
-8.135578155517578 28.953929901123047 -0.8468500971794128
-8.748255729675293 28.83555030822754 -0.8484899997711182
-9.46747875213623 29.03529167175293 -0.859934389591217
-10.05075454711914 28.793880462646484 -0.8587478399276733
-5.590933799743652 28.85843276977539 -1.4907439947128296
-6.189289569854736 28.755468368530273 -1.491707682609558
-6.847100257873535 28.898881912231445 -1.506158471107483
-7.4391608238220215 28.74032211303711 -1.5055806636810303
-8.766195297241211 28.894672393798828 -1.5313241481781006
-10.051111221313477 28.794897079467773 -1.5467153787612915
-15.090601921081543 40.5244026184082 -2.1930301189422607
-14.155671119689941 35.740379333496094 -1.949533462524414
-16.74279022216797 39.849998474121094 -2.1920883655548096
-4.227043151855469 21.81853485107422 -1.6295281648635864
-4.231533050537109 17.859601974487305 -1.3457589149475098
-4.249143123626709 16.416048049926758 -1.2433292865753174
-9.2860107421875 28.478778839111328 -2.1963236331939697
-9.870251655578613 28.276756286621094 -2.195990562438965
-10.450114250183105 28.062816619873047 -2.19566011428833
-11.025370597839355 27.836977005004883 -2.1953320503234863
-12.72109603881836 27.089521408081055 -2.1943655014038086
-13.275541305541992 26.817411422729492 -2.194049596786499
-2.661053419113159 13.735426902770996 -1.3431878089904785
-6.759133338928223 22.27910041809082 -2.235172986984253
-7.215236186981201 22.12799835205078 -2.2344796657562256
-7.667997360229492 21.967632293701172 -2.2337911128997803
-9.875235557556152 21.029266357421875 -2.2304348945617676
-10.30410099029541 20.81490135192871 -2.2297825813293457
-2.6610546112060547 13.735429763793945 -1.661914348602295
-3.8652892112731934 16.313831329345703 -1.9915021657943726
-3.8555285930633545 13.721537590026855 -1.6930434703826904
-5.467636585235596 18.02214241027832 -2.2371299266815186
-5.836931228637695 17.900972366333008 -2.2365684509277344
-6.20357608795166 17.772281646728516 -2.236011028289795
-7.285988807678223 17.341585159301758 -2.234365224838257
-7.640473365783691 17.183401107788086 -2.233826160430908
-2.66105580329895 13.735430717468262 -1.9823499917984009
-2.955657958984375 13.732004165649414 -1.9902400970458984
-3.272761106491089 13.813016891479492 -2.011340618133545
-3.8555309772491455 13.721538543701172 -2.0194902420043945
-4.190654277801514 13.81301498413086 -2.0452442169189453
-4.896543025970459 15.016948699951172 -2.2379937171936035
-5.509757041931152 14.795934677124023 -2.2370612621307373
-5.812727928161621 14.676048278808594 -2.236600637435913
-6.410780906677246 14.41781997680664 -2.2356910705566406
-2.587928295135498 13.35798454284668 -2.2415003776550293
-3.1357812881469727 13.23488998413086 -2.2406673431396484
-3.407618284225464 13.164931297302246 -2.2402541637420654
-3.946528196334839 13.00833511352539 -2.2394347190856934
-4.213377475738525 12.921781539916992 -2.2390289306640625
-4.741268157958984 12.73234748840332 -2.2382266521453857
-5.002148151397705 12.629552841186523 -2.237830400466919
-5.260798454284668 12.52143383026123 -2.2374377250671387
-5.51715087890625 12.40804386138916 -2.237048387527466
-5.7710490226745605 12.28941535949707 -2.236663579940796
-6.022430896759033 12.165628433227539 -2.2362825870513916
-2.2686901092529297 11.710217475891113 -2.241987943649292
-3.224504232406616 11.475814819335938 -2.2405359745025635
-5.281037330627441 10.66801643371582 -2.2374119758605957
-2.017686605453491 10.414595603942871 -2.242370367050171
-2.231860399246216 10.369240760803223 -2.2420449256896973
-2.445024251937866 10.319480895996094 -2.2417211532592773
-2.6570885181427 10.265347480773926 -2.241398811340332
-2.86796498298645 10.206869125366211 -2.2410786151885986
-3.285773754119873 10.076967239379883 -2.2404439449310303
-3.4925475120544434 10.005607604980469 -2.2401297092437744
-3.901371955871582 9.850245475769043 -2.2395098209381104
-4.303347110748291 9.678231239318848 -2.2389018535614014
-1.8149584531784058 9.368208885192871 -2.2426838874816895
-1.168084740638733 5.426961421966553 -1.3046691417694092
-2.955902099609375 9.065291404724121 -2.240952730178833
-3.1419591903686523 9.001221656799316 -2.240670680999756
-3.326632022857666 8.933351516723633 -2.2403905391693115
-3.509849786758423 8.861695289611816 -2.240112543106079
-3.69152569770813 8.786300659179688 -2.2398369312286377
-3.871586799621582 8.707183837890625 -2.2395639419555664
-4.04996919631958 8.624385833740234 -2.239293336868286
-2.6836094856262207 8.230216979980469 -2.24137020111084
-2.8525633811950684 8.17214298248291 -2.2411139011383057
-3.020258665084839 8.110618591308594 -2.2408597469329834
-3.186635732650757 8.045650482177734 -2.240607261657715
-3.5151453018188477 7.905542850494385 -2.2401089668273926
-2.561727285385132 5.455198764801025 -1.5604304075241089
-2.6582019329071045 5.369743347167969 -1.55135178565979
-1.5071154832839966 7.779111385345459 -2.2431585788726807
-1.5322802066802979 5.45329475402832 -1.603572964668274
-1.654506802558899 5.45352029800415 -1.6133379936218262
-2.460458993911743 7.545716285705566 -2.24682879447937
-2.770784854888916 7.440701961517334 -2.2477169036865234
-2.160336971282959 5.454455375671387 -1.6608200073242188
-2.2799205780029297 5.426525592803955 -1.666290283203125
-3.2260496616363525 7.255374431610107 -2.247833490371704
-2.658217668533325 5.369770526885986 -1.6962090730667114
-1.3908727169036865 7.179110050201416 -2.2491979598999023
-1.8323473930358887 7.079090595245361 -2.249133348464966
-1.9780516624450684 7.039745807647705 -2.2491261959075928
-2.122912645339966 6.997426509857178 -2.2491261959075928
-2.2668700218200684 6.952147006988525 -2.249133348464966
-2.409879207611084 6.903926849365234 -2.249147653579712
-2.832554817199707 6.741844177246094 -2.2492337226867676
-2.658228635787964 5.369799613952637 -1.842928171157837
-1.287689208984375 6.646612167358398 -2.2504515647888184
-1.1553637981414795 5.367859840393066 -1.8251680135726929
-1.6964465379714966 6.554027080535889 -2.250391721725464
-2.2311339378356934 6.391849040985107 -2.2504050731658936
-2.493044376373291 6.294470310211182 -2.2504515647888184
-2.6224498748779297 6.241771221160889 -2.2504847049713135
-2.750755548477173 6.186432838439941 -2.2505245208740234
-2.658243417739868 5.369827747344971 -1.9916967153549194
-1.1975256204605103 6.181211948394775 -2.25154709815979
-1.155368685722351 5.367889404296875 -1.9635555744171143
-1.2660534381866455 5.343530178070068 -1.9637882709503174
-1.5776623487472534 6.095120906829834 -2.2514915466308594
-1.7031115293502808 6.0612473487854 -2.2514853477478027
-1.951784610748291 5.985822677612305 -2.2514915466308594
-2.318479061126709 5.853725433349609 -2.25154709815979
-2.4388232231140137 5.804710388183594 -2.2515780925750732
-1.1179711818695068 5.770594120025635 -2.252513885498047
-1.1553759574890137 5.367918491363525 -2.104191541671753
-1.4728624820709229 5.690227031707764 -2.2524619102478027
-2.0512022972106934 5.508310317993164 -2.252490758895874
-2.1644628047943115 5.464860916137695 -2.252513885498047
-2.3880419731140137 5.370697021484375 -2.2524337768554688
-1.269232153892517 5.356890678405762 -2.2531402111053467
-1.4890038967132568 5.29926872253418 -2.252849578857422
-1.7061816453933716 5.232588768005371 -2.2525382041931152
-1.8136718273162842 5.195886135101318 -2.2523746490478516
-2.0262279510498047 5.115842342376709 -2.252032518386841
-2.131202459335327 5.072536468505859 -2.251854181289673
-2.3383238315582275 4.979449272155762 -2.2514829635620117
-0.9830895662307739 5.074378490447998 -2.2526192665100098
-1.2949706315994263 5.002964973449707 -2.2522332668304443
-1.5001293420791626 4.944649696350098 -2.251950740814209
-1.6017467975616455 4.912312030792236 -2.2518019676208496
-1.702667236328125 4.877874851226807 -2.251648426055908
-1.8028392791748047 4.841361045837402 -2.251490354537964
-1.902230143547058 4.802779197692871 -2.2513275146484375
-2.000791072845459 4.762142181396484 -2.251160144805908
-2.098482608795166 4.719478130340576 -2.250988006591797
-0.925311267375946 4.776134014129639 -2.2519075870513916
-1.0236254930496216 4.755777359008789 -2.25179123878479
-1.2188720703125 4.708969593048096 -2.251544237136841
-1.3157176971435547 4.682538986206055 -2.251413583755493
-1.411983609199524 4.654109954833984 -2.2512784004211426
-1.5076366662979126 4.623690605163574 -2.25113844871521
-1.6969311237335205 4.556946277618408 -2.250845432281494
-1.9752295017242432 4.4422831535339355 -2.2503726482391357
-2.066335439682007 4.4002485275268555 -2.250206708908081
-0.8729248046875 4.505733013153076 -2.2512624263763428
-0.9656762480735779 4.4865403175354 -2.251152753829956
-1.241241455078125 4.417491912841797 -2.2507965564727783
-1.4223120212554932 4.362004280090332 -2.250537157058716
-1.5119359493255615 4.331460952758789 -2.250401020050049
-1.6009008884429932 4.299068927764893 -2.250260591506958
-1.7767077684402466 4.228793621063232 -2.249967336654663
-1.863472819328308 4.190943717956543 -2.249814748764038
-1.949432373046875 4.151305675506592 -2.2496581077575684
-0.9128429889678955 4.241078853607178 -2.25057053565979
-1.0001269578933716 4.221132755279541 -2.250462532043457
-1.086971402168274 4.1993842124938965 -2.2503502368927
-1.2592004537582397 4.150516986846924 -2.2501134872436523
-1.344515323638916 4.123416423797607 -2.249988555908203
-1.4292430877685547 4.094558238983154 -2.2498600482940674
-1.8428442478179932 3.924325466156006 -2.2491579055786133
-1.92330801486969 3.8851964473724365 -2.2490062713623047
-0.7814001441001892 4.033315181732178 -2.2501351833343506
-0.8644298911094666 4.016155242919922 -2.2500369548797607
-0.9470885992050171 3.9972777366638184 -2.2499349117279053
-1.029331088066101 3.9766929149627686 -2.249828577041626
-1.1924340724945068 3.9304394721984863 -2.2496042251586914
-1.273226261138916 3.904787540435791 -2.249486207962036
-1.3534667491912842 3.8774707317352295 -2.2493643760681152
-1.4331152439117432 3.848499059677124 -2.2492387294769287
-1.5905200242996216 3.78564190864563 -2.248976469039917
-1.7451672554016113 3.716325044631958 -2.24869966506958
-1.8213732242584229 3.679283857345581 -2.248556137084961
-0.8198645114898682 3.8090972900390625 -2.2495458126068115
-0.8982629179954529 3.7912003993988037 -2.2494490146636963
-1.2837060689926147 3.677617073059082 -2.248908042907715
-1.4342150688171387 3.621124267578125 -2.248666286468506
-1.5085558891296387 3.590552806854248 -2.248540163040161
-1.582241177558899 3.5584521293640137 -2.248410701751709
-1.655245304107666 3.5248308181762695 -2.2482779026031494
-1.7275621891021729 3.4898059368133545 -2.248202323913574
