ply
format ascii 1.0
element vertex 158
property float x
property float y
property float z
end_header
-0.7880297899246216 -47.34400177001953 -2.401343822479248
1.0705028772354126 -47.35282516479492 -2.4020767211914062
4.783149242401123 -47.15180206298828 -2.4035403728485107
7.552470684051514 -46.80994415283203 -2.404632568359375
10.298134803771973 -46.30542755126953 -2.4057154655456543
-0.5450805425643921 -32.74757385253906 -2.4014554023742676
0.09760009497404099 -32.75536346435547 -2.4017086029052734
2.025263547897339 -32.7032585144043 -2.402468681335449
2.666862726211548 -32.66067886352539 -2.402721643447876
3.9471044540405273 -32.537715911865234 -2.403226375579834
5.221804141998291 -32.36453628540039 -2.403729200363159
6.489001274108887 -32.14141845703125 -2.404228925704956
7.746728420257568 -31.86870574951172 -2.4047250747680664
0.5654467940330505 -25.01213264465332 -2.4019012451171875
1.0561938285827637 -24.99820899963379 -2.402094841003418
1.546630859375 -24.974687576293945 -2.4022881984710693
2.036550283432007 -24.941547393798828 -2.4024813175201416
2.525766611099243 -24.89882469177246 -2.4026741981506348
4.471789360046387 -24.631975173950195 -2.4034416675567627
0.8536108136177063 -20.203386306762695 -2.40201997756958
2.041215658187866 -20.122074127197266 -2.4024882316589355
4.003810882568359 -19.831737518310547 -2.4032623767852783
4.779465198516846 -19.661903381347656 -2.4035682678222656
-0.2821020483970642 -16.94725227355957 -2.401575803756714
0.7156005501747131 -16.937265396118164 -2.4019691944122314
2.041945695877075 -16.832660675048828 -2.402492046356201
2.3719677925109863 -16.79025650024414 -2.4026222229003906
3.6819822788238525 -16.556121826171875 -2.4031388759613037
4.006245136260986 -16.481571197509766 -2.4032669067382812
0.04311279207468033 -14.57878589630127 -2.4017105102539062
0.6153320074081421 -14.567232131958008 -2.4019360542297363
0.9012109041213989 -14.553045272827148 -2.4020488262176514
1.1865038871765137 -14.533234596252441 -2.4021613597869873
1.75616455078125 -14.47683048248291 -2.40238618850708
2.6051366329193115 -14.350430488586426 -2.4027211666107178
3.4455199241638184 -14.174266815185547 -2.403052806854248
0.038081053644418716 -12.77767562866211 -2.401712656021118
0.5394433736801147 -12.767393112182617 -2.4019100666046143
0.7898925542831421 -12.754878044128418 -2.402008533477783
1.0400561094284058 -12.73743724822998 -2.4021072387695312
1.5391454696655273 -12.687861442565918 -2.40230393409729
2.28326416015625 -12.576863288879395 -2.402596950531006
-0.1890844702720642 -11.36007308959961 -2.4016244411468506
0.03386230394244194 -11.362016677856445 -2.401712417602539
0.4796704053878784 -11.352766990661621 -2.401888132095337
0.7023681402206421 -11.341588020324707 -2.401975631713867
1.146914005279541 -11.30611515045166 -2.402150869369507
1.3685888051986694 -11.281847953796387 -2.402238130569458
1.8103197813034058 -11.2202730178833 -2.402412176132202
2.684934139251709 -11.045363426208496 -2.402756929397583
0.030451659113168716 -10.21900749206543 -2.40171217918396
0.23096679151058197 -10.216772079467773 -2.4017913341522217
0.43140867352485657 -10.210615158081055 -2.4018702507019043
0.8317553400993347 -10.186490058898926 -2.4020280838012695
1.2308764457702637 -10.146675109863281 -2.4021852016448975
1.429787516593933 -10.120903968811035 -2.402263641357422
1.6281542778015137 -10.091225624084473 -2.402341604232788
2.2192699909210205 -9.97891902923584 -2.4025745391845703
2.414724111557007 -9.933769226074219 -2.40265154838562
0.027644041925668716 -9.27592945098877 -2.4017133712768555
0.9362987875938416 -9.229973793029785 -2.4020700454711914
1.1172655820846558 -9.210103034973145 -2.402141571044922
1.2978075742721558 -9.186675071716309 -2.402212619781494
1.4778612852096558 -9.159712791442871 -2.4022836685180664
1.6573584079742432 -9.129223823547363 -2.4023542404174805
1.8362255096435547 -9.095207214355469 -2.4024248123168945
-0.14118407666683197 -8.482431411743164 -2.4016478061676025
0.02528076060116291 -8.483794212341309 -2.4017131328582764
0.3581518530845642 -8.476736068725586 -2.4018442630767822
1.0218408107757568 -8.423465728759766 -2.4021055698394775
1.1869579553604126 -8.402020454406738 -2.4021706581115723
1.351564884185791 -8.37740421295166 -2.402235269546509
1.5158593654632568 -8.349364280700684 -2.4023001194000244
1.6793749332427979 -8.318300247192383 -2.402364492416382
0.02326660044491291 -7.80842399597168 -2.4017131328582764
0.32963865995407104 -7.801889419555664 -2.4018337726593018
0.4826757609844208 -7.7941155433654785 -2.4018940925598145
0.9404833912849426 -7.7527971267700195 -2.4020743370056152
1.2440111637115479 -7.710310459136963 -2.402193784713745
1.3950952291488647 -7.684604167938232 -2.4022533893585205
1.69561767578125 -7.624324798583984 -2.402371883392334
1.84493887424469 -7.5897698402404785 -2.402430534362793
-0.1202392578125 -7.224084377288818 -2.4016571044921875
0.02153320237994194 -7.225221633911133 -2.4017131328582764
0.4466259777545929 -7.211940765380859 -2.4018805027008057
0.588061511516571 -7.201954364776611 -2.4019360542297363
1.0108447074890137 -7.155374050140381 -2.4021027088165283
1.2908788919448853 -7.110527038574219 -2.4022128582000732
1.568945288658142 -7.054728984832764 -2.40232253074646
1.7071044445037842 -7.022743225097656 -2.402376890182495
-0.11176757514476776 -6.714988708496094 -2.4016611576080322
0.6778832674026489 -6.682496070861816 -2.4019720554351807
0.8088964819908142 -6.668050765991211 -2.4020235538482666
1.1998827457427979 -6.609329700469971 -2.402177572250366
1.4583446979522705 -6.557441234588623 -2.4022793769836426
1.586767554283142 -6.527698993682861 -2.402330160140991
-0.10429931432008743 -6.266227722167969 -2.4016644954681396
0.26457273960113525 -6.261889457702637 -2.4018096923828125
0.510083019733429 -6.246939659118652 -2.4019064903259277
0.8767943978309631 -6.20647668838501 -2.4020509719848633
0.9984252452850342 -6.188201904296875 -2.4020988941192627
1.2405102252960205 -6.144505500793457 -2.4021942615509033
1.3608617782592773 -6.119100093841553 -2.4022414684295654
1.4807006120681763 -6.091343879699707 -2.4022886753082275
-0.0976586863398552 -5.867288112640381 -2.401667594909668
0.017487792298197746 -5.868186950683594 -2.4017128944396973
0.1326318383216858 -5.866826057434082 -2.4017581939697266
0.3627368211746216 -5.857325077056885 -2.401848793029785
0.7067626714706421 -5.82616662979126 -2.401984453201294
0.8209667801856995 -5.811283588409424 -2.402029275894165
0.9348534941673279 -5.794162273406982 -2.402074098587036
-0.09171142429113388 -5.509968280792236 -2.401670217514038
0.12455321848392487 -5.509521961212158 -2.4017555713653564
0.2326391488313675 -5.5061140060424805 -2.4017977714538574
0.5562231540679932 -5.483179092407227 -2.401925563812256
0.6637182235717773 -5.471304416656494 -2.401967763900757
0.9845287799835205 -5.423062801361084 -2.4020941257476807
1.1965893507003784 -5.3804450035095215 -2.402177572250366
1.3019555807113647 -5.356021404266357 -2.402219295501709
-0.08634765446186066 -5.187768936157227 -2.401672840118408
0.11727050691843033 -5.1873369216918945 -2.4017529487609863
0.21903808414936066 -5.184123992919922 -2.4017930030822754
0.32072263956069946 -5.1789140701293945 -2.4018330574035645
0.7258740067481995 -5.138161659240723 -2.4019925594329834
0.9269458055496216 -5.105892658233643 -2.402071714401245
1.0269701480865479 -5.086802005767822 -2.402111053466797
1.1266039609909058 -5.065755367279053 -2.4021503925323486
1.2258105278015137 -5.042757511138916 -2.4021894931793213
-0.08148193359375 -4.895468711853027 -2.40167498588562
0.5896899104118347 -4.861050605773926 -2.4019391536712646
0.9690966606140137 -4.800143241882324 -2.4020886421203613
1.0631176233291626 -4.78027868270874 -2.402125597000122
1.1567260026931763 -4.758571147918701 -2.402162551879883
0.013796386308968067 -4.629525184631348 -2.401712656021118
0.1954370141029358 -4.625555515289307 -2.4017841815948486
0.2861669957637787 -4.620898723602295 -2.401819944381714
0.557568371295929 -4.596264362335205 -2.4019267559051514
0.6476587057113647 -4.584505558013916 -2.4019622802734375
0.737500011920929 -4.570980548858643 -2.4019975662231445
1.0052026510238647 -4.519870758056641 -2.4021031856536865
1.0937108993530273 -4.499342441558838 -2.4021379947662354
0.013068847358226776 -4.385042190551758 -2.401712656021118
0.09911132603883743 -4.384002685546875 -2.4017465114593506
0.2710546851158142 -4.376860618591309 -2.4018142223358154
0.44258788228034973 -4.362977981567383 -2.401881694793701
0.5281201004981995 -4.353515148162842 -2.4019155502319336
0.7833764553070068 -4.315082550048828 -2.4020161628723145
0.867907702922821 -4.29893684387207 -2.4020493030548096
0.9521117806434631 -4.281139850616455 -2.4020824432373047
1.0359423160552979 -4.261693477630615 -2.4021155834198
-0.06922607123851776 -4.159256935119629 -2.4016804695129395
0.012399901635944843 -4.159872531890869 -2.401712656021118
0.2571362257003784 -4.152100563049316 -2.401808977127075
0.33856201171875 -4.146313190460205 -2.401841163635254
0.41986083984375 -4.138926982879639 -2.4018731117248535
0.5009984970092773 -4.129945755004883 -2.401905059814453
0.5819482207298279 -4.119372844696045 -2.4019370079040527
0.98274165391922 -4.042821407318115 -2.402094841003418
