ply
format ascii 1.0
element vertex 232
property float x
property float y
property float z
end_header
8.873847007751465 -16.4700870513916 3.2988171577453613
9.315155982971191 -16.470077514648438 3.336430072784424
10.279511451721191 -16.55037498474121 3.435358762741089
10.756591796875 -16.55036735534668 3.4804766178131104
8.917123794555664 -16.550397872924805 2.880014657974243
9.329336166381836 -16.495159149169922 2.9031333923339844
10.279511451721191 -16.550376892089844 2.9846696853637695
10.756601333618164 -16.55036735534668 3.023869037628174
11.750419616699219 -16.55035400390625 3.1094560623168945
12.269193649291992 -16.550344467163086 3.1561279296875
13.859159469604492 -16.47000503540039 3.297550678253174
14.49813461303711 -16.52823257446289 3.368109703063965
15.129911422729492 -16.550296783447266 3.435197591781616
9.31515121459961 -16.470077514648438 2.4640181064605713
12.80398941040039 -16.550334930419922 2.724872350692749
13.926737785339355 -16.550317764282227 2.8167059421539307
14.498061180114746 -16.528162002563477 2.863006591796875
8.917123794555664 -16.550397872924805 2.0187511444091797
9.814448356628418 -16.550384521484375 2.0661938190460205
10.279516220092773 -16.550376892089844 2.0921051502227783
10.756601333618164 -16.550369262695312 2.1195828914642334
11.750429153442383 -16.550352096557617 2.1795740127563477
13.356049537658691 -16.55032730102539 2.28371524810791
13.926742553710938 -16.550317764282227 2.3226897716522217
8.873857498168945 -16.4700870513916 1.5837289094924927
9.315155982971191 -16.47007942199707 1.6017837524414062
10.229633331298828 -16.47006607055664 1.6412780284881592
10.704394340515137 -16.47005844116211 1.6628338098526
11.19200611114502 -16.470048904418945 1.6856820583343506
12.26918888092041 -16.550344467163086 1.7440236806869507
12.80398941040039 -16.550336837768555 1.7713558673858643
13.356054306030273 -16.55032730102539 1.800334095954895
13.926742553710938 -16.550317764282227 1.831059217453003
14.497909545898438 -16.527986526489258 1.8611379861831665
8.873857498168945 -16.4700870513916 1.1601229906082153
9.766825675964355 -16.470073699951172 1.187386155128479
10.229633331298828 -16.470064163208008 1.2022781372070312
10.704399108886719 -16.47005844116211 1.2180663347244263
11.19200611114502 -16.470050811767578 1.2348049879074097
13.291239738464355 -16.47001838684082 1.3123910427093506
13.859159469604492 -16.470008850097656 1.3347890377044678
14.44704532623291 -16.469999313354492 1.3585469722747803
15.056503295898438 -16.469987869262695 1.3837575912475586
8.873852729797363 -16.4700870513916 0.7376965284347534
9.766830444335938 -16.470073699951172 0.7550326585769653
10.229633331298828 -16.47006607055664 0.7645043730735779
10.704399108886719 -16.47005844116211 0.7745410203933716
11.6934175491333 -16.470043182373047 0.7964648008346558
12.74185562133789 -16.47002601623535 0.821091890335083
9.31515121459961 -16.470081329345703 0.3196249306201935
9.766825675964355 -16.470073699951172 0.3234487771987915
10.22963809967041 -16.47006607055664 0.32750335335731506
11.693408012390137 -16.470043182373047 0.3411981165409088
12.209648132324219 -16.470035552978516 0.34632018208503723
12.74185562133789 -16.47002601623535 0.3517443835735321
13.29124927520752 -16.47001838684082 0.35750120878219604
14.447050094604492 -16.469999313354492 0.3700726330280304
15.056503295898438 -16.469989776611328 0.3769403100013733
9.233916282653809 -17.13837432861328 -0.10960616916418076
10.16312026977539 -17.138357162475586 -0.11218062788248062
10.644706726074219 -17.138351440429688 -0.1135876402258873
11.646127700805664 -17.138336181640625 -0.11666030436754227
12.167875289916992 -17.13832664489746 -0.11833938211202621
12.705062866210938 -17.13831901550293 -0.120111845433712
12.84914493560791 -16.608705520629883 -0.1182279959321022
13.291239738464355 -16.47001838684082 -0.11915115267038345
15.084081649780273 -17.196231842041016 -0.1287866234779358
9.233905792236328 -17.13837432861328 -0.5481644868850708
9.693124771118164 -17.13836669921875 -0.5544175505638123
10.16312026977539 -17.13836097717285 -0.5610487461090088
10.644706726074219 -17.13835334777832 -0.5680871605873108
11.646132469177246 -17.138336181640625 -0.5834565758705139
12.16788101196289 -17.13832664489746 -0.5918359160423279
12.849071502685547 -16.608623504638672 -0.5912792682647705
13.291244506835938 -16.47001838684082 -0.5959347486495972
15.084017753601074 -17.925600051879883 -0.6596704125404358
15.083998680114746 -16.50006675720215 -0.6294894218444824
9.23391056060791 -17.13837432861328 -0.9872868061065674
9.693129539489746 -17.13836669921875 -0.998541533946991
10.644706726074219 -17.13835334777832 -1.0231616497039795
11.646127700805664 -17.138336181640625 -1.0508424043655396
12.16788101196289 -17.138328552246094 -1.065938949584961
12.705073356628418 -17.13831901550293 -1.0819391012191772
12.849003791809082 -16.608531951904297 -1.0649235248565674
15.083940505981445 -17.925506591796875 -1.1881076097488403
15.083930015563965 -17.19605827331543 -1.1600477695465088
9.693120002746582 -17.138368606567383 -1.4436863660812378
10.16312026977539 -17.13836097717285 -1.4609566926956177
10.644706726074219 -17.13835334777832 -1.4792790412902832
12.16788101196289 -17.138328552246094 -1.5411254167556763
15.08385181427002 -17.19597053527832 -1.6771763563156128
9.693124771118164 -17.138368606567383 -1.8902963399887085
10.16312026977539 -17.13836097717285 -1.9129151105880737
10.6447114944458 -17.13835334777832 -1.9369052648544312
11.138739585876465 -17.13834571838379 -1.9623427391052246
12.167875289916992 -17.138330459594727 -2.017885446548462
15.136176109313965 -17.98758316040039 -2.2569475173950195
15.083779335021973 -17.19588279724121 -2.1960129737854004
9.008540153503418 -16.72008514404297 -2.2560434341430664
9.686562538146973 -16.334735870361328 -2.2558481693267822
10.018515586853027 -16.130165100097656 -2.2555365562438965
10.669174194335938 -15.700657844543457 -2.2548744678497314
10.98757266998291 -15.475895881652832 -2.2545247077941895
11.609882354736328 -15.006844520568848 -2.2537879943847656
11.913515090942383 -14.762791633605957 -2.253401756286621
12.79275894165039 -13.993715286254883 -2.2521722316741943
7.53662109375 -13.988170623779297 -2.2513437271118164
8.3879976272583 -13.504975318908691 -2.2525601387023926
9.460771560668945 -13.325400352478027 -2.3155357837677
9.873300552368164 -13.317426681518555 -2.3488876819610596
10.92135238647461 -12.978769302368164 -2.4033966064453125
11.18581485748291 -12.752012252807617 -2.4034359455108643
6.918310165405273 -12.840388298034668 -2.4028046131134033
7.180561542510986 -12.695836067199707 -2.402843475341797
7.948827743530273 -12.230278968811035 -2.4029574394226074
8.9259614944458 -11.53763198852539 -2.4031028747558594
9.161103248596191 -11.35210132598877 -2.403137683868408
9.392387390136719 -11.161765098571777 -2.403172254562378
9.619721412658691 -10.966726303100586 -2.4032061100006104
9.842992782592773 -10.767050743103027 -2.4032394886016846
6.063183307647705 -11.253424644470215 -2.402679681777954
6.293051719665527 -11.126724243164062 -2.4027137756347656
6.744755744934082 -10.859284400939941 -2.402780771255493
7.18508768081665 -10.573508262634277 -2.402846336364746
7.613222599029541 -10.269888877868652 -2.402909994125366
8.430644035339355 -9.611146926879883 -2.403031587600708
5.595600605010986 -9.893562316894531 -2.4026119709014893
5.997211933135986 -9.65572452545166 -2.4026715755462646
6.194252967834473 -9.530674934387207 -2.402700901031494
6.769487380981445 -9.131596565246582 -2.4027862548828125
6.955610275268555 -8.990793228149414 -2.4028141498565674
7.319042682647705 -8.697837829589844 -2.4028680324554443
7.670131683349609 -8.390201568603516 -2.4029204845428467
4.848701000213623 -8.999320983886719 -2.4025022983551025
5.214209079742432 -8.792864799499512 -2.4025566577911377
5.745805740356445 -8.455471992492676 -2.4026355743408203
5.918261528015137 -8.335808753967285 -2.4026613235473633
6.088222503662109 -8.212627410888672 -2.402686595916748
6.582456111907959 -7.822490215301514 -2.4027600288391113
6.741747856140137 -7.685764789581299 -2.4027838706970215
4.401108264923096 -8.168574333190918 -2.4024369716644287
4.895785808563232 -7.882381916046143 -2.402510404586792
5.056640625 -7.780282974243164 -2.4025344848632812
5.215371131896973 -7.674892425537109 -2.4025580883026123
5.371899127960205 -7.566267967224121 -2.402581214904785
5.526166915893555 -7.454450607299805 -2.402604103088379
5.678105354309082 -7.339483261108398 -2.4026269912719727
5.827661037445068 -7.221427917480469 -2.40264892578125
5.974755764007568 -7.100311279296875 -2.4026710987091064
6.261342525482178 -6.84915018081665 -2.4027135372161865
4.477592468261719 -7.209073543548584 -2.402449369430542
4.624701976776123 -7.115682125091553 -2.4024713039398193
4.913027286529541 -6.919942855834961 -2.4025142192840576
5.05410623550415 -6.817670822143555 -2.4025349617004395
5.329848289489746 -6.604542255401611 -2.402575969696045
5.464369773864746 -6.493770122528076 -2.4025959968566895
4.390048503875732 -6.460358142852783 -2.402437210083008
4.521796703338623 -6.368912220001221 -2.402456760406494
4.651655197143555 -6.274781227111816 -2.4024760723114014
4.779541015625 -6.178002834320068 -2.4024951457977295
5.029228210449219 -5.976656436920166 -2.4025323390960693
5.150922775268555 -5.8721818923950195 -2.402550458908081
5.270444393157959 -5.765227317810059 -2.4025681018829346
3.42791485786438 -6.362303733825684 -2.4022951126098633
3.557856321334839 -6.290630340576172 -2.4023141860961914
3.9384570121765137 -6.059814929962158 -2.4023709297180176
4.062084674835205 -5.977720737457275 -2.4023890495300293
4.18398904800415 -5.893104076385498 -2.40240740776062
4.422470569610596 -5.716446876525879 -2.402442693710327
4.538930416107178 -5.624481201171875 -2.4024600982666016
4.876679420471191 -5.334499835968018 -2.402510404586792
3.307075023651123 -5.8472208976745605 -2.402277708053589
3.775747060775757 -5.5563554763793945 -2.4023473262786865
3.8890624046325684 -5.477699279785156 -2.4023642539978027
4.110722541809082 -5.31348991394043 -2.4023971557617188
4.325459003448486 -5.140310764312744 -2.4024291038513184
4.532905101776123 -4.958455562591553 -2.4024598598480225
3.5233495235443115 -5.184937477111816 -2.402310371398926
3.629091739654541 -5.111536979675293 -2.4023261070251465
3.733290910720825 -5.035981178283691 -2.402341604232788
3.835932493209839 -4.95829963684082 -2.4023568630218506
3.93694806098938 -4.878528594970703 -2.402371883392334
4.133969783782959 -4.712836265563965 -2.4024012088775635
4.22988748550415 -4.626992225646973 -2.4024155139923096
2.783984422683716 -5.167140960693359 -2.402200937271118
2.8895068168640137 -5.108923435211182 -2.402216672897339
3.09686017036438 -4.986053466796875 -2.402247428894043
3.495561361312866 -4.7152910232543945 -2.4023067951202393
3.5916552543640137 -4.642556190490723 -2.4023208618164062
3.960527181625366 -4.332336902618408 -2.4023759365081787
2.6144042015075684 -4.852405071258545 -2.4021763801574707
3.0037548542022705 -4.621670246124268 -2.4022340774536133
3.0980467796325684 -4.559046268463135 -2.402247905731201
3.1910009384155273 -4.494509696960449 -2.402261972427368
3.2826170921325684 -4.428070068359375 -2.402275562286377
3.3728857040405273 -4.35975980758667 -2.4022889137268066
3.6349315643310547 -4.143919467926025 -2.4023280143737793
2.4615087509155273 -4.568610191345215 -2.402153968811035
2.554804563522339 -4.517129898071289 -2.402167797088623
2.7381396293640137 -4.408482074737549 -2.4021949768066406
2.8280858993530273 -4.351359844207764 -2.4022083282470703
2.9168407917022705 -4.292402267456055 -2.4022216796875
3.004389524459839 -4.231626033782959 -2.4022345542907715
3.175605297088623 -4.104762077331543 -2.4022600650787354
3.34148907661438 -3.9709653854370117 -2.402284860610962
3.4223241806030273 -3.9015448093414307 -2.402296781539917
3.5017333030700684 -3.8304717540740967 -2.402308702468872
2.3227880001068115 -4.3111572265625 -2.4021337032318115
2.410825252532959 -4.262580871582031 -2.402146816253662
2.497856378555298 -4.212203025817871 -2.4021596908569336
2.7524657249450684 -4.050507545471191 -2.4021975994110107
2.8350584506988525 -3.9931640625 -2.402209758758545
2.9164695739746094 -3.9341299533843994 -2.402221918106079
2.2795019149780273 -4.0303802490234375 -2.402127742767334
2.4430761337280273 -3.9334349632263184 -2.4021518230438232
2.5233397483825684 -3.8824639320373535 -2.4021637439727783
2.602529287338257 -3.8298559188842773 -2.4021754264831543
2.7575926780700684 -3.719816207885742 -2.402198553085327
2.8333983421325684 -3.662431001663208 -2.402209758758545
2.908012628555298 -3.6035008430480957 -2.4022209644317627
2.9814062118530273 -3.5430500507354736 -2.4022319316864014
2.159106492996216 -3.8175086975097656 -2.4021098613739014
2.2370409965515137 -3.7723913192749023 -2.4021215438842773
2.314038038253784 -3.725682258605957 -2.402132987976074
2.4650683403015137 -3.6275713443756104 -2.4021553993225098
2.611948251724243 -3.523344039916992 -2.402177333831787
2.8922460079193115 -3.2972357273101807 -2.40221905708313
2.9593505859375 -3.237169027328491 -2.402228832244873
2.195200204849243 -3.5343449115753174 -2.4021155834198
2.2673094272613525 -3.4885432720184326 -2.4021263122558594
2.6129541397094727 -3.2378759384155273 -2.402177572250366
2.743705987930298 -3.127894878387451 -2.4021971225738525
