ply
format ascii 1.0
element vertex 841
property float x
property float y
property float z
end_header
-8.660204887390137 6.273366451263428 0.18063582479953766
-9.038300514221191 6.27336311340332 0.18584518134593964
-9.4390230178833 6.27335786819458 0.19144606590270996
-15.978490829467773 5.018324851989746 0.28290480375289917
-0.1991894543170929 12.126612663269043 -0.06828506290912628
-0.6109033226966858 6.273454666137695 -0.03548736497759819
-0.7388622760772705 6.273451805114746 -0.03556457534432411
-0.8674267530441284 6.273449420928955 -0.03565673902630806
-1.3918797969818115 6.941735744476318 -0.03986068814992905
-1.6855956315994263 6.941733360290527 -0.04021896421909332
-2.1374218463897705 6.941728591918945 -0.04089447110891342
-2.2916259765625 6.941727161407471 -0.041157834231853485
-2.4479002952575684 6.94172477722168 -0.041441649198532104
-2.9308788776397705 6.941720008850098 -0.042423706501722336
-3.09722638130188 6.941717147827148 -0.042796019464731216
-3.266596555709839 6.941716194152832 -0.04319412261247635
-3.439208984375 6.941713809967041 -0.04361679032444954
-3.615307569503784 6.941712379455566 -0.04406600818037987
-3.7951464653015137 6.94171142578125 -0.044543150812387466
-3.9789891242980957 6.941707611083984 -0.04504852369427681
-4.167133808135986 6.94170618057251 -0.04558364674448967
-4.35989236831665 6.941703796386719 -0.04615280032157898
-4.557592868804932 6.941701412200928 -0.0467541478574276
-4.760600566864014 6.941700458526611 -0.04738983139395714
-4.969291687011719 6.941696643829346 -0.048064421862363815
-5.184101581573486 6.941695213317871 -0.04877883940935135
-5.405483245849609 6.94169282913208 -0.04953475669026375
-6.6298828125 6.94167947769165 -0.05404357612133026
-7.130668640136719 6.887373924255371 -0.05581512302160263
-9.365595817565918 6.784343242645264 -0.06511062383651733
-9.365595817565918 6.500534534454346 -0.06418777257204056
-9.4390230178833 6.27335786819458 -0.06380172818899155
-0.19919432699680328 12.126612663269043 -0.3415049612522125
-0.4438769519329071 12.126608848571777 -0.34168776869773865
-0.5328320264816284 9.379151344299316 -0.2645214796066284
-0.5327929854393005 6.913688659667969 -0.19525191187858582
-0.6109033226966858 6.273454666137695 -0.17748214304447174
-0.9967089891433716 6.273449420928955 -0.17886199057102203
-1.1268212795257568 6.273448467254639 -0.179473876953125
-1.3918797969818115 6.941736698150635 -0.19935454428195953
-1.5380810499191284 6.941734313964844 -0.20020431280136108
-1.6855907440185547 6.941733360290527 -0.20114439725875854
-1.8345507383346558 6.941730976104736 -0.2021752893924713
-1.9851123094558716 6.941729545593262 -0.20329879224300385
-2.4478955268859863 6.94172477722168 -0.20726104080677032
-2.767333984375 6.941720962524414 -0.2104240357875824
-2.9308788776397705 6.941720008850098 -0.21217162907123566
-3.615302562713623 6.941712379455566 -0.22038421034812927
-3.9789891242980957 6.941707611083984 -0.2252976894378662
-4.167129039764404 6.94170618057251 -0.22797758877277374
-4.557597637176514 6.941701412200928 -0.2338264435529709
-4.969296932220459 6.941696643829346 -0.2403852790594101
-5.405483245849609 6.941691875457764 -0.2477351278066635
-5.633920669555664 6.941690444946289 -0.2517387270927429
-5.869975566864014 6.941686630249023 -0.2559777796268463
-6.62987756729126 6.94167947769165 -0.27028989791870117
-7.130702972412109 6.352169036865234 -0.26889997720718384
-7.334804534912109 6.273379802703857 -0.27176910638809204
-7.641464710235596 6.27337646484375 -0.27838990092277527
-9.365649223327637 7.37788200378418 -0.33571454882621765
-9.365644454956055 7.076603889465332 -0.33053237199783325
-9.4390230178833 6.273356914520264 -0.31912702322006226
-40.901004791259766 20.550933837890625 -1.2888872623443604
-40.89418411254883 19.525035858154297 -1.2760108709335327
-45.44758605957031 20.584455490112305 -1.404858112335205
-45.4457893371582 18.413558959960938 -1.3807265758514404
-45.443206787109375 15.285385131835938 -1.350036859512329
-15.9786376953125 5.018370151519775 -0.47159332036972046
3.436347484588623 27.411508560180664 -1.4010350704193115
3.4269628524780273 40.51377868652344 -2.0619618892669678
2.850165843963623 44.317298889160156 -2.2521560192108154
1.955996036529541 44.363304138183594 -2.252032995223999
0.16596190631389618 44.40116500854492 -2.251784324645996
-0.1991894543170929 12.126612663269043 -0.6150744557380676
-0.5328661799430847 9.379762649536133 -0.4764544665813446
-0.5328173637390137 6.914013385772705 -0.35167890787124634
-0.8674267530441284 6.27345085144043 -0.32118040323257446
-1.1268212795257568 6.273448467254639 -0.32324400544166565
-1.5380859375 6.941733360290527 -0.36058226227760315
-1.6855956315994263 6.941734313964844 -0.36227506399154663
-1.9851123094558716 6.941730976104736 -0.36615583300590515
-2.1374168395996094 6.941727161407471 -0.36835479736328125
-2.606401205062866 6.941723346710205 -0.3760421574115753
-2.9308738708496094 6.941720008850098 -0.3821360766887665
-3.09722638130188 6.941717147827148 -0.38549530506134033
-3.266591787338257 6.941716194152832 -0.38907453417778015
-3.439208984375 6.941713809967041 -0.3928817808628082
-3.615302562713623 6.94171142578125 -0.3969264030456543
-3.7951414585113525 6.941709995269775 -0.40122100710868835
-3.9789843559265137 6.941707611083984 -0.4057757556438446
-4.167133808135986 6.94170618057251 -0.4106040894985199
-4.760595798492432 6.941699028015137 -0.42687591910362244
-4.969291687011719 6.94169807434082 -0.4329490661621094
-5.184101581573486 6.941694259643555 -0.439380019903183
-5.405483245849609 6.94169282913208 -0.44618743658065796
-5.633920669555664 6.941690444946289 -0.453397661447525
-5.869970798492432 6.941686630249023 -0.4610360562801361
-6.367285251617432 6.941681861877441 -0.47770872712135315
-6.62987756729126 6.941678524017334 -0.4868089258670807
-6.902797698974609 6.941675662994385 -0.496470183134079
-7.1307373046875 6.352198123931885 -0.48430952429771423
-7.334799766540527 6.273378849029541 -0.48947370052337646
-7.641464710235596 6.27337646484375 -0.5014010667800903
-9.365697860717773 7.377912521362305 -0.6046479940414429
-9.36568832397461 6.78440523147583 -0.5864988565444946
-37.32111740112305 23.733694076538086 -2.2430036067962646
-38.23000717163086 22.199642181396484 -2.2419824600219727
-38.66148376464844 21.419757843017578 -2.241497755050659
-37.44403839111328 19.769315719604492 -2.1473610401153564
-39.86152267456055 19.03199577331543 -2.2401490211486816
-40.229820251464844 18.221158981323242 -2.2397348880767822
-40.58180236816406 17.40332794189453 -2.2393393516540527
-40.88259506225586 16.564680099487305 -2.2370498180389404
-15.978705406188965 5.018393516540527 -0.8493704199790955
3.4363622665405273 27.411508560180664 -2.025604724884033
3.204052686691284 30.5334529876709 -2.2510554790496826
2.5875682830810547 30.590456008911133 -2.2509660720825195
1.3519091606140137 30.66712760925293 -2.2507851123809814
0.11473632603883743 30.694494247436523 -2.2506015300750732
-0.4438720643520355 12.126608848571777 -0.8897441029548645
-0.5329052805900574 9.38040828704834 -0.6889004111289978
-0.5328466892242432 6.914329528808594 -0.5084766745567322
-0.6109082102775574 6.273451805114746 -0.4621589481830597
-0.7388573884963989 6.27345085144043 -0.46316269040107727
-0.8674267530441284 6.27345085144043 -0.4643591344356537
-1.1268212795257568 6.273448467254639 -0.4673444926738739
-1.9851123094558716 6.941729545593262 -0.5293853878974915
-2.2916259765625 6.941725730895996 -0.5360007882118225
-2.4479002952575684 6.94172477722168 -0.5397019982337952
-2.6064062118530273 6.941723346710205 -0.5436773300170898
-2.767333984375 6.941720962524414 -0.5479363799095154
-2.9308738708496094 6.941720008850098 -0.5524889826774597
-3.09722638130188 6.941717147827148 -0.5573461651802063
-3.439208984375 6.941713809967041 -0.5680242776870728
-3.615302562713623 6.94171142578125 -0.5738728046417236
-3.7951366901397705 6.941709995269775 -0.5800809860229492
-4.167129039764404 6.941705226898193 -0.5936471223831177
-4.359887599945068 6.941702842712402 -0.601043701171875
-4.760595798492432 6.941700458526611 -0.6171725392341614
-4.969286918640137 6.941696643829346 -0.6259540915489197
-5.184096336364746 6.941695213317871 -0.635252058506012
-6.114213943481445 6.941684246063232 -0.6782618761062622
-6.62987756729126 6.941678524017334 -0.703825056552887
-7.130781173706055 6.887486457824707 -0.7269099354743958
-7.130781173706055 6.61485481262207 -0.7131658792495728
-7.130776405334473 6.352230072021484 -0.7002125382423401
-7.641459941864014 6.27337646484375 -0.7249159216880798
-9.365736961364746 7.076675891876221 -0.8607053756713867
-9.365732192993164 6.784446716308594 -0.8479597568511963
-9.439018249511719 6.273356914520264 -0.8310072422027588
-27.586788177490234 17.5433349609375 -2.397084951400757
-29.208942413330078 14.676197052001953 -2.3968050479888916
-29.498258590698242 14.084020614624023 -2.3967552185058594
-29.77559471130371 13.486173629760742 -2.396707057952881
-30.040849685668945 12.882877349853516 -2.3966612815856934
-30.53474235534668 11.66096019744873 -2.396575689315796
-30.763084411621094 11.042791366577148 -2.396536111831665
-30.978961944580078 10.420157432556152 -2.396498680114746
2.4472899436950684 23.313085556030273 -2.2503931522369385
0.5601025223731995 23.430700302124023 -2.250102996826172
-0.19919432699680328 12.12661075592041 -1.1643706560134888
-0.4438720643520355 12.126606941223145 -1.164993166923523
-0.5328710675239563 6.91470193862915 -0.6658138632774353
-0.6109033226966858 6.273453235626221 -0.6051310300827026
-1.1268212795257568 6.273448467254639 -0.6119202971458435
-1.391884684562683 6.941735744476318 -0.6797060966491699
-1.5380859375 6.941734313964844 -0.6826028227806091
-1.985107421875 6.941729545593262 -0.69315505027771
-2.1374120712280273 6.941727161407471 -0.6973162889480591
-2.4479002952575684 6.941723346710205 -0.706662118434906
-2.6064062118530273 6.941722393035889 -0.711868405342102
-3.615297794342041 6.94171142578125 -0.7514052987098694
-3.7951414585113525 6.941709995269775 -0.7595340013504028
-4.969291687011719 6.941695213317871 -0.8195968270301819
-5.184101581573486 6.941694259643555 -0.831771194934845
-5.869970798492432 6.941685676574707 -0.8727667331695557
-6.114208698272705 6.941683292388916 -0.8880875706672668
-6.367280006408691 6.941680908203125 -0.9043299555778503
-6.62987756729126 6.941678524017334 -0.921558678150177
-6.902792930603027 6.941675662994385 -0.9398461580276489
-7.130820274353027 6.614891052246094 -0.933794379234314
-7.334794521331787 6.273379802703857 -0.9266056418418884
-9.365785598754883 7.37799072265625 -1.144645094871521
-9.3657808303833 7.07670783996582 -1.1269762516021729
-9.365771293640137 6.500655174255371 -1.0945237874984741
-21.3442325592041 12.976672172546387 -2.3981449604034424
-21.60112762451172 12.54347038269043 -2.3981006145477295
-21.849218368530273 12.10520076751709 -2.398057699203491
-22.088502883911133 11.662062644958496 -2.3980166912078857
-22.318735122680664 11.214174270629883 -2.397976875305176
-23.67194366455078 7.962369441986084 -2.397742509841919
-15.97884750366211 5.018437385559082 -1.607925534248352
1.9768115282058716 18.839078903198242 -2.2501065731048584
1.5965380668640137 18.874555587768555 -2.2500405311584473
1.2156542539596558 18.90235137939453 -2.249974250793457
0.8343017101287842 18.922481536865234 -2.2499074935913086
0.07079101353883743 18.939592361450195 -2.249772787094116
-0.1991894543170929 12.12661075592041 -1.440665602684021
-0.44386717677116394 12.126606941223145 -1.441435694694519
-1.1268261671066284 6.273448467254639 -0.7571234107017517
-1.3918797969818115 6.941735744476318 -0.840993344783783
-1.6855956315994263 6.941733360290527 -0.8485410809516907
-2.6064062118530273 6.941722393035889 -0.8807870149612427
-3.266591787338257 6.941716194152832 -0.9113145470619202
-3.439208984375 6.941712379455566 -0.9202315807342529
-3.9789793491363525 6.941705226898193 -0.9504330158233643
-4.557592868804932 6.941699028015137 -0.9864161610603333
-4.760590553283691 6.941700458526611 -0.9998534917831421
-4.969291687011719 6.941695213317871 -1.0140801668167114
-5.184101581573486 6.941694259643555 -1.0291422605514526
-5.405478477478027 6.941691875457764 -1.0450892448425293
-5.869970798492432 6.941685676574707 -1.079864740371704
-6.114208698272705 6.941683292388916 -1.0988224744796753
-6.367280006408691 6.94167947769165 -1.118918538093567
-7.130859375 6.887558460235596 -1.1776460409164429
-7.13085412979126 6.614931583404541 -1.1553821563720703
-7.334799766540527 6.273378849029541 -1.1464816331863403
-7.641459941864014 6.273377418518066 -1.1744054555892944
-9.365815162658691 6.500688552856445 -1.3542495965957642
-15.959716796875 10.149292945861816 -2.2466604709625244
-16.160844802856445 9.82531452178955 -2.2466256618499756
-16.355405807495117 9.497359275817871 -2.2465922832489014
-16.898900985717773 8.490948677062988 -2.2464985847473145
-17.066450119018555 8.148420333862305 -2.246469497680664
-17.227052688598633 7.80259370803833 -2.2464418411254883
-17.66661262512207 6.746729373931885 -2.246365547180176
-17.798858642578125 6.389118671417236 -2.246342658996582
-15.978920936584473 5.018460750579834 -1.989480972290039
1.6571385860443115 15.792634010314941 -2.249931812286377
1.3383837938308716 15.822458267211914 -2.2498764991760254
1.0190917253494263 15.845827102661133 -2.2498207092285156
0.6993994116783142 15.86275863647461 -2.249764919281006
0.059345703572034836 15.8772554397583 -2.249652147293091
-0.1991894543170929 12.12661075592041 -1.718441128730774
-0.8674218654632568 6.27345085144043 -0.8973371982574463
-0.9967041015625 6.273448467254639 -0.9000293016433716
-1.5380810499191284 6.941733360290527 -1.0074235200881958
-2.6064062118530273 6.941722393035889 -1.0506130456924438
-2.767333984375 6.941720008850098 -1.0588432550430298
-3.266591787338257 6.941714763641357 -1.08702552318573
-4.557592868804932 6.941700458526611 -1.176609754562378
-5.184101581573486 6.941694259643555 -1.2275722026824951
-6.367280006408691 6.941680908203125 -1.3346600532531738
-6.902797698974609 6.941674709320068 -1.387076735496521
-7.130898475646973 6.887595176696777 -1.40471613407135
-7.130893230438232 6.614962100982666 -1.3781588077545166
-7.13088846206665 6.352332592010498 -1.3531261682510376
-9.36587905883789 7.378060340881348 -1.6893471479415894
-9.36586856842041 6.784542083740234 -1.6386380195617676
-9.365859031677246 6.500717639923096 -1.6153740882873535
-9.439013481140137 6.273355484008789 -1.6058437824249268
-13.382573127746582 8.510407447814941 -2.247105836868286
-13.551254272460938 8.238758087158203 -2.2470762729644775
-14.023998260498047 7.404252529144287 -2.24699330329895
-14.574281692504883 6.250105857849121 -2.246896266937256
-14.697182655334473 5.954957008361816 -2.246875762939453
-14.814204216003418 5.657410621643066 -2.246865749359131
-14.925102233886719 5.357547283172607 -2.2468466758728027
-15.128715515136719 4.751435279846191 -2.2468106746673584
1.698769450187683 13.550979614257812 -2.249852180480957
1.1510546207427979 13.607888221740723 -2.2497572898864746
0.8764599561691284 13.628035545349121 -2.2497096061706543
0.05104003846645355 13.655223846435547 -2.2495644092559814
-0.19919432699680328 12.12661075592041 -1.9979970455169678
-0.5330517292022705 9.38300895690918 -1.5482414960861206
-0.5329540967941284 6.915769100189209 -1.142675518989563
-0.8674267530441284 6.273449420928955 -1.0433164834976196
-1.1268261671066284 6.273447036743164 -1.0500216484069824
-1.5380810499191284 6.941733360290527 -1.1713106632232666
-1.6855907440185547 6.941731929779053 -1.1768057346343994
-1.8345507383346558 6.941729545593262 -1.1828370094299316
-2.291620969772339 6.941725730895996 -1.2042773962020874
-2.9308738708496094 6.941718578338623 -1.241323471069336
-3.097221612930298 6.941716194152832 -1.252237319946289
-3.615302562713623 6.94171142578125 -1.2893702983856201
-3.9789843559265137 6.94170618057251 -1.318116307258606
-5.633925437927246 6.941690444946289 -1.4728096723556519
-5.869965553283691 6.941685676574707 -1.4976190328598022
-6.114203929901123 6.941683292388916 -1.5239102840423584
-6.367270469665527 6.941680908203125 -1.5517808198928833
-7.130937576293945 6.88762903213501 -1.6332440376281738
-9.365918159484863 7.076808929443359 -1.9338561296463013
-9.3659029006958 6.500748157501221 -1.8781702518463135
-11.5117769241333 7.320706844329834 -2.2474288940429688
-11.932870864868164 6.611208438873291 -2.2473552227020264
-12.063608169555664 6.369224548339844 -2.2473318576812744
-12.310356140136719 5.87761926651001 -2.247293710708618
-12.858891487121582 4.615853786468506 -2.250708818435669
-12.946586608886719 4.3547515869140625 -2.250230312347412
-13.02895450592041 4.091973304748535 -2.249749183654785
1.4888280630111694 11.876283645629883 -2.2497498989105225
1.2490721940994263 11.90367603302002 -2.249708414077759
0.5271777510643005 11.956738471984863 -2.2495827674865723
0.2860058546066284 11.96471118927002 -2.249540328979492
0.04473632574081421 11.967826843261719 -2.249497890472412
-0.19655761122703552 11.966066360473633 -2.249454975128174
-0.5330859422683716 9.383657455444336 -1.7666032314300537
-0.5329833626747131 6.916108131408691 -1.3038113117218018
-0.6109033226966858 6.273451805114746 -1.1847416162490845
-0.7388622760772705 6.27345085144043 -1.187313199043274
-1.1268261671066284 6.273447036743164 -1.198033332824707
-1.6855956315994263 6.941731929779053 -1.3426896333694458
-2.291620969772339 6.941725730895996 -1.374031901359558
-2.4478955268859863 6.94172477722168 -1.3835214376449585
-2.6064062118530273 6.941722393035889 -1.3937119245529175
-2.767333984375 6.941720008850098 -1.404628872871399
-2.9308738708496094 6.941718578338623 -1.416299819946289
-3.439203977584839 6.941712379455566 -1.4561271667480469
-3.615302562713623 6.941709995269775 -1.4711190462112427
-3.7951366901397705 6.941709041595459 -1.4870353937149048
-3.9789843559265137 6.94170618057251 -1.503918170928955
-4.167129039764404 6.941705226898193 -1.521811842918396
-4.760590553283691 6.94169807434082 -1.5821173191070557
-5.405478477478027 6.941690444946289 -1.653694748878479
-5.633920669555664 6.941689491271973 -1.6804169416427612
-5.869970798492432 6.941685676574707 -1.7087249755859375
-6.114203929901123 6.941683292388916 -1.7387197017669678
-6.629872798919678 6.941678524017334 -1.8042492866516113
-6.902788162231445 6.941674709320068 -1.8400520086288452
-7.13097620010376 6.887670516967773 -1.8634761571884155
-7.334789752960205 6.273378849029541 -1.814136028289795
-9.365976333618164 7.378134727478027 -2.241060495376587
-9.365971565246582 7.076845645904541 -2.2064638137817383
-9.365957260131836 6.784611701965332 -2.173790693283081
-9.365951538085938 6.500782489776611 -2.1429266929626465
-10.090659141540527 6.416966438293457 -2.247673988342285
-10.340970993041992 6.0048508644104 -2.2476327419281006
-10.459853172302246 5.795111179351807 -2.247620105743408
-10.59903335571289 5.595969200134277 -2.2528204917907715
-10.70778751373291 5.380184173583984 -2.2524189949035645
-10.812143325805664 5.162282466888428 -2.25201416015625
-10.9120454788208 4.942363262176514 -2.2516067028045654
-11.098344802856445 4.4967942237854 -2.250783681869507
-11.26644515991211 4.044231414794922 -2.2499513626098633
-11.343573570251465 3.8155553340911865 -2.2495317459106445
1.323828101158142 10.5601167678833 -2.2496697902679443
0.8970116972923279 10.604558944702148 -2.249595880508423
0.6830224394798279 10.620309829711914 -2.249558448791504
0.03977050632238388 10.641630172729492 -2.2494454383850098
-0.1747753918170929 10.64009952545166 -2.2494075298309326
-0.38923826813697815 10.634233474731445 -2.2493693828582764
-0.5331249833106995 9.384242057800293 -1.9868383407592773
-0.6109082102775574 6.273451805114746 -1.3323543071746826
-0.7388622760772705 6.27345085144043 -1.3352477550506592
-0.8674267530441284 6.273449420928955 -1.338698387145996
-0.9967089891433716 6.273448467254639 -1.342713475227356
-1.3918797969818115 6.941735744476318 -1.4965494871139526
-1.5380859375 6.941733360290527 -1.5029304027557373
-1.6855907440185547 6.941731929779053 -1.5099810361862183
-2.4478955268859863 6.941723346710205 -1.5559016466140747
-2.6064062118530273 6.941722393035889 -1.5673617124557495
-2.9308788776397705 6.941718578338623 -1.5927664041519165
-3.097221612930298 6.941716194152832 -1.6067687273025513
-3.439203977584839 6.94171142578125 -1.6375532150268555
-3.615302562713623 6.941709995269775 -1.6544132232666016
-3.7951414585113525 6.941709041595459 -1.672312617301941
-3.9789843559265137 6.94170618057251 -1.691298007965088
-4.167133808135986 6.941705226898193 -1.7114232778549194
-4.969286918640137 6.941695213317871 -1.8045578002929688
-5.184096336364746 6.94169282913208 -1.8313604593276978
-5.405473709106445 6.941690444946289 -1.8597381114959717
-5.633925437927246 6.941688060760498 -1.8897908926010132
-5.869965553283691 6.941685676574707 -1.9216228723526
-6.114203929901123 6.941683292388916 -1.9553563594818115
-6.629872798919678 6.941677093505859 -2.0290510654449463
-7.334799766540527 6.273378849029541 -2.040167808532715
-7.641464710235596 6.273375034332275 -2.0898523330688477
-8.612348556518555 6.238696098327637 -2.2479305267333984
-8.85672378540039 5.88633918762207 -2.247896432876587
-8.992182731628418 5.718416690826416 -2.2525570392608643
-9.107275009155273 5.536950588226318 -2.252958297729492
-9.215639114379883 5.351387977600098 -2.252610683441162
-9.610722541809082 4.588663101196289 -2.2511894702911377
-9.699721336364746 4.3932647705078125 -2.2508273124694824
-9.784735679626465 4.196136951446533 -2.250462770462036
-9.942694664001465 3.797030448913574 -2.2497270107269287
-10.015576362609863 3.5952141284942627 -2.2493560314178467
-10.084341049194336 3.3919951915740967 -2.248983144760132
-10.148993492126465 3.1874687671661377 -2.2486090660095215
0.614331066608429 9.551812171936035 -2.249534845352173
0.42161619663238525 9.562112808227539 -2.2495014667510986
0.03580566495656967 9.571054458618164 -2.24943470954895
-0.1571630835533142 9.569686889648438 -2.249401092529297
-0.3500732481479645 9.564435958862305 -2.2493677139282227
-0.5331640243530273 9.384933471679688 -2.2092316150665283
-0.6109082102775574 6.273451805114746 -1.481380581855774
-0.8674267530441284 6.273449420928955 -1.4884328842163086
-1.1268212795257568 6.273447036743164 -1.4979997873306274
-1.3918797969818115 6.941734313964844 -1.6639400720596313
-1.6855956315994263 6.941731929779053 -1.67887544631958
-1.8345556259155273 6.941730976104736 -1.6874785423278809
-2.6064062118530273 6.941722393035889 -1.742674469947815
-2.9308738708496094 6.941718578338623 -1.7709184885025024
-3.09722638130188 6.941716194152832 -1.7864878177642822
-3.266596555709839 6.941713809967041 -1.8030728101730347
-3.439208984375 6.94171142578125 -1.8207170963287354
-3.615307569503784 6.941709995269775 -1.8394629955291748
-3.9789891242980957 6.94170618057251 -1.8804725408554077
-4.760595798492432 6.94169807434082 -1.9782524108886719
-5.184101581573486 6.94169282913208 -2.036201238632202
-5.633925437927246 6.941688060760498 -2.1011650562286377
-6.114208698272705 6.941681861877441 -2.174065113067627
-6.607182502746582 6.917914867401123 -2.248279333114624
-6.745204925537109 6.783231258392334 -2.2482552528381348
-7.013085842132568 6.505652904510498 -2.2482080459594727
-7.131040096282959 6.352465629577637 -2.244507312774658
-7.647250652313232 5.778201580047607 -2.252643585205078
-7.875327110290527 5.466163158416748 -2.253032922744751
-7.982861042022705 5.305564880371094 -2.252729654312134
-8.285561561584473 4.811309814453125 -2.2518012523651123
-8.379706382751465 4.642639636993408 -2.251485824584961
-8.470410346984863 4.4721221923828125 -2.2511677742004395
-8.557621955871582 4.299827575683594 -2.2508468627929688
-8.641337394714355 4.125828266143799 -2.250523805618286
-8.798080444335938 3.773016929626465 -2.249870538711548
-8.940409660339355 3.414262533187866 -2.24920916557312
-9.068085670471191 3.050161123275757 -2.2485406398773193
-9.12636661529541 2.866292715072632 -2.248203992843628
0.7323095798492432 8.657379150390625 -2.249554395675659
0.5576220750808716 8.670266151428223 -2.2495241165161133
0.20763182640075684 8.685460090637207 -2.2494635581970215
0.03248046711087227 8.687763214111328 -2.2494330406188965
-0.14268065989017487 8.686532974243164 -2.2494027614593506
-0.4927392601966858 8.673484802246094 -2.2493419647216797
-0.6109033226966858 6.273451805114746 -1.6319915056228638
-0.8674218654632568 6.273449420928955 -1.6397631168365479
-1.6855907440185547 6.941731929779053 -1.84956693649292
-1.8345556259155273 6.941729545593262 -1.8590449094772339
-2.1374168395996094 6.941727161407471 -1.880608320236206
-2.291620969772339 6.94172477722168 -1.8927432298660278
-2.767333984375 6.941718578338623 -1.934890866279602
-2.9308738708496094 6.941718578338623 -1.95096755027771
-3.615302562713623 6.941709995269775 -2.0264809131622314
-3.7951414585113525 6.941709041595459 -2.0484061241149902
-4.167133808135986 6.941703796386719 -2.096311569213867
-4.557592868804932 6.941699028015137 -2.150092840194702
-4.760595798492432 6.94169807434082 -2.1793806552886963
-5.184096336364746 6.94169282913208 -2.2432210445404053
-5.335512638092041 6.851852893829346 -2.248499870300293
-5.472460746765137 6.742823123931885 -2.248476028442383
-5.739702224731445 6.516584396362305 -2.2484290599823
-6.123222351074219 6.157514572143555 -2.248363494873047
-6.245703220367432 6.032780647277832 -2.2483460903167725
-6.496523380279541 5.787294864654541 -2.25270938873291
-6.614521503448486 5.657318115234375 -2.2535781860351562
-6.726459980010986 5.522177696228027 -2.25331974029541
-6.835615158081055 5.384809494018555 -2.2530574798583984
-6.941982269287109 5.245284080505371 -2.2527921199798584
-7.243720531463623 4.814314842224121 -2.2519760131835938
-7.430063247680664 4.517261028289795 -2.251417398452759
-7.518686294555664 4.365996837615967 -2.251133918762207
-7.76586389541626 3.902003765106201 -2.25026798248291
-7.841938495635986 3.7441539764404297 -2.2499749660491943
-7.914784908294678 3.584822416305542 -2.2496795654296875
-7.984399318695068 3.42406964302063 -2.249382257461548
-8.050732612609863 3.261969566345215 -2.2490830421447754
-8.113774299621582 3.0985820293426514 -2.248782157897949
-8.229872703552246 2.7682249546051025 -2.2481753826141357
-8.283256530761719 2.6015124320983887 -2.2479770183563232
0.988452136516571 7.884782314300537 -2.2495980262756348
0.8292822241783142 7.903011322021484 -2.249570369720459
0.5099902153015137 7.929821491241455 -2.2495150566101074
0.18990233540534973 7.94373893737793 -2.2494595050811768
0.029702147468924522 7.94585657119751 -2.249431610107422
-0.45067381858825684 7.932824611663818 -2.2493484020233154
-0.5330957174301147 6.917577743530273 -1.964125156402588
-0.7388622760772705 6.273449420928955 -1.7882448434829712
-0.8674267530441284 6.273449420928955 -1.7928670644760132
-0.9967089891433716 6.273447036743164 -1.7982444763183594
-1.5380810499191284 6.941731929779053 -2.0128161907196045
-1.8345507383346558 6.941729545593262 -2.032623291015625
-2.767333984375 6.941718578338623 -2.115551471710205
-2.9308788776397705 6.941717147827148 -2.133129596710205
-3.097221612930298 6.941714763641357 -2.151883602142334
-3.266596555709839 6.941713809967041 -2.1718618869781494
-3.615307569503784 6.941709995269775 -2.2156927585601807
-3.7951366901397705 6.941709041595459 -2.2396652698516846
-3.950268507003784 6.89159631729126 -2.2487401962280273
-4.088359355926514 6.81048583984375 -2.248716115951538
-4.752729415893555 6.36412239074707 -2.2486000061035156
-4.879741191864014 6.266955375671387 -2.2485785484313965
-5.004961013793945 6.167244911193848 -2.2485578060150146
-5.12844705581665 6.065021991729736 -2.248539924621582
-5.249765396118164 5.96034049987793 -2.248522996902466
-5.7255859375 5.530235290527344 -2.2534968852996826
-5.942695140838623 5.293853759765625 -2.2530410289764404
-6.047587871551514 5.172433853149414 -2.252808094024658
-6.149990081787109 5.048925876617432 -2.2525715827941895
-6.24987268447876 4.92338752746582 -2.2523319721221924
-6.441860198974609 4.666417598724365 -2.2518434524536133
-6.623276233673096 4.401954650878906 -2.2513434886932373
-6.793813228607178 4.13043212890625 -2.2508327960968018
-6.953178405761719 3.852297306060791 -2.250312089920044
-7.101152420043945 3.5680174827575684 -2.249782085418701
-7.170790672302246 3.423713207244873 -2.249514102935791
-7.301225185394287 3.131099224090576 -2.248972177505493
-7.41970682144165 2.833522319793701 -2.2484235763549805
-7.474404335021973 2.683032274246216 -2.2481470108032227
-7.898886680603027 2.480786085128784 -2.3438127040863037
0.9097656011581421 7.257050514221191 -2.2495837211608887
0.4693847596645355 7.298527717590332 -2.249507188796997
0.17478515207767487 7.311349868774414 -2.2494561672210693
0.027353515848517418 7.313302993774414 -2.2494306564331055
-0.12010253965854645 7.312287330627441 -2.2494049072265625
-0.26750487089157104 7.308294296264648 -2.2493796348571777
-0.41478514671325684 7.301336288452148 -2.2493538856506348
-0.6109082102775574 6.273451805114746 -1.9387065172195435
-0.9967089891433716 6.273447036743164 -1.9537795782089233
-1.1268261671066284 6.273444652557373 -1.960457682609558
-1.3918797969818115 6.941733360290527 -2.177626371383667
-1.5380859375 6.941730976104736 -2.1869101524353027
-1.8345507383346558 6.941729545593262 -2.2084319591522217
-2.1374168395996094 6.941725730895996 -2.23404860496521
-2.570185422897339 6.845280647277832 -2.2489795684814453
-2.707651376724243 6.791994571685791 -2.248955726623535
-3.113115072250366 6.6156907081604 -2.248884916305542
-3.5071825981140137 6.415205955505371 -2.2488162517547607
-3.6357176303863525 6.343128681182861 -2.2487940788269043
-3.8885498046875 6.191276550292969 -2.248751401901245
-4.012304782867432 6.111578464508057 -2.2487330436706543
-4.134609222412109 6.029394626617432 -2.2487151622772217
-4.263388633728027 5.9557785987854 -2.2528676986694336
-4.382612228393555 5.86854362487793 -2.252843141555786
-4.615581035614014 5.686966419219971 -2.2527928352355957
-4.731376647949219 5.595190525054932 -2.253774404525757
-5.059658050537109 5.297580242156982 -2.2531914710998535
-5.268139362335205 5.088382244110107 -2.2527852058410645
-5.369150161743164 4.980682373046875 -2.252577304840088
-5.564536094665527 4.759280681610107 -2.2521514892578125
-5.84033203125 4.412904739379883 -2.251490354537964
-5.927504539489746 4.293832302093506 -2.2512643337249756
-6.012275218963623 4.173032760620117 -2.251035690307617
-6.094545841217041 4.0505571365356445 -2.2508044242858887
-6.251576900482178 3.80077862739563 -2.2503345012664795
-6.326283931732178 3.673577070236206 -2.250096082687378
-6.467832088470459 3.414820432662964 -2.24961256980896
-6.534648418426514 3.283372640609741 -2.2493679523468018
-6.5987548828125 3.150613307952881 -2.2491214275360107
-6.6602783203125 3.0166008472442627 -2.248872995376587
-6.828354358673096 2.6077239513397217 -2.248225450515747
-7.358193397521973 2.4750237464904785 -2.3878228664398193
-7.445976257324219 2.338541269302368 -2.400519609451294
0.5704589486122131 6.74332857131958 -2.2495241165161133
0.4343847632408142 6.753383636474609 -2.2495005130767822
0.1617480367422104 6.765265941619873 -2.24945330619812
-0.11104492098093033 6.766143798828125 -2.249405860900879
-0.3837548792362213 6.756015300750732 -2.249358654022217
-0.7388622760772705 6.273449420928955 -2.0997426509857178
-0.8674267530441284 6.273448467254639 -2.1051697731018066
-0.9967089891433716 6.273448467254639 -2.111483335494995
-1.1268212795257568 6.273446083068848 -2.118701219558716
-1.330165982246399 6.634366512298584 -2.2491941452026367
-1.4635741710662842 6.606130123138428 -2.249171018600464
-1.596533179283142 6.575213432312012 -2.249147653579712
-1.72866690158844 6.541622161865234 -2.249124765396118
-1.8601220846176147 6.505374431610107 -2.2491018772125244
-1.9910106658935547 6.466476917266846 -2.2490792274475098
-2.1208250522613525 6.424958229064941 -2.249056816101074
-2.378251791000366 6.334105014801025 -2.2490124702453613
-2.631479501724243 6.232960224151611 -2.248969316482544
-2.7567577362060547 6.178580284118652 -2.2489495277404785
-3.003115177154541 6.062335014343262 -2.2489113807678223
-3.251113176345825 5.9468994140625 -2.2529218196868896
-3.488354444503784 5.810885906219482 -2.252880573272705
-3.834965705871582 5.591954231262207 -2.2539145946502686
-4.056694030761719 5.43203592300415 -2.253593921661377
-4.271738052368164 5.263297080993652 -2.25325870513916
-4.376650333404541 5.17570686340332 -2.2530858516693115
-4.479770183563232 5.086020469665527 -2.2529094219207764
-4.581025123596191 4.994273662567139 -2.252729654312134
-4.680405139923096 4.900504112243652 -2.252546787261963
-4.777836799621582 4.804751873016357 -2.2523605823516846
-4.873344421386719 4.707053184509277 -2.252171277999878
-5.058247089385986 4.505986213684082 -2.2517833709716797
-5.234868049621582 4.297646522521973 -2.2513840198516846
-5.319970607757568 4.190850734710693 -2.2511801719665527
-5.483573913574219 3.9722490310668945 -2.2507646083831787
-5.783559322357178 3.5162272453308105 -2.2499043941497803
-5.919438362121582 3.279567241668701 -2.2494614124298096
-6.045639514923096 3.037653684616089 -2.2490103244781494
-6.161933422088623 2.7908952236175537 -2.2485525608062744
-6.216289043426514 2.6658270359039307 -2.248321294784546
-6.797377586364746 2.43998646736145 -2.400630474090576
-6.845107078552246 2.3024420738220215 -2.4006221294403076
-6.890117168426514 2.16396427154541 -2.4006145000457764
0.5303027033805847 6.26809549331665 -2.2495198249816895
0.4040869176387787 6.277454853057861 -2.249497413635254
0.023784179240465164 6.290194034576416 -2.2494304180145264
-0.2299169898033142 6.285900592803955 -2.2493863105773926
-0.35665038228034973 6.279921531677246 -2.2493646144866943
-0.48313963413238525 6.271393775939941 -2.249342679977417
-0.7355322241783142 6.246691703796387 -2.2492997646331787
-0.9870654344558716 6.211829662322998 -2.2492570877075195
-1.2364599704742432 6.166879653930664 -2.2492153644561768
-1.483789086341858 6.111916542053223 -2.2491745948791504
-1.8539648056030273 6.021281719207764 -2.25301456451416
-1.9749999046325684 5.982640266418457 -2.252999782562256
-2.5669872760772705 5.753298282623291 -2.252919912338257
-2.682441234588623 5.700328350067139 -2.2529027462005615
-2.798403263092041 5.64830207824707 -2.254183530807495
-3.023505687713623 5.530290603637695 -2.253936767578125
-3.134208917617798 5.467896461486816 -2.25380802154541
-3.458378791809082 5.267477989196777 -2.2533986568450928
-3.9696288108825684 4.891049861907959 -2.25264573097229
-4.067133903503418 4.80967903137207 -2.2524850368499756
-4.257094860076904 4.6411237716674805 -2.2521541118621826
-4.349438190460205 4.554014205932617 -2.251984119415283
-4.4400634765625 4.4650559425354 -2.2518112659454346
-4.528828144073486 4.374290466308594 -2.2516353130340576
-4.615712642669678 4.281759738922119 -2.2514564990997314
-4.783803462982178 4.091533660888672 -2.2510907649993896
-4.864926815032959 3.993925094604492 -2.250903844833374
-5.096147537231445 3.691594123840332 -2.250328302383423
-5.169072151184082 3.5877904891967773 -2.250131845474243
-5.308569431304932 3.3758885860443115 -2.249732255935669
-5.501420974731445 3.047980785369873 -2.249117374420166
-5.618750095367432 2.823195219039917 -2.2486984729766846
-5.674037933349609 2.7090814113616943 -2.2484865188598633
-5.727275371551514 2.5940539836883545 -2.2484130859375
-6.131899356842041 2.4844865798950195 -2.365954637527466
-6.271586894989014 2.3950395584106445 -2.4007201194763184
-6.318544864654541 2.268108367919922 -2.400712013244629
-6.36294412612915 2.1402533054351807 -2.4007043838500977
0.021962890401482582 5.879349231719971 -2.253089189529419
-0.33347654342651367 5.869870662689209 -2.2530674934387207
-0.4517480432987213 5.861930847167969 -2.2530593872070312
-0.5698291063308716 5.851612567901611 -2.2530508041381836
-0.6876904368400574 5.838912010192871 -2.2530417442321777
-0.8052538633346558 5.823832988739014 -2.2530319690704346
-1.0393798351287842 5.786584377288818 -2.2530112266540527
-1.1558153629302979 5.764423847198486 -2.253000259399414
-1.3872509002685547 5.713084697723389 -2.252976894378662
-1.8440282344818115 5.585854530334473 -2.254227876663208
-1.9561961889266968 5.547328948974609 -2.254141092300415
-2.067553758621216 5.506541728973389 -2.2540502548217773
-2.287661075592041 5.418252944946289 -2.253857374191284
-2.396313428878784 5.37078857421875 -2.2537553310394287
-2.5039892196655273 5.3211350440979 -2.2536494731903076
-2.7162108421325684 5.215350151062012 -2.2534265518188477
-2.8206541538238525 5.159260272979736 -2.253309965133667
-3.0260303020477295 5.040809154510498 -2.253065824508667
-3.2264111042022705 4.914157390594482 -2.2528076171875
-3.516913890838623 4.7092766761779785 -2.2523961067199707
-3.610917806625366 4.637118339538574 -2.2522523403167725
-3.794428586959839 4.487187385559082 -2.25195574760437
-3.883857250213623 4.409476280212402 -2.251802921295166
-4.057895183563232 4.248726844787598 -2.25148868560791
-4.142426490783691 4.165755748748779 -2.2513272762298584
-4.225278377532959 4.081096172332764 -2.2511632442474365
-4.306357383728027 3.9947893619537354 -2.2509963512420654
-4.463237285614014 3.8173534870147705 -2.250655174255371
-4.538930416107178 3.7263059616088867 -2.250480890274048
-4.612778186798096 3.633751630783081 -2.2503042221069336
-4.684731483459473 3.5397355556488037 -2.2501251697540283
-4.822846412658691 3.3474607467651367 -2.249760627746582
-4.888916015625 3.249281644821167 -2.249575138092041
-5.188915729522705 2.7395923137664795 -2.248619556427002
-5.294726371765137 2.5280308723449707 -2.2484869956970215
-5.510937213897705 2.4960358142852783 -2.3183963298797607
-5.757832050323486 2.4691803455352783 -2.4008078575134277
-5.852602481842041 2.235044479370117 -2.4007914066314697
-5.896450042724609 2.1165924072265625 -2.4007837772369385
0.5748291015625 5.478274822235107 -2.2544302940368652
0.4642724394798279 5.48875093460083 -2.2544307708740234
0.3535253703594208 5.496987342834473 -2.254427433013916
0.1316210925579071 5.506724834442139 -2.254408597946167
0.02058105356991291 5.508220195770264 -2.2543933391571045
-0.09047851711511612 5.507469177246094 -2.254373788833618
-0.20149414241313934 5.504469871520996 -2.254350423812866
-0.3124121129512787 5.499222278594971 -2.2543230056762695
-0.5338476300239563 5.481993198394775 -2.254256248474121
-0.8641992211341858 5.439388275146484 -2.254126787185669
-1.082729458808899 5.3998703956604 -2.2540206909179688
-1.299462914466858 5.351546287536621 -2.253899574279785
-1.6204540729522705 5.262715816497803 -2.2536892890930176
-1.7261571884155273 5.228797435760498 -2.2536118030548096
-1.8311572074890137 5.192747592926025 -2.253530502319336
-2.2431933879852295 5.027546405792236 -2.253169536590576
-2.4438085556030273 4.932586669921875 -2.2529678344726562
-2.542651414871216 4.882086277008057 -2.252861976623535
-2.737123966217041 4.775144100189209 -2.2526400089263916
-2.8326756954193115 4.718746185302734 -2.2525241374969482
-3.0202929973602295 4.600219249725342 -2.2522828578948975
-3.2029149532318115 4.47421932220459 -2.2520289421081543
-3.2922801971435547 4.408477783203125 -2.2518973350524902
-3.5520994663238525 4.200628757476807 -2.2514853477478027
-3.6358447074890137 4.127898693084717 -2.251342296600342
-3.7987987995147705 3.9774491786956787 -2.2510480880737305
-3.9555320739746094 3.8205559253692627 -2.2507436275482178
-4.318398475646973 3.4018547534942627 -2.249939441680908
-4.451337814331055 3.224520683288574 -2.2496025562286377
-4.515078067779541 3.13388729095459 -2.2494308948516846
-4.577016353607178 3.0419812202453613 -2.2492570877075195
-4.637060642242432 2.9488580226898193 -2.249081611633301
-4.695199966430664 2.854545831680298 -2.2489044666290283
-4.818735122680664 2.670297861099243 -2.2551121711730957
-4.858442306518555 2.565108060836792 -2.248561382293701
-4.985190391540527 2.5048394203186035 -2.2833876609802246
-5.34375 2.4202709197998047 -2.400878429412842
-5.391308307647705 2.3120384216308594 -2.4008700847625732
-5.436826229095459 2.2028679847717285 -2.400862455368042
0.6432665586471558 5.13132905960083 -2.25382399559021
0.5396826267242432 5.143265247344971 -2.253828525543213
0.3319091796875 5.160834789276123 -2.2538259029388428
-0.18916991353034973 5.167870998382568 -2.253753662109375
-0.2933105528354645 5.162949085235596 -2.253727912902832
-0.3973437547683716 5.155916690826416 -2.2536983489990234
-0.5012060403823853 5.146783351898193 -2.2536652088165283
-0.7082617282867432 5.122219085693359 -2.2535879611968994
-0.8113671541213989 5.106799125671387 -2.2535436153411865
-0.9141356945037842 5.089296817779541 -2.253495693206787
-1.118505835533142 5.048065185546875 -2.2533891201019287
-1.3210351467132568 4.998604774475098 -2.253268241882324
-1.6206395626068115 4.909153938293457 -2.2530603408813477
-1.7192236185073853 4.87531852722168 -2.252984046936035
-1.8170897960662842 4.839498043060303 -2.2529044151306152
-2.106074094772339 4.7202606201171875 -2.252645254135132
-2.294448137283325 4.631132125854492 -2.252455949783325
-2.659594774246216 4.430415153503418 -2.2520394325256348
-2.922119140625 4.260887145996094 -2.251695156097412
-3.00726056098938 4.20088529586792 -2.2515745162963867
-3.0911521911621094 4.1391754150390625 -2.251451015472412
-3.1738085746765137 4.0757856369018555 -2.2513248920440674
-3.56683087348938 3.7345640659332275 -2.2506537437438965
-3.7853221893310547 3.5114500522613525 -2.2502212524414062
-3.855092763900757 3.434190034866333 -2.250072479248047
-3.923281192779541 3.355544328689575 -2.2499215602874756
-3.9898486137390137 3.275543212890625 -2.2497682571411133
-4.179648399353027 3.027735471725464 -2.2492964267730713
-4.239565372467041 2.9426395893096924 -2.2491354942321777
-4.354130744934082 2.7689311504364014 -2.248807668685913
-4.408744812011719 2.6803886890411377 -2.2486412525177
-4.461772441864014 2.5909435749053955 -2.248629093170166
-4.536713600158691 2.513731002807617 -2.2605621814727783
-4.971479415893555 2.373645544052124 -2.400941848754883
-5.018280982971191 2.2729246616363525 -2.4009337425231934
-5.1058349609375 2.0687592029571533 -2.40091872215271
-5.14651346206665 1.9653948545455933 -2.400911569595337
-5.185048580169678 1.8612334728240967 -2.400904893875122
-5.221513748168945 1.756317138671875 -2.4008984565734863
0.6055029034614563 4.830102443695068 -2.253282070159912
0.508007824420929 4.84133768081665 -2.253286123275757
0.4102832078933716 4.850596904754639 -2.253286600112915
0.3124121129512787 4.857877254486084 -2.253283739089966
0.2144189476966858 4.863177299499512 -2.25327730178833
0.0181884765625 4.867813587188721 -2.253253698348999
-0.0799560546875 4.867154598236084 -2.2532362937927246
-0.17805664241313934 4.864509105682373 -2.253215789794922
-0.2760986387729645 4.859879016876221 -2.2531914710998535
-0.3740185499191284 4.853265285491943 -2.2531638145446777
-0.4717773199081421 4.844671726226807 -2.2531325817108154
-0.5693506002426147 4.834100246429443 -2.2530980110168457
-0.666674792766571 4.821557521820068 -2.2530598640441895
-0.8604834079742432 4.790577411651611 -2.2529730796813965
-0.9568700790405273 4.772153377532959 -2.252924680709839
-1.0528662204742432 4.751781940460205 -2.2528727054595947
-1.4320898056030273 4.651021480560303 -2.252631902694702
-1.8018798828125 4.51994514465332 -2.252338409423828
-1.8925830125808716 4.4825358390808105 -2.2522571086883545
-1.9824950695037842 4.443301200866699 -2.2521727085113525
-2.071601629257202 4.402258396148682 -2.252084970474243
-2.247202157974243 4.314814567565918 -2.2519009113311768
-2.5035839080810547 4.170527458190918 -2.2516024112701416
-2.587040901184082 4.119010925292969 -2.251497268676758
-3.2863476276397705 3.5828094482421875 -2.250429391860962
-3.563471555709839 3.30562424659729 -2.2498912811279297
-3.6933445930480957 3.1588854789733887 -2.2496089935302734
-3.8171873092651367 3.0070366859436035 -2.249318838119507
-3.8768017292022705 2.9292728900909424 -2.2491705417633057
-4.311025142669678 2.503342866897583 -2.3075413703918457
-4.493754863739014 2.489518404006958 -2.377840518951416
-4.58694314956665 2.4217920303344727 -2.4010074138641357
-4.634868144989014 2.3288121223449707 -2.4009993076324463
-4.724970817565918 2.1400561332702637 -2.4009835720062256
-4.767148494720459 2.04435658454895 -2.4009764194488525
-4.845629692077637 1.8505034446716309 -2.4009628295898438
-4.948354244232178 1.5541943311691284 -2.400944948196411
0.5712548494338989 4.556957244873047 -2.2527904510498047
0.47926756739616394 4.567556858062744 -2.2527945041656494
0.3870898485183716 4.576293468475342 -2.2527949810028076
0.20229491591453552 4.588159084320068 -2.2527859210968018
-0.07542480528354645 4.591917037963867 -2.2527475357055664
-0.537158191204071 4.560749530792236 -2.2526168823242188
-0.628979504108429 4.548921585083008 -2.2525808811187744
-0.9027685523033142 4.50232458114624 -2.252453327178955
-0.9933251738548279 4.483111381530762 -2.2524044513702393
-1.0834814310073853 4.462069511413574 -2.252352476119995
-1.173183560371399 4.439211845397949 -2.2522969245910645
-1.2624120712280273 4.4145426750183105 -2.2522387504577637
-1.439272403717041 4.3598175048828125 -2.252112627029419
-1.6137646436691284 4.2979865074157715 -2.251974105834961
-1.7856054306030273 4.22915506362915 -2.251823663711548
-1.8704394102096558 4.192147254943848 -2.251744031906128
-2.440844774246216 3.8862528800964355 -2.2511069774627686
-2.6709375381469727 3.731081485748291 -2.25079345703125
-2.7454833984375 3.6762938499450684 -2.2506837844848633
-2.8188915252685547 3.6200151443481445 -2.2505717277526855
-2.891162157058716 3.562267303466797 -2.250457286834717
-3.032109260559082 3.442456007003784 -2.2502212524414062
-3.168036937713623 3.3170628547668457 -2.2499759197235107
-3.4241650104522705 3.0503575801849365 -2.249459743499756
-3.484804630279541 2.9805216789245605 -2.249325752258301
-3.5439746379852295 2.90948224067688 -2.249189615249634
-3.6579344272613525 2.7639050483703613 -2.2489120960235596
-3.7126758098602295 2.6894285678863525 -2.2487707138061523
-3.8181004524230957 2.5375354290008545 -2.2487387657165527
-3.9434814453125 2.507774591445923 -2.2923693656921387
-4.104252815246582 2.495262384414673 -2.356105089187622
-4.458808422088623 2.019514799118042 -2.401029109954834
-4.536586761474609 1.838112711906433 -2.401015520095825
-4.606967449188232 1.6537249088287354 -2.401003122329712
-4.669848442077637 1.4666509628295898 -2.4009923934936523
0.5400390625 4.307899475097656 -2.2523422241210938
0.3659326136112213 4.32617712020874 -2.2523465156555176
0.27863767743110657 4.332670211791992 -2.2523438930511475
-0.07130371034145355 4.340954303741455 -2.2523016929626465
-0.15880858898162842 4.338601112365723 -2.2522833347320557
-0.2462499886751175 4.334473133087158 -2.2522616386413574
-0.33356931805610657 4.328582286834717 -2.252236843109131
-0.4207763671875 4.320923328399658 -2.252209186553955
-0.5946142673492432 4.300323963165283 -2.2521440982818604
-0.6811767220497131 4.287391662597656 -2.2521071434020996
-0.8534325957298279 4.256287097930908 -2.252023696899414
-1.1934374570846558 4.173325538635254 -2.2518208026885986
-1.4434179067611694 4.093216896057129 -2.2516374588012695
-1.607153296470642 4.031457901000977 -2.2515008449554443
-1.768251895904541 3.963130474090576 -2.2513532638549805
-1.8477245569229126 3.926537275314331 -2.251275062561035
-2.1577391624450684 3.7643516063690186 -2.250936269760132
-2.233100652694702 3.7199339866638184 -2.250844717025757
-2.453554630279541 3.5776798725128174 -2.250555992126465
-2.525078058242798 3.5273284912109375 -2.2504546642303467
-2.7333006858825684 3.3677618503570557 -2.2501370906829834
-2.8665623664855957 3.254512310028076 -2.2499136924743652
-2.995063304901123 3.135986328125 -2.2496819496154785
-3.057568311691284 3.0747997760772705 -2.249562978744507
-3.1187548637390137 3.0123698711395264 -2.2494418621063232
-3.237319231033325 2.8838725090026855 -2.2491939067840576
-3.405156135559082 2.682440757751465 -2.2488083839416504
-3.4585204124450684 2.613234758377075 -2.248800039291382
-3.760502815246582 2.499309539794922 -2.342447280883789
