ply
format ascii 1.0
element vertex 342
property float x
property float y
property float z
end_header
-26.551286697387695 17.527633666992188 5.609828948974609
-26.019283294677734 16.432132720947266 5.426222324371338
-26.02096939086914 14.999467849731445 5.295901775360107
-26.022573471069336 13.631796836853027 5.179932594299316
-26.02334976196289 12.96963882446289 5.126918315887451
-26.024850845336914 11.68392562866211 5.0301313400268555
-26.020748138427734 11.056540489196777 4.985179424285889
-26.270883560180664 10.54201602935791 4.991309642791748
-27.14410400390625 10.261286735534668 5.116812705993652
-28.8968505859375 10.26217269897461 5.407061576843262
-33.38784408569336 10.359785079956055 6.16406774520874
-35.8814811706543 10.344321250915527 6.584549427032471
-41.87778091430664 10.261897087097168 7.6026506423950195
-45.862548828125 10.261662483215332 8.286754608154297
-26.55156898498535 17.527816772460938 4.8739237785339355
-25.961225509643555 15.671530723571777 4.64555549621582
-25.961238861083984 14.965041160583496 4.590561866760254
-25.961280822753906 12.938708305358887 4.443687438964844
-25.96129035949707 12.290942192077637 4.4003214836120605
-26.211515426635742 10.518200874328613 4.326690673828125
-26.981380462646484 10.199779510498047 4.418882846832275
-37.22602844238281 11.550712585449219 5.971041679382324
-41.62385559082031 10.199674606323242 6.565199375152588
-45.58529281616211 10.19962215423584 7.1560821533203125
-26.10253143310547 17.99825668334961 4.1287994384765625
-25.96147918701172 16.395633697509766 3.9984703063964844
-25.961505889892578 14.965188026428223 3.902188539505005
-25.961517333984375 14.27492618560791 3.8580808639526367
-25.96152687072754 13.599823951721191 3.8165056705474854
-25.961538314819336 12.938844680786133 3.7773351669311523
-26.211713790893555 10.51827335357666 3.6778721809387207
-28.721092224121094 10.199766159057617 3.9689319133758545
-41.87777328491211 10.261894226074219 5.614700794219971
-45.58530044555664 10.19962215423584 6.082938194274902
-26.02010154724121 16.432655334472656 3.304630756378174
-26.021766662597656 14.99992847442627 3.225259304046631
-26.023351669311523 13.632216453552246 3.1546313762664795
-26.024120330810547 12.970033645629883 3.1223442554473877
-26.024869918823242 12.321040153503418 3.0919628143310547
-26.02560806274414 11.684274673461914 3.0633983612060547
-26.2714786529541 10.542267799377441 3.039736270904541
-27.144094467163086 10.261283874511719 3.1160948276519775
-28.8968505859375 10.26216983795166 3.2928569316864014
-35.88198471069336 10.344467163085938 4.009990215301514
-38.26545715332031 10.19970417022705 4.252479553222656
-41.62384033203125 10.199673652648926 4.601874351501465
-26.552406311035156 17.52836799621582 2.6933343410491943
-26.020370483398438 16.432819366455078 2.605182409286499
-26.021207809448242 15.707741737365723 2.5729899406433105
-26.02202796936035 15.000075340270996 2.5426130294799805
-26.0228271484375 14.308632850646973 2.5139524936676025
-26.025121688842773 12.321162223815918 2.4375221729278564
-26.02174949645996 11.05697250366211 2.3934237957000732
-28.896818161010742 10.26216983795166 2.59587025642395
-30.8612117767334 10.263161659240723 2.7531609535217285
-37.63053512573242 11.67623233795166 3.33535099029541
-38.45714569091797 10.25079345703125 3.3691699504852295
-45.58525466918945 10.19961929321289 3.9543333053588867
-26.552684783935547 17.528562545776367 1.9729582071304321
-25.96229362487793 14.275341033935547 1.8372504711151123
-25.96230125427246 11.03170108795166 1.749240517616272
-26.981386184692383 10.199775695800781 1.7886805534362793
-30.670536041259766 10.199748039245605 2.0042989253997803
-32.872032165527344 10.199728965759277 2.1342735290527344
-38.457496643066406 11.086959838867188 2.4818811416625977
-38.45749282836914 10.25088882446289 2.4680299758911133
-41.87782669067383 10.261892318725586 2.673687696456909
-45.86261749267578 10.26165771484375 2.914274215698242
-26.103288650512695 17.998764038085938 1.2502415180206299
-26.552961349487305 17.528732299804688 1.2545738220214844
-25.962553024291992 16.396299362182617 1.210792064666748
-25.962553024291992 15.672341346740723 1.195793867111206
-25.96255111694336 14.96578598022461 1.1816343069076538
-25.96255111694336 14.275497436523438 1.1682792901992798
-26.36056900024414 13.137712478637695 1.161361575126648
-26.622726440429688 12.604082107543945 1.1614627838134766
-26.87393569946289 12.065129280090332 1.1615601778030396
-27.11421775817871 11.52117919921875 1.1616532802581787
-38.26546859741211 10.199701309204102 1.5615278482437134
-41.62384796142578 10.19966983795166 1.689828872680664
-26.55323600769043 17.528915405273438 0.5374500751495361
-26.553239822387695 16.769338607788086 0.5304905772209167
-26.553232192993164 15.306283950805664 0.5177149772644043
-26.55323028564453 14.600282669067383 0.5118678212165833
-26.553224563598633 13.909785270690918 0.5063511729240417
-27.857421875 13.18862247467041 0.520639181137085
-28.821229934692383 12.246500968933105 0.5289698839187622
-29.333078384399414 11.77081298828125 0.5338914394378662
-34.64976119995117 12.30520248413086 0.6211122274398804
-35.022178649902344 11.64691162109375 0.6234742403030396
-39.418479919433594 12.230998039245605 0.6971665620803833
-46.59144592285156 12.4190034866333 0.8144953846931458
-48.12117004394531 11.791796684265137 0.8369004726409912
-26.553512573242188 17.529094696044922 -0.17913909256458282
-26.553504943847656 16.02906608581543 -0.1746286004781723
-26.969213485717773 13.441044807434082 -0.16965484619140625
-27.857582092285156 13.188695907592773 -0.1735311895608902
-28.436046600341797 12.76644515991211 -0.17549438774585724
-28.821630477905273 12.246674537658691 -0.17631132900714874
-29.333044052124023 11.77081298828125 -0.1779516488313675
-32.43150329589844 12.260085105895996 -0.1952064484357834
-34.64968490600586 12.305194854736328 -0.20702193677425385
-35.02218246459961 11.646925926208496 -0.2078123390674591
-46.59174728393555 12.419079780578613 -0.27147504687309265
-26.553783416748047 16.769689559936523 -0.8843197226524353
-26.55376434326172 15.306593894958496 -0.8630254864692688
-26.55374526977539 13.910051345825195 -0.8440775871276855
-28.43621063232422 12.766518592834473 -0.8776954412460327
-28.822025299072266 12.246840476989746 -0.8817976117134094
-32.431480407714844 12.260077476501465 -0.9762734770774841
-40.82933044433594 11.770730018615723 -1.1964887380599976
-26.55406379699707 17.529478073120117 -1.6136356592178345
-26.55404281616211 16.02939224243164 -1.5730050802230835
-26.554006576538086 13.910197257995605 -1.520247459411621
-27.857894897460938 13.188859939575195 -1.5631219148635864
-28.436376571655273 12.766593933105469 -1.580795407295227
-28.822425842285156 12.247018814086914 -1.5882067680358887
-29.333044052124023 11.7708101272583 -1.6029088497161865
-34.64968490600586 12.305177688598633 -1.8647496700286865
-38.08864974975586 11.818381309509277 -2.0224876403808594
-40.83808517456055 11.773261070251465 -2.1554155349731445
-41.82857894897461 11.149453163146973 -2.1953675746917725
-25.23955726623535 16.66171646118164 -2.217495918273926
-25.565719604492188 16.145692825317383 -2.217059850692749
-25.881492614746094 15.6234130859375 -2.216637372970581
-26.481420516967773 14.56078815460205 -2.215834856033325
-26.765336990356445 14.020913124084473 -2.21545672416687
-27.791940689086914 11.809152603149414 -2.214099168777466
-28.238388061523438 10.674967765808105 -2.2135043144226074
-28.444643020629883 10.10157585144043 -2.21323561668396
-28.639448165893555 9.5242919921875 -2.2129838466644287
-22.05252456665039 5.403841018676758 -1.6647752523422241
-29.784976959228516 6.6643266677856445 -2.237900495529175
-19.085933685302734 13.160165786743164 -2.2257091999053955
-20.300128936767578 11.162009239196777 -2.224097728729248
-20.728788375854492 10.33092975616455 -2.2235262393951416
-21.484926223754883 8.621506690979004 -2.2225353717803955
-14.459818840026855 5.466254234313965 -1.484096646308899
-16.11598014831543 5.3595075607299805 -1.6305315494537354
-20.522314071655273 5.470249652862549 -2.0390400886535645
-22.052703857421875 5.403885841369629 -2.179805040359497
-22.80118751525879 5.101719379425049 -2.2431516647338867
-15.669257164001465 10.343950271606445 -2.2302780151367188
-16.07019805908203 9.700796127319336 -2.2297494411468506
-16.260913848876953 9.37339973449707 -2.229499578475952
-10.040045738220215 5.5205230712890625 -1.3610122203826904
-16.622379302978516 8.70755672454834 -2.229020833969116
-16.793081283569336 8.369425773620605 -2.228794813156128
-11.464627265930176 5.427742004394531 -1.5067473649978638
-13.049717903137207 5.5449934005737305 -1.6842719316482544
-14.526752471923828 5.49155330657959 -1.8447532653808594
-17.80461311340332 6.322976589202881 -2.2443466186523438
-16.11605453491211 5.359536647796631 -2.0174407958984375
-18.34630012512207 4.495643615722656 -2.243755340576172
-18.425277709960938 4.122622489929199 -2.2427797317504883
-12.979609489440918 8.949719429016113 -2.2338786125183105
-13.156229972839355 8.684988021850586 -2.2336442470550537
-8.539480209350586 5.393005847930908 -1.43104088306427
-10.040179252624512 5.520597457885742 -1.623447060585022
-14.022930145263672 7.345832824707031 -2.243004083633423
-10.954917907714844 5.459775924682617 -1.7342878580093384
-11.517892837524414 5.452958106994629 -1.8056169748306274
-14.458026885986328 6.4909844398498535 -2.245532274246216
-13.049870491027832 5.545060157775879 -2.009037971496582
-14.836201667785645 5.608530521392822 -2.2473220825195312
-15.224340438842773 4.389044761657715 -2.244978666305542
-11.175779342651367 7.705789089202881 -2.2362844944000244
-8.53955078125 5.3930511474609375 -1.6638559103012085
-11.669845581054688 7.044519424438477 -2.245598554611206
-11.812077522277832 6.808926105499268 -2.2460570335388184
-10.040310859680176 5.520669460296631 -1.8875994682312012
-12.082343101501465 6.329281330108643 -2.246999740600586
-12.451417922973633 5.5901031494140625 -2.248474597930908
-12.562609672546387 5.33801794052124 -2.24863600730896
-12.663886070251465 5.081789970397949 -2.247943639755249
-9.841919898986816 6.786214828491211 -2.247025966644287
-9.978577613830566 6.587286949157715 -2.247405767440796
-8.53962230682373 5.393095016479492 -1.898409366607666
-10.239880561828613 6.1813225746154785 -2.2481882572174072
-10.81413459777832 5.1197710037231445 -2.24892258644104
-11.259757041931152 3.998694896697998 -2.2458908557891846
-12.444589614868164 2.7844579219818115 -2.39693546295166
-8.759958267211914 6.0401763916015625 -2.249192714691162
-8.881430625915527 5.863014221191406 -2.249530792236328
-9.113651275634766 5.5014753341674805 -2.250227928161621
-9.612353324890137 4.550806999206543 -2.248065948486328
-9.863080978393555 3.9578771591186523 -2.246455192565918
-10.010543823242188 3.555056571960449 -2.2455015182495117
-10.959512710571289 2.921269416809082 -2.3975071907043457
-7.991981029510498 5.27585506439209 -2.2506630420684814
-8.195047378540039 4.946956157684326 -2.249738931655884
-8.291504859924316 4.779539108276367 -2.249271869659424
-8.384539604187012 4.610237121582031 -2.2488019466400146
-8.560175895690918 4.266265392303467 -2.2478528022766113
-8.721670150756836 3.915621757507324 -2.246894121170044
-8.797028541564941 3.737971782684326 -2.2464113235473633
-8.93860912322998 3.3790788650512695 -2.2458853721618652
-9.74482250213623 3.0236833095550537 -2.397974729537964
-7.154816627502441 4.9333977699279785 -2.25020170211792
-7.436136245727539 4.488840103149414 -2.2489495277404785
-7.523812294006348 4.337012767791748 -2.248525857925415
-7.608377456665039 4.183465957641602 -2.2480993270874023
-7.843099117279053 3.7131872177124023 -2.246804714202881
-7.996131420135498 3.397658586502075 -2.249492645263672
-8.510024070739746 3.2170488834381104 -2.3555824756622314
-8.950204849243164 2.3856866359710693 -2.3982796669006348
-6.541585445404053 4.510560989379883 -2.2494313716888428
-6.799111366271973 4.104299068450928 -2.2482869625091553
-6.879388332366943 3.965543031692505 -2.2478995323181152
-7.103060245513916 3.5400609970092773 -2.246722936630249
-7.576815128326416 3.219485282897949 -2.3305490016937256
-7.925685882568359 2.9961485862731934 -2.398674488067627
-7.9844651222229 2.835536479949951 -2.3986518383026123
-8.04000473022461 2.673771858215332 -2.398630380630493
-8.092264175415039 2.5109171867370605 -2.3986101150512695
-8.141239166259766 2.347046375274658 -2.3985910415649414
-8.186893463134766 2.182224750518799 -2.398573160171509
-6.019067287445068 4.150277137756348 -2.248775005340576
-6.100667476654053 4.027316093444824 -2.248426914215088
-6.179751873016357 3.902745246887207 -2.2480757236480713
-6.256280422210693 3.7766191959381104 -2.2477221488952637
-6.401575565338135 3.519904613494873 -2.247007131576538
-7.238394737243652 2.9046380519866943 -2.3989388942718506
-7.349595546722412 2.6100730895996094 -2.3988959789276123
-7.400721073150635 2.461174249649048 -2.398876190185547
-7.448832988739014 2.311269521713257 -2.398857355117798
-7.574901103973389 1.8561828136444092 -2.398808479309082
-7.61077880859375 1.7028979063034058 -2.398794412612915
-5.568102836608887 3.839327335357666 -2.248208522796631
-5.64365816116333 3.7256243228912354 -2.2478866577148438
-5.716886043548584 3.6104252338409424 -2.2475619316101074
-5.787750244140625 3.493788480758667 -2.24723482131958
-5.856637954711914 3.376007080078125 -2.2470712661743164
-5.923551082611084 3.257063627243042 -2.2470452785491943
-6.432658672332764 3.2059459686279297 -2.389097213745117
-6.584516525268555 2.956141233444214 -2.399190664291382
-6.698340892791748 2.6879241466522217 -2.399146556854248
-6.751177787780762 2.5521490573883057 -2.3991260528564453
-7.042978286743164 1.5758538246154785 -2.399012804031372
-5.174566745758057 3.5679752826690674 -2.2477142810821533
-5.244833946228027 3.4623382091522217 -2.247415065765381
-5.313333511352539 3.35556697845459 -2.2472801208496094
-5.379920482635498 3.247598171234131 -2.2472546100616455
-5.585090160369873 3.2194604873657227 -2.305337429046631
-5.943576335906982 3.1135149002075195 -2.399437427520752
-6.120963096618652 2.7480156421661377 -2.3993687629699707
-6.32243537902832 2.245298385620117 -2.3992908000946045
-6.3664231300354 2.1172101497650146 -2.3992738723754883
-6.40781831741333 1.9882586002349854 -2.3992576599121094
-6.446602821350098 1.8585009574890137 -2.399242639541626
-6.482767105102539 1.7279900312423706 -2.399228572845459
-6.51629114151001 1.5967761278152466 -2.3992154598236084
-6.547158241271973 1.464915156364441 -2.3992035388946533
-4.828211784362793 3.3291563987731934 -2.247467041015625
-5.094853401184082 3.217588424682617 -2.30920147895813
-5.546712398529053 2.9056193828582764 -2.399590015411377
-5.604176998138428 2.793041229248047 -2.3995678424835205
-5.659363746643066 2.6793341636657715 -2.3995463848114014
-5.762796401977539 2.448686361312866 -2.3995063304901123
-5.811004638671875 2.3318517208099365 -2.3994877338409424
-5.856842994689941 2.214062452316284 -2.3994698524475098
-5.900295257568359 2.0953826904296875 -2.3994531631469727
-5.941351413726807 1.9758477210998535 -2.399437189102173
-6.01618766784668 1.7344145774841309 -2.3994081020355225
-6.11002779006958 1.3671075105667114 -2.39937162399292
-4.662586688995361 3.2149510383605957 -2.3179450035095215
-4.957683086395264 3.130963087081909 -2.3998167514801025
-5.019819259643555 3.030224561691284 -2.3997929096221924
-5.137934684753418 2.8250932693481445 -2.399747371673584
-5.193869590759277 2.72078537940979 -2.3997256755828857
-5.247684001922607 2.6153693199157715 -2.399704694747925
-5.299361228942871 2.5088963508605957 -2.3996846675872803
-5.484284400939941 2.073228597640991 -2.39961314201355
-5.524981498718262 1.9620965719223022 -2.399597406387329
-5.56342887878418 1.8501653671264648 -2.3995823860168457
-5.599606990814209 1.7374815940856934 -2.3995683193206787
-5.694408893585205 1.3953814506530762 -2.399531602859497
-4.533593654632568 3.126011371612549 -2.399980068206787
-4.595722675323486 3.03383469581604 -2.399955987930298
-4.655976295471191 2.940423011779785 -2.399932861328125
-4.714335918426514 2.8458197116851807 -2.3999102115631104
-4.770773887634277 2.7500555515289307 -2.399888515472412
-4.976879596710205 2.3562235832214355 -2.399808645248413
-5.023387432098389 2.255267381668091 -2.3997907638549805
-5.067850112915039 2.1533970832824707 -2.399773597717285
-5.150565147399902 1.9470702409744263 -2.3997414112091064
-5.18878173828125 1.8426995277404785 -2.399726629257202
-5.258869647979736 1.6317534446716309 -2.3996994495391846
-5.320389270782471 1.4181567430496216 -2.3996756076812744
-5.347909927368164 1.3104735612869263 -2.399664878845215
-4.268664360046387 2.943336009979248 -2.4000818729400635
-4.438852310180664 2.6795220375061035 -2.4000160694122314
-4.543307781219482 2.4981377124786377 -2.3999757766723633
-4.640363693237305 2.3126909732818604 -2.3999381065368652
-4.686065673828125 2.218540668487549 -2.3999204635620117
-4.7298583984375 2.1234869956970215 -2.3999035358428955
-4.811646461486816 1.930827021598816 -2.399871826171875
-4.885595798492432 1.7350298166275024 -2.3998429775238037
-4.919597148895264 1.6360540390014648 -2.399829864501953
-5.035428524017334 1.2339025735855103 -2.399785041809082
-4.137054443359375 2.6127045154571533 -2.400132179260254
-4.188913345336914 2.52864670753479 -2.4001121520996094
-4.287492752075195 2.357476234436035 -2.400074005126953
-4.334172248840332 2.270437479019165 -2.4000558853149414
-4.610519886016846 1.6373412609100342 -2.399948835372925
-4.64260721206665 1.5439404249191284 -2.3999364376068115
-4.672802448272705 1.4499071836471558 -2.3999247550964355
-3.8090293407440186 2.6264069080352783 -2.4002585411071777
-3.8612353801727295 2.5489659309387207 -2.400238037109375
-3.9118664264678955 2.470489501953125 -2.4002184867858887
-3.960904359817505 2.3910069465637207 -2.4001996517181396
-4.008328914642334 2.310553550720215 -2.400181293487549
-4.098258972167969 2.146855354309082 -2.400146484375
-4.140729904174805 2.063680410385132 -2.400130033493042
-4.22059440612793 1.8948516845703125 -2.400099277496338
-4.257955074310303 1.809261441230774 -2.4000847339630127
-4.293585300445557 1.7229375839233398 -2.400070905685425
-4.389918327331543 1.459905982017517 -2.400033712387085
-4.445228099822998 1.2815221548080444 -2.400012254714966
-4.493294715881348 1.1010552644729614 -2.399993419647217
-3.6079869270324707 2.4877867698669434 -2.4003355503082275
-3.6574413776397705 2.4144341945648193 -2.4003164768218994
-3.705411195755005 2.339827299118042 -2.4002978801727295
-3.7518529891967773 2.2648167610168457 -2.400279998779297
-3.7967772483825684 2.188606023788452 -2.4002625942230225
-3.84014892578125 2.111536741256714 -2.4002459049224854
-3.881965160369873 2.0335497856140137 -2.4002296924591064
-3.922194719314575 1.95476496219635 -2.400214195251465
-3.99784779548645 1.7948479652404785 -2.4001848697662354
-4.099080562591553 1.5495744943618774 -2.4001457691192627
-4.129499435424805 1.4665173292160034 -2.4001338481903076
-4.158243179321289 1.382859468460083 -2.40012264251709
-4.234257698059082 1.128648042678833 -2.4000930786132812
-3.422821044921875 2.3601109981536865 -2.400406837463379
-3.5152392387390137 2.2200047969818115 -2.4003710746765137
-3.559305429458618 2.1485846042633057 -2.4003539085388184
-3.601923704147339 2.0762877464294434 -2.4003374576568604
-3.7209105491638184 1.854449987411499 -2.4002914428710938
-3.75756573677063 1.778957486152649 -2.4002771377563477
-3.917584180831909 1.3912603855133057 -2.4002151489257812
-3.944852113723755 1.311895728111267 -2.400204658508301
-3.9945569038391113 1.1515960693359375 -2.4001853466033936
