ply
format ascii 1.0
element vertex 294
property float x
property float y
property float z
end_header
28.629901885986328 6.888969421386719 5.192309379577637
28.658456802368164 7.501193523406982 5.22349739074707
28.62989616394043 8.104776382446289 5.246603965759277
28.67005729675293 8.734987258911133 5.284727573394775
28.62989616394043 9.981934547424316 5.346254825592041
28.670053482055664 10.639357566833496 5.392168045043945
28.67005729675293 12.62997817993164 5.524100303649902
12.211928367614746 6.273403167724609 2.4208028316497803
10.741278648376465 6.353703498840332 2.200519561767578
28.62973976135254 7.493675231933594 4.533668518066406
28.669897079467773 8.116101264953613 4.56466007232666
28.629730224609375 9.981877326965332 4.6448445320129395
28.66988754272461 12.629898071289062 4.799349784851074
11.786103248596191 6.35371208190918 2.0512137413024902
28.629589080810547 6.289917945861816 3.8170840740203857
28.62958526611328 6.888896465301514 3.834577798843384
28.629573822021484 8.104687690734863 3.874671220779419
28.62957000732422 9.34815788269043 3.921874523162842
28.62957000732422 9.981820106506348 3.948263168334961
28.62956428527832 10.624330520629883 3.9765913486480713
28.62956428527832 11.938725471496582 4.039333820343018
28.629560470581055 12.612138748168945 4.073890209197998
11.78609848022461 6.35371208190918 1.743607997894287
11.103168487548828 6.273393630981445 1.6606889963150024
10.605507850646973 6.27338981628418 1.604583978652954
29.490535736083984 7.096060752868652 3.2571284770965576
29.490535736083984 8.9849853515625 3.310459852218628
29.490535736083984 10.94385814666748 3.377765655517578
10.180121421813965 4.245187282562256 1.184399127960205
12.833017349243164 6.273406982421875 1.533874750137329
11.637124061584473 6.273396968841553 1.4196258783340454
11.103168487548828 6.273393630981445 1.3694039583206177
10.60550308227539 6.27338981628418 1.323161005973816
29.490379333496094 6.47905158996582 2.5559773445129395
29.490375518798828 8.34838581085205 2.5945467948913574
29.490375518798828 8.98493480682373 2.609738826751709
29.49036979675293 10.281965255737305 2.643825054168701
29.49036979675293 11.615446090698242 2.6831047534942627
29.28143882751465 12.210577964782715 2.6856422424316406
13.506718635559082 6.273413181304932 1.260693073272705
12.833017349243164 6.273406982421875 1.2092089653015137
11.63711929321289 6.273396968841553 1.1191396713256836
10.605507850646973 6.27338981628418 1.0430938005447388
29.490219116210938 6.479018211364746 1.8723138570785522
29.490219116210938 7.096000671386719 1.8808928728103638
29.490219116210938 7.718915939331055 1.8903002738952637
29.281272888183594 12.210514068603516 1.9672908782958984
29.49005699157715 6.478982925415039 1.1905581951141357
29.49005699157715 7.095964431762695 1.1960155963897705
29.490053176879883 8.348298072814941 1.2085195779800415
29.490047454833984 8.98483943939209 1.2155953645706177
29.28110694885254 12.210437774658203 1.2509499788284302
13.506723403930664 6.273411750793457 0.5872271656990051
12.211928367614746 6.273400783538818 0.541351318359375
29.48914909362793 6.478781700134277 0.5100063681602478
29.489145278930664 7.095740795135498 0.5123449563980103
29.4891357421875 7.718639850616455 0.5149059891700745
29.4891357421875 8.348040580749512 0.5177001953125
29.4891300201416 8.98455810546875 0.5207309126853943
29.489126205444336 9.628836631774902 0.5240075588226318
29.489120483398438 10.281525611877441 0.5275347828865051
29.489110946655273 11.614956855773926 0.5353713631629944
29.280941009521484 12.210371971130371 0.5358926057815552
29.28093719482422 12.89910888671875 0.5404778718948364
12.833017349243164 6.2734055519104 0.2412884533405304
12.211928367614746 6.273400783538818 0.23191070556640625
11.103168487548828 6.273392200469971 0.21542052924633026
29.488964080810547 9.6287841796875 -0.17465636134147644
29.48895835876465 10.281468391418457 -0.1758270263671875
29.488948822021484 10.943265914916992 -0.17709258198738098
29.28077507019043 12.210302352905273 -0.17861251533031464
29.280771255493164 12.899032592773438 -0.18014007806777954
13.59334945678711 6.313651084899902 -0.0843852236866951
13.593344688415527 6.645094871520996 -0.0851869210600853
13.512856483459473 6.941701412200928 -0.08553024381399155
12.876806259155273 6.941696643829346 -0.08236343413591385
29.488832473754883 6.47871208190918 -0.8501443266868591
29.48882293701172 7.095664978027344 -0.8540423512458801
29.488813400268555 8.347946166992188 -0.8629714846611023
29.488807678222656 8.984457015991211 -0.8680213689804077
29.488798141479492 9.628729820251465 -0.8734866380691528
29.48878288269043 10.94320297241211 -0.8856732249259949
29.488779067993164 11.614822387695312 -0.8924259543418884
29.28060531616211 12.898957252502441 -0.9009373188018799
13.593266487121582 6.31361198425293 -0.42202848196029663
13.593266487121582 6.645054817199707 -0.42604291439056396
12.876811027526855 6.941696643829346 -0.4119126796722412
12.28597640991211 6.941691875457764 -0.39734771847724915
29.488676071166992 6.478677749633789 -1.5311657190322876
29.488666534423828 7.09562873840332 -1.5381771326065063
29.488656997680664 7.718510627746582 -1.5458745956420898
29.4886474609375 8.98440933227539 -1.5633612871170044
29.488637924194336 9.628680229187012 -1.5731960535049438
29.488632202148438 10.281356811523438 -1.583781361579895
29.48861312866211 11.61475658416748 -1.6073129177093506
29.28044319152832 12.210163116455078 -1.6088720560073853
29.280433654785156 12.898884773254395 -1.62263822555542
13.512861251831055 6.941701412200928 -0.7704293727874756
12.876806259155273 6.941696643829346 -0.7418836951255798
12.28597640991211 6.941691875457764 -0.7156503200531006
11.735297203063965 6.941686630249023 -0.6914718747138977
29.488494873046875 7.718470096588135 -2.234999895095825
29.43645477294922 8.968507766723633 -2.2562994956970215
29.25225067138672 9.551497459411621 -2.2562780380249023
29.05636215209961 10.130642890930176 -2.256253719329834
28.849071502685547 10.705811500549316 -2.2562265396118164
28.400150299072266 11.84307861328125 -2.2561633586883545
13.593110084533691 6.313538551330566 -1.0989367961883545
13.51285171508789 6.941701412200928 -1.1138807535171509
22.98027801513672 5.048778057098389 -2.2588374614715576
22.8834228515625 5.506262302398682 -2.259629487991333
22.465229034423828 6.844570159912109 -2.2546563148498535
22.324491500854492 7.289437294006348 -2.2546236515045166
22.016611099243164 8.17030143737793 -2.254552125930786
21.849565505981445 8.60595703125 -2.2545132637023926
21.48965835571289 9.46680736541748 -2.254429340362549
13.593027114868164 6.313501834869385 -1.4388928413391113
13.593027114868164 6.64493989944458 -1.4525812864303589
12.876801490783691 6.941695213317871 -1.4044277667999268
12.28597640991211 6.941689491271973 -1.3547660112380981
11.735297203063965 6.941686630249023 -1.308995008468628
18.550615310668945 4.075583457946777 -2.2561097145080566
18.471216201782227 4.444588661193848 -2.2567481994628906
18.061260223388672 5.897396087646484 -2.256896734237671
17.91505241394043 6.245913982391357 -2.2535908222198486
17.786401748657227 6.6004638671875 -2.253553628921509
17.50956916809082 7.301624774932861 -2.2534894943237305
13.592948913574219 6.313465595245361 -1.780317783355713
13.592944145202637 6.644898414611816 -1.7972567081451416
13.51285171508789 6.941701412200928 -1.8045480251312256
12.876806259155273 6.941695213317871 -1.7376861572265625
12.285971641540527 6.941690444946289 -1.6762397289276123
11.735297203063965 6.941686630249023 -1.6196074485778809
15.539277076721191 3.4139862060546875 -2.254255533218384
15.31908130645752 4.336658000946045 -2.255847454071045
15.141698837280273 4.944092750549316 -2.2568881511688232
14.94008731842041 5.544228553771973 -2.2579104900360107
14.817753791809082 5.836313247680664 -2.256502866744995
13.512856483459473 6.941700458526611 -2.152484893798828
13.357069969177246 2.934556722640991 -2.2529115676879883
13.298856735229492 3.199998140335083 -2.253370761871338
13.0924654006958 3.9889304637908936 -2.254728078842163
13.01321792602539 4.249096393585205 -2.2551729679107666
12.839120864868164 4.764564037322998 -2.2560508251190186
12.744384765625 5.019665241241455 -2.256483316421509
12.644526481628418 5.272864818572998 -2.256911516189575
12.16080093383789 6.247100830078125 -2.2522292137145996
12.033876419067383 6.487370491027832 -2.2521982192993164
11.735292434692383 6.941685676574707 -2.2461655139923096
11.65025806427002 2.8033111095428467 -2.2522943019866943
11.533823013305664 3.2650835514068604 -2.253089666366577
11.324658393859863 3.948397636413574 -2.254258155822754
11.162636756896973 4.396655559539795 -2.255019426345825
11.074902534484863 4.618321418762207 -2.2553939819335938
10.982778549194336 4.838237285614014 -2.2557644844055176
10.680194854736328 5.486536979675293 -2.256849765777588
10.56497573852539 5.695426940917969 -2.255974292755127
10.449955940246582 5.904285907745361 -2.2560038566589355
10.311450004577637 6.099339485168457 -2.2517967224121094
10.435356140136719 2.5109710693359375 -2.268777370452881
10.251699447631836 2.902134895324707 -2.2521555423736572
9.995034217834473 3.7091283798217773 -2.2535336017608643
9.920854568481445 3.9075512886047363 -2.2538697719573975
9.760648727416992 4.299848556518555 -2.2545318603515625
9.674687385559082 4.493566036224365 -2.254857063293457
9.584877967834473 4.685557842254639 -2.255178451538086
9.491225242614746 4.875748157501221 -2.25549578666687
9.393783569335938 5.064054012298584 -2.2558088302612305
9.292582511901855 5.250402927398682 -2.256117582321167
9.187689781188965 5.434720516204834 -2.2564218044281006
9.990918159484863 2.1950089931488037 -2.4040958881378174
9.945282936096191 2.3930554389953613 -2.404085397720337
9.543031692504883 2.4978368282318115 -2.3183836936950684
9.217690467834473 2.6094396114349365 -2.251516342163086
9.164912223815918 2.792304039001465 -2.251715898513794
9.04922866821289 3.155057191848755 -2.2523350715637207
8.919150352478027 3.513007640838623 -2.2529425621032715
8.848764419555664 3.69000244140625 -2.253241777420044
8.616581916809082 4.212212562561035 -2.2541186809539795
8.5322847366333 4.383126258850098 -2.254403591156006
8.444575309753418 4.552342414855957 -2.2546849250793457
8.35348129272461 4.719796180725098 -2.25496244430542
9.06801700592041 1.9922595024108887 -2.4038808345794678
8.981694221496582 2.35091495513916 -2.4038612842559814
8.2657470703125 2.698944568634033 -2.251347541809082
8.093276023864746 3.18772029876709 -2.252178192138672
8.029315948486328 3.348283529281616 -2.2524495124816895
7.962158203125 3.5075621604919434 -2.2527177333831787
7.81835412979126 3.82199764251709 -2.253244638442993
7.662094593048096 4.13052225112915 -2.253758430480957
8.293042182922363 1.8219915628433228 -2.403700351715088
8.214062690734863 2.149994373321533 -2.403682231903076
7.647372722625732 2.4970390796661377 -2.2774078845977783
7.455644130706787 2.766768217086792 -2.251286029815674
7.279990196228027 3.207048177719116 -2.2520296573638916
7.215620040893555 3.3514111042022705 -2.252271890640259
7.07827615737915 3.6361889839172363 -2.2527477741241455
7.00536584854126 3.776487350463867 -2.252980947494507
7.632382869720459 1.6768401861190796 -2.4035465717315674
7.5596923828125 1.9787126779556274 -2.4035298824310303
7.475058555603027 2.277453660964966 -2.403510570526123
6.755336761474609 2.8170268535614014 -2.251217842102051
6.698705673217773 2.950976610183716 -2.251443386077881
6.639413833618164 3.083784818649292 -2.251666307449341
6.51293420791626 3.34576416015625 -2.2521040439605713
7.061909198760986 1.5515117645263672 -2.4034135341644287
6.994682312011719 1.8308264017105103 -2.403398275375366
6.91637659072876 2.107236385345459 -2.4033803939819336
6.8271484375 2.380319118499756 -2.403359889984131
6.672983169555664 2.4763317108154297 -2.3659512996673584
6.249701976776123 2.6061718463897705 -2.2508256435394287
6.024994850158691 3.095106840133667 -2.2515482902526855
5.962836742401123 3.214480400085449 -2.251746654510498
5.89831018447876 3.33260178565979 -2.2519421577453613
6.563954830169678 1.4421038627624512 -2.4032976627349854
6.534038066864014 1.5722216367721558 -2.4032907485961914
6.501440048217773 1.701719880104065 -2.4032833576202393
6.428652286529541 1.9586412906646729 -2.403266668319702
6.388447284698486 2.085968494415283 -2.4032576084136963
5.956532955169678 2.4839165210723877 -2.3078832626342773
5.599189281463623 2.8763670921325684 -2.251063346862793
5.541396141052246 2.987286329269409 -2.2512476444244385
5.481391429901123 3.097038507461548 -2.251429319381714
5.419203758239746 3.205582857131958 -2.2516086101531982
6.125009536743164 1.3456677198410034 -2.403195381164551
6.097050666809082 1.4670861959457397 -2.403188943862915
6.06667947769165 1.5879254341125488 -2.403182029724121
5.961249828338623 1.9464800357818604 -2.403157949447632
5.879174709320068 2.1817455291748047 -2.403139114379883
5.834643363952637 2.2981085777282715 -2.4031288623809814
5.360820293426514 2.489846706390381 -2.265075445175171
5.734838962554932 1.2599475383758545 -2.403104543685913
5.649550437927246 1.5993237495422363 -2.4030849933624268
5.616645336151123 1.7112438678741455 -2.4030776023864746
5.544194221496582 1.933010220527649 -2.4030609130859375
5.462978363037109 2.151719331741333 -2.4030423164367676
5.419135570526123 2.2598187923431396 -2.403032064437866
5.373139381408691 2.3670263290405273 -2.4030215740203857
4.891122817993164 2.5126287937164307 -2.25050950050354
4.840224266052246 2.609292507171631 -2.250497579574585
4.78759765625 2.705035924911499 -2.2505760192871094
4.733232498168945 2.7998132705688477 -2.250732421875
5.385395526885986 1.1831743717193604 -2.4030232429504395
5.274409294128418 1.6069738864898682 -2.4029977321624756
5.169257640838623 1.9182989597320557 -2.4029736518859863
5.130107402801514 2.020610809326172 -2.4029645919799805
5.088940143585205 2.122123956680298 -2.4029550552368164
5.000566482543945 2.3225958347320557 -2.4029347896575928
4.495683670043945 2.540116548538208 -2.250417470932007
4.444325923919678 2.6289196014404297 -2.250405788421631
5.070317268371582 1.11395263671875 -2.402949810028076
5.022040843963623 1.3144946098327637 -2.4029386043548584
4.994921684265137 1.4140057563781738 -2.402932643890381
4.934775352478027 1.6113115549087524 -2.402918577194214
4.866835594177246 1.806069254875183 -2.4029030799865723
4.617387771606445 2.372004270553589 -2.402845621109009
4.377504825592041 2.47332763671875 -2.327341318130493
4.20571756362915 2.4877593517303467 -2.2618343830108643
4.784502029418945 1.0511572360992432 -2.4028830528259277
4.738945007324219 1.240395426750183 -2.4028728008270264
4.685903072357178 1.4276702404022217 -2.402860641479492
4.656596660614014 1.5204815864562988 -2.4028539657592773
4.625458717346191 1.6126891374588013 -2.4028468132019043
4.592494964599609 1.7042614221572876 -2.402839183807373
4.557714939117432 1.7951592206954956 -2.4028313159942627
4.521132946014404 1.8853460550308228 -2.402822732925415
4.482768535614014 1.9747905731201172 -2.4028139114379883
4.357114315032959 2.238299608230591 -2.402785062789917
4.311762809753418 2.324410915374756 -2.4027743339538574
4.264716625213623 2.4096057415008545 -2.402763605117798
4.523793697357178 0.9938799738883972 -2.402822256088257
4.503139495849609 1.0835565328598022 -2.402817726135254
4.402865886688232 1.4376312494277954 -2.40279483795166
4.373422622680664 1.5248156785964966 -2.402787923812866
4.309370040893555 1.6973425149917603 -2.402773141860962
4.274785041809082 1.7826159000396729 -2.4027652740478516
4.238510608673096 1.8671869039535522 -2.402756929397583
4.265239238739014 1.0263110399246216 -2.4027621746063232
4.170258522033691 1.3616796731948853 -2.402740478515625
4.08169412612915 1.6076695919036865 -2.4027202129364014
4.048945426940918 1.6884398460388184 -2.40271258354187
4.014585018157959 1.7685424089431763 -2.4027047157287598
3.9411277770996094 1.9266191720962524 -2.4026877880096436
3.9020605087280273 2.0045323371887207 -2.4026787281036377
3.861445188522339 2.081651449203491 -2.4026694297790527
3.8193163871765137 2.157949686050415 -2.4026596546173096
3.7756688594818115 2.2333946228027344 -2.4026496410369873
4.046137809753418 0.973590075969696 -2.4027113914489746
4.025981426239014 1.0537817478179932 -2.4027066230773926
3.9809226989746094 1.2128826379776 -2.402696371078491
3.9015769958496094 1.447864294052124 -2.4026782512664795
3.7742674350738525 1.75301992893219 -2.40264892578125
3.701616048812866 1.9015624523162842 -2.402631998062134
3.623120069503784 2.047100782394409 -2.402613878250122
