ply
format ascii 1.0
element vertex 232
property float x
property float y
property float z
end_header
20.614532470703125 5.380876541137695 3.7566869258880615
20.614543914794922 5.830773830413818 3.777503490447998
20.614543914794922 6.285869121551514 3.8001298904418945
19.324689865112305 6.324501991271973 3.585310697555542
18.481735229492188 6.467247009277344 3.452587127685547
18.481740951538086 6.891889572143555 3.478039503097534
18.48175048828125 7.323003768920898 3.505324125289917
11.868095397949219 4.983817100524902 2.2696950435638428
18.481775283813477 8.660563468933105 3.598891019821167
16.03179931640625 8.323025703430176 3.1850883960723877
19.324527740478516 6.324451923370361 3.114921808242798
15.968996047973633 8.290422439575195 2.75639271736145
15.30724811553955 8.34603500366211 2.6708946228027344
24.033668518066406 6.273348331451416 3.2345428466796875
20.801218032836914 6.34278678894043 2.8318803310394287
19.324371337890625 6.32440185546875 2.647775173187256
15.93182373046875 8.686575889587402 2.3629961013793945
24.341360092163086 6.353662967681885 2.701392650604248
19.32421112060547 6.324347972869873 2.183368444442749
18.48127555847168 6.467093467712402 2.1025454998016357
18.48127555847168 6.891715049743652 2.1180419921875
11.86782455444336 4.983705997467041 1.3821946382522583
18.48129653930664 8.66033935546875 2.1916377544403076
15.838058471679688 8.222443580627441 1.9162516593933105
24.341354370117188 6.353662014007568 2.1296045780181885
22.27769660949707 6.301192283630371 1.9598548412322998
20.800880432128906 6.342685222625732 1.8408924341201782
18.481130599975586 6.891660213470459 1.6697144508361816
18.481130599975586 7.32276725769043 1.6828123331069946
18.48113441467285 8.206502914428711 1.7117854356765747
18.48114013671875 9.122754096984863 1.7447049617767334
18.481143951416016 9.59461784362793 1.7627500295639038
15.621193885803223 8.5172119140625 1.5061640739440918
20.573429107666016 6.27332878112793 1.3337552547454834
19.16830825805664 6.273322582244873 1.2506705522537231
18.480974197387695 6.466990947723389 1.2141480445861816
18.480968475341797 6.8916015625 1.2230982780456543
18.480974197387695 7.322695255279541 1.2326948642730713
11.867643356323242 4.983630180358887 0.7981727719306946
18.48097801208496 8.660200119018555 1.2655967473983765
18.48097801208496 9.122675895690918 1.2780295610427856
18.48098373413086 10.07646369934082 1.3052875995635986
24.033658981323242 6.273345947265625 0.9794217944145203
22.179216384887695 6.273337364196777 0.9088606238365173
18.480066299438477 6.466673374176025 0.7720139622688293
18.480060577392578 6.89126443862915 0.7777034044265747
18.480060577392578 7.322333812713623 0.7838056683540344
11.867558479309082 4.983591079711914 0.5075373649597168
18.480060577392578 8.206029891967773 0.7972990274429321
18.480060577392578 8.65976619720459 0.8047257661819458
18.480066299438477 9.122222900390625 0.8126310706138611
18.480060577392578 10.075966835021973 0.8299607634544373
24.033658981323242 6.273345947265625 0.4195774793624878
20.57342529296875 6.273327350616455 0.36332014203071594
18.479909896850586 6.891205787658691 0.3331587016582489
18.479909896850586 7.322274208068848 0.3357691764831543
18.479904174804688 8.205962181091309 0.3415510356426239
18.479904174804688 8.65969467163086 0.34473493695259094
18.479904174804688 9.122146606445312 0.3481190502643585
18.479904174804688 9.593978881835938 0.35172224044799805
18.47976303100586 6.466567039489746 -0.11022979766130447
18.47975730895996 6.891149520874023 -0.11104339361190796
18.479747772216797 9.12206745147705 -0.11602706462144852
18.479738235473633 10.075788497924805 -0.11850616335868835
26.59396743774414 6.941648006439209 -0.7739179730415344
24.541969299316406 6.941639423370361 -0.7181593179702759
18.47960090637207 7.322152137756348 -0.5597051978111267
11.867289543151855 4.983479976654053 -0.36242368817329407
18.479581832885742 9.593811988830566 -0.5862893462181091
18.479578018188477 10.075698852539062 -0.5926632285118103
24.541975021362305 6.94163703918457 -1.2934566736221313
20.57341957092285 6.273324966430664 -1.0907909870147705
20.47406005859375 6.70066499710083 -1.0925207138061523
18.47946548461914 6.46645975112915 -0.9928948879241943
11.867201805114746 4.983443260192871 -0.6527451872825623
18.479421615600586 9.593729972839355 -1.055938959121704
18.479415893554688 10.075610160827637 -1.0674186944961548
24.541969299316406 6.94163703918457 -1.8700662851333618
20.57341957092285 6.273326396942139 -1.5770632028579712
20.473894119262695 6.700611591339111 -1.5795403718948364
18.479312896728516 6.466408729553223 -1.435502290725708
11.867114067077637 4.983405590057373 -0.9437287449836731
18.47926902770996 9.121831893920898 -1.5110244750976562
22.763620376586914 5.941867351531982 -2.2586591243743896
22.622404098510742 6.398695945739746 -2.2570691108703613
20.573410034179688 6.273324966430664 -2.064938545227051
18.47915267944336 6.890923976898193 -1.8934247493743896
18.479143142700195 7.321972370147705 -1.908278465270996
11.867023468017578 4.983368873596191 -1.235668659210205
18.479127883911133 8.205615043640137 -1.9411306381225586
18.47911834716797 8.659324645996094 -1.9592121839523315
18.47911262512207 9.121752738952637 -1.9784578084945679
18.479103088378906 9.593562126159668 -1.9989168643951416
18.479089736938477 10.075435638427734 -2.02065110206604
18.40442657470703 4.803986549377441 -2.2594363689422607
18.204206466674805 5.550895690917969 -2.2606985569000244
17.921955108642578 6.271378040313721 -2.2554540634155273
17.651613235473633 6.994082927703857 -2.2553622722625732
17.352096557617188 7.705161094665527 -2.2552602291107178
17.191526412963867 8.055961608886719 -2.2552053928375244
15.413175582885742 4.023197650909424 -2.257051706314087
15.331832885742188 4.33657169342041 -2.257581949234009
15.049532890319824 5.266240119934082 -2.2591419219970703
13.967487335205078 7.615559101104736 -2.2540972232818604
13.23781967163086 3.4553704261779785 -2.253854274749756
13.164729118347168 3.7235941886901855 -2.2538294792175293
13.086198806762695 3.990290403366089 -2.253803014755249
13.002243041992188 4.255316257476807 -2.2537739276885986
12.912921905517578 4.518580913543701 -2.2537434101104736
12.718278884887695 5.03934907913208 -2.2536745071411133
12.502575874328613 5.55174446105957 -2.253593921661377
12.266247749328613 6.054930210113525 -2.2535111904144287
12.009613990783691 6.548052787780762 -2.2534239292144775
11.535409927368164 3.2627720832824707 -2.2532668113708496
11.393051147460938 3.7286620140075684 -2.253215789794922
11.314802169799805 3.959360361099243 -2.253187894821167
11.052106857299805 4.641157627105713 -2.253096342086792
10.955368041992188 4.864709377288818 -2.253063201904297
10.6381196975708 5.522860050201416 -2.252955436706543
11.010988235473633 2.874124765396118 -2.4054858684539795
10.950217247009277 3.0972423553466797 -2.4054641723632812
10.86322021484375 3.3124547004699707 -2.400644540786743
10.130966186523438 4.014182090759277 -2.3034610748291016
9.378768920898438 5.113623142242432 -2.258012533187866
9.901716232299805 2.5845787525177 -2.4051027297973633
9.788378715515137 2.9847068786621094 -2.405064582824707
9.352118492126465 4.152786731719971 -2.4049158096313477
9.265692710876465 4.3419060707092285 -2.404886484146118
9.081396102905273 4.714672565460205 -2.4048242568969727
8.983591079711914 4.8981614112854 -2.4047911167144775
8.937170028686523 2.527855157852173 -2.4047739505767822
8.883891105651855 2.708909273147583 -2.4047555923461914
8.702126502990723 3.245044469833374 -2.404694080352783
8.63431167602539 3.421163320541382 -2.4046711921691895
8.56292724609375 3.595864772796631 -2.4046471118927
8.487998008728027 3.7690746784210205 -2.4046216011047363
8.409536361694336 3.9407262802124023 -2.404595136642456
8.32766342163086 4.110744476318359 -2.404567241668701
8.242316246032715 4.279058933258057 -2.404538154602051
8.153556823730469 4.44559907913208 -2.404508113861084
8.21841812133789 2.145198345184326 -2.4045286178588867
8.173083305358887 2.311737060546875 -2.404513120651245
8.12436294555664 2.477311372756958 -2.404496669769287
8.01688003540039 2.80532169342041 -2.4044604301452637
7.762355804443359 3.4468560218811035 -2.404374599456787
7.6906418800354 3.603837251663208 -2.4043502807617188
7.615742206573486 3.7593204975128174 -2.404325008392334
7.537704944610596 3.913250684738159 -2.4042985439300537
7.456562519073486 4.065559387207031 -2.404270887374878
7.563464164733887 1.9742412567138672 -2.4043054580688477
7.429001331329346 2.4313316345214844 -2.4042601585388184
7.378007411956787 2.581763744354248 -2.404242992401123
7.143791198730469 3.1721832752227783 -2.4041638374328613
6.937053203582764 3.6014232635498047 -2.4040939807891846
6.997997760772705 1.8266394138336182 -2.4041128158569336
6.873593807220459 2.249560594558716 -2.404071092605591
6.776420593261719 2.5269463062286377 -2.404038190841675
6.668056488037109 2.800144672393799 -2.404001474380493
6.609731197357178 2.9350340366363525 -2.403981924057007
6.548669338226318 3.0687084197998047 -2.403961181640625
6.41845703125 3.3321897983551025 -2.403917074203491
6.349365234375 3.4618914127349854 -2.4038939476013184
6.46850061416626 1.8295996189117432 -2.403932809829712
6.429953575134277 1.9606456756591797 -2.4039196968078613
6.388752460479736 2.090883731842041 -2.4039058685302734
6.249377250671387 2.476182699203491 -2.4038589000701904
6.197729587554932 2.6026365756988525 -2.403841257095337
6.086767673492432 2.852261781692505 -2.403804063796997
6.027502536773682 2.9753258228302 -2.4037837982177734
5.965749263763428 3.0971617698669434 -2.4037630558013916
5.901530742645264 3.2177159786224365 -2.4037413597106934
6.069306373596191 1.5842297077178955 -2.403796672821045
6.035834789276123 1.7072216272354126 -2.403785228729248
5.999867916107178 1.8295024633407593 -2.403773307800293
5.920512676239014 2.0717480182647705 -2.4037466049194336
5.877158164978027 2.1916089057922363 -2.4037318229675293
5.831377029418945 2.3105597496032715 -2.403716564178467
5.73259973526001 2.545548677444458 -2.4036831855773926
5.679650783538818 2.661486864089966 -2.40366530418396
5.624355316162109 2.7763218879699707 -2.403646469116211
5.651249885559082 1.5984411239624023 -2.4036543369293213
5.581582069396973 1.8267149925231934 -2.4036309719085693
5.543281078338623 1.9397430419921875 -2.403618097305298
5.502690315246582 2.051967144012451 -2.40360426902771
5.459831237792969 2.1633410453796387 -2.403589963912964
5.414709568023682 2.273822069168091 -2.4035747051239014
5.367353439331055 2.3833611011505127 -2.4035587310791016
5.266008377075195 2.599432945251465 -2.403524398803711
5.155959129333496 2.8112053871154785 -2.403487205505371
5.306821346282959 1.5010217428207397 -2.4035372734069824
5.275205135345459 1.6085351705551147 -2.403526544570923
5.167321681976318 1.9269084930419922 -2.4034903049468994
5.127072811126709 2.031494617462158 -2.4034767150878906
5.084709167480469 2.1352429389953613 -2.4034624099731445
5.040236473083496 2.2381067276000977 -2.403447151184082
4.945077896118164 2.4410130977630615 -2.4034152030944824
4.894418716430664 2.540973424911499 -2.403398036956787
4.841742992401123 2.639883279800415 -2.4033801555633545
4.99627685546875 1.4131841659545898 -2.4034314155578613
4.966506004333496 1.5144060850143433 -2.403421401977539
4.934689998626709 1.6150035858154297 -2.4034106731414795
4.900827407836914 1.714931607246399 -2.4033992290496826
4.864946365356445 1.8141509294509888 -2.4033873081207275
4.787168025970459 2.0102953910827637 -2.4033610820770264
4.745305061340332 2.1071417331695557 -2.4033467769622803
4.655712604522705 2.2981762886047363 -2.4033164978027344
4.740712642669678 1.2374365329742432 -2.4033443927764893
4.656459808349609 1.5239465236663818 -2.403316020965576
4.624514102935791 1.6182409524917603 -2.4033050537109375
4.590654373168945 1.7118669748306274 -2.4032936096191406
4.477761268615723 1.9883397817611694 -2.4032557010650635
4.393225193023682 2.1686065196990967 -2.4032270908355713
4.348222732543945 2.2574119567871094 -2.403211832046509
4.301428318023682 2.3452861309051514 -2.403196096420288
4.482341289520264 1.169995665550232 -2.403256416320801
4.457624435424805 1.260827660560608 -2.4032480716705322
4.431069374084473 1.3511382341384888 -2.4032390117645264
4.372475624084473 1.5300469398498535 -2.40321946144104
4.306660175323486 1.706423282623291 -2.4031970500946045
4.271074295043945 1.7935711145401 -2.4031851291656494
4.194628715515137 1.965606689453125 -2.4031593799591064
4.153798580169678 2.0504205226898193 -2.4031455516815186
4.111254692077637 2.134387254714966 -2.4031310081481934
4.19692850112915 1.2797436714172363 -2.4031593799591064
4.170041561126709 1.3647527694702148 -2.4031503200531006
4.079096794128418 1.6162548065185547 -2.4031195640563965
3.9729881286621094 1.861743688583374 -2.4030838012695312
3.9343137741088867 1.9420770406723022 -2.4030706882476807
4.027355670928955 1.0512341260910034 -2.4031014442443848
3.928652286529541 1.3747411966323853 -2.4030680656433105
3.8998899459838867 1.4542791843414307 -2.4030585289001465
3.869518995285034 1.533215880393982 -2.403048276901245
