ply
format ascii 1.0
element vertex 318
property float x
property float y
property float z
end_header
2.0722410678863525 -24.084184646606445 4.262380123138428
2.5460596084594727 -23.87314224243164 4.233353137969971
4.5799560546875 -24.08413314819336 4.322786331176758
6.12853479385376 -24.0841007232666 4.382012844085693
7.187309265136719 -24.084081649780273 4.431741714477539
7.372016429901123 -21.463197708129883 4.001554489135742
7.371913909912109 -18.911949157714844 3.5790765285491943
7.371865272521973 -17.827367782592773 3.401601552963257
7.649316310882568 -16.550434112548828 3.21490478515625
8.481518745422363 -16.54206657409668 3.2778613567352295
2.054081916809082 -23.87314796447754 3.6707420349121094
2.5460596084594727 -23.87314224243164 3.6779723167419434
3.0401952266693115 -23.873132705688477 3.686767578125
3.5369091033935547 -23.873119354248047 3.697146415710449
4.036640644073486 -23.873109817504883 3.7091381549835205
4.539819240570068 -23.873098373413086 3.7227654457092285
5.046928405761719 -23.87308692932129 3.7380571365356445
5.558437347412109 -23.873075485229492 3.7550413608551025
6.596621036529541 -23.873056411743164 3.794269323348999
7.016884803771973 -23.513025283813477 3.7590415477752686
7.371938228607178 -21.46295928955078 3.4765477180480957
7.371889591217041 -20.116289138793945 3.2821147441864014
7.371840476989746 -18.91176986694336 3.1095030307769775
7.371762752532959 -16.844701766967773 2.816807746887207
8.063393592834473 -16.55042839050293 2.8203368186950684
7.751796722412109 -40.76357650756836 5.40339469909668
7.580087661743164 -35.855430603027344 4.7723236083984375
7.017026424407959 -30.137582778930664 4.029515266418457
6.9727783203125 -25.234359741210938 3.4091808795928955
7.161347389221191 -22.32328224182129 3.05288028717041
7.64932107925415 -16.55043601989746 2.3742690086364746
8.463358879089355 -16.506650924682617 2.415581226348877
7.543188095092773 -44.611228942871094 4.858428001403809
6.936586856842041 -29.792091369628906 3.284694194793701
7.01684045791626 -27.574981689453125 3.055413246154785
7.01671838760376 -23.512451171875 2.6348395347595215
7.37169885635376 -18.911399841308594 2.1795642375946045
7.371665000915527 -17.826873779296875 2.071490526199341
7.371635437011719 -16.844411849975586 1.9744062423706055
7.649316310882568 -16.55043601989746 1.9578498601913452
8.063393592834473 -16.55042839050293 1.9769169092178345
6.936982154846191 -46.82260513305664 4.006953239440918
7.543022155761719 -44.610233306884766 3.8299882411956787
7.016992092132568 -36.89955139160156 3.1796281337738037
6.9727783203125 -25.23436164855957 2.2162091732025146
7.01663064956665 -23.512147903442383 2.0771069526672363
7.3717041015625 -21.462265014648438 1.9210227727890015
7.371665000915527 -20.115673065185547 1.8135874271392822
7.371630668640137 -18.91120719909668 1.7182115316390991
7.371596336364746 -17.826704025268555 1.6330103874206543
6.936972618103027 -46.82255935668945 2.9351696968078613
7.657929420471191 -45.289764404296875 2.8482890129089355
7.016777038574219 -33.190879821777344 2.103665351867676
7.016645431518555 -27.574214935302734 1.7643756866455078
6.936264514923096 -25.10224151611328 1.614928960800171
6.936220645904541 -23.242719650268555 1.5040961503982544
7.161347389221191 -22.323286056518555 1.4537626504898071
7.371508598327637 -16.84412384033203 1.1401526927947998
8.444619178771973 -16.470109939575195 1.1477375030517578
6.936337947845459 -32.81039047241211 1.322339653968811
6.936137676239014 -23.242435455322266 0.9564121961593628
7.371547698974609 -21.461830139160156 0.8947913646697998
7.371518611907959 -20.115264892578125 0.8447511196136475
7.37148904800415 -18.910858154296875 0.8003233075141907
7.371469497680664 -17.826396942138672 0.76064133644104
7.371445178985596 -16.843975067138672 0.7249964475631714
7.612202167510986 -16.470125198364258 0.7154444456100464
8.024267196655273 -16.470117568969727 0.7224107384681702
8.44461441040039 -16.470111846923828 0.7298213243484497
6.936288833618164 -36.47515869140625 0.62717604637146
6.936225414276123 -32.8098258972168 0.5664716958999634
6.936127662658691 -27.2578067779541 0.47510817646980286
6.936088562011719 -25.101581573486328 0.43990156054496765
6.936054706573486 -23.24214744567871 0.4097120463848114
7.371469497680664 -21.461591720581055 0.3833155632019043
8.024262428283691 -16.47011947631836 0.3094746470451355
7.299506664276123 -38.385169982910156 -0.21998870372772217
7.564960956573486 -29.72898292541504 -0.1727113276720047
6.935971736907959 -23.241878509521484 -0.13656005263328552
7.371371746063232 -20.1148681640625 -0.12061477452516556
7.371337890625 -17.826066970825195 -0.10860198736190796
7.612196922302246 -16.470125198364258 -0.10215484350919724
8.78726577758789 -17.138397216796875 -0.10843627899885178
7.657700061798096 -45.288387298583984 -1.293328881263733
7.299511432647705 -38.385169982910156 -1.1002148389816284
7.564882755279541 -32.490604400634766 -0.9393369555473328
7.564853191375732 -29.72856330871582 -0.863770604133606
7.564824104309082 -27.376953125 -0.799763023853302
6.935893535614014 -23.24159049987793 -0.6829551458358765
7.161347389221191 -22.323287963867188 -0.6601301431655884
7.371313095092773 -21.461137771606445 -0.6389501690864563
7.371298789978027 -20.11467170715332 -0.6032189726829529
7.371284008026123 -18.910329818725586 -0.5714982748031616
7.371269226074219 -17.825902938842773 -0.5431591868400574
7.612202167510986 -16.470125198364258 -0.5109008550643921
2.6812744140625 -31.16230583190918 -1.5862088203430176
5.611147403717041 -44.06171798706055 -2.2526051998138428
6.509750843048096 -43.939247131347656 -2.252669334411621
7.255722522735596 -34.321109771728516 -1.7790387868881226
6.935810565948486 -23.2413272857666 -1.2300307750701904
7.161347389221191 -22.323287963867188 -1.1889359951019287
7.371235370635986 -21.460918426513672 -1.1507829427719116
7.3712158203125 -18.910152435302734 -1.0292980670928955
7.371205806732178 -17.825748443603516 -0.9782626032829285
7.371196269989014 -16.843395233154297 -0.9324185252189636
8.349858283996582 -17.138404846191406 -0.9668275117874146
2.635683536529541 -30.63284683227539 -2.2543654441833496
3.8842968940734863 -30.501495361328125 -2.254500150680542
5.126620769500732 -30.31942367553711 -2.2546422481536865
6.973759651184082 -29.95174789428711 -2.2548680305480957
7.564643383026123 -29.72776222229004 -2.2491672039031982
7.564633846282959 -27.376285552978516 -2.0825109481811523
6.935722351074219 -23.241039276123047 -1.7783467769622803
7.371132850646973 -16.843273162841797 -1.348070502281189
2.4909863471984863 -23.356693267822266 -2.255074977874756
2.9674413204193115 -23.30172348022461 -2.2551474571228027
3.916498899459839 -23.162622451782227 -2.25529146194458
4.388730525970459 -23.07857894897461 -2.2553634643554688
4.859169960021973 -22.984907150268555 -2.255434989929199
6.2576904296875 -22.64645004272461 -2.255647897720337
6.718955039978027 -22.51469612121582 -2.2557179927825928
7.177465438842773 -22.37352180480957 -2.2557878494262695
7.371078968048096 -21.460477828979492 -2.178455114364624
7.371078968048096 -20.114070892333984 -2.0566344261169434
7.371068954467773 -16.843120574951172 -1.7650909423828125
7.612196922302246 -16.47012710571289 -1.7419289350509644
8.787261009216309 -17.138399124145508 -1.8490374088287354
1.6273388862609863 -18.9134464263916 -2.2549521923065186
2.0132031440734863 -18.876750946044922 -2.2550108432769775
3.9270262718200684 -18.575700759887695 -2.2553017139434814
4.305575847625732 -18.49211311340332 -2.255359411239624
5.429941177368164 -18.195253372192383 -2.255530595779419
5.800429344177246 -18.081058502197266 -2.255587100982666
6.534071922302246 -17.830060958862305 -2.2556989192962646
6.896918773651123 -17.69338035583496 -2.255754232406616
7.256894588470459 -17.54930877685547 -2.2558090686798096
7.371005535125732 -16.842979431152344 -2.1839096546173096
8.665239334106445 -16.900392532348633 -2.25602388381958
3.2895750999450684 -15.56044864654541 -2.253478765487671
4.547319412231445 -15.237692832946777 -2.253105640411377
5.470576286315918 -14.928071022033691 -2.2527029514312744
5.773852348327637 -14.812240600585938 -2.2525455951690674
6.372734069824219 -14.56191349029541 -2.2521963119506836
6.960712909698486 -14.287101745605469 -2.2518017292022705
7.250219345092773 -14.140661239624023 -2.2515878677368164
1.1706494092941284 -13.605653762817383 -2.249666929244995
1.7251025438308716 -13.546422958374023 -2.249650239944458
2.001352548599243 -13.50857925415039 -2.249682664871216
2.551342725753784 -13.41610336303711 -2.2497661113739014
3.113154172897339 -13.370789527893066 -2.2616095542907715
4.584892272949219 -13.349740982055664 -2.325333595275879
5.833920955657959 -13.330985069274902 -2.3972325325012207
6.119067192077637 -13.23926830291748 -2.402707815170288
1.6143896579742432 -12.677010536193848 -2.402024745941162
1.8728808164596558 -12.641620635986328 -2.402064085006714
2.898183584213257 -12.447477340698242 -2.4022200107574463
4.397988319396973 -12.001166343688965 -2.4024479389190674
4.642172813415527 -11.909059524536133 -2.4024851322174072
5.124643325805664 -11.70997428894043 -2.4025585651397705
5.598603248596191 -11.491345405578613 -2.4026308059692383
5.832133769989014 -11.374812126159668 -2.4026663303375244
1.2050487995147705 -11.299169540405273 -2.4019641876220703
1.435512661933899 -11.272384643554688 -2.4019992351531982
1.6653857231140137 -11.240898132324219 -2.402034044265747
1.894570231437683 -11.20470905303955 -2.402068853378296
2.1229686737060547 -11.16385269165039 -2.4021036624908447
2.3504881858825684 -11.118334770202637 -2.4021382331848145
2.577036142349243 -11.068193435668945 -2.402172565460205
2.8025195598602295 -11.01342487335205 -2.4022068977355957
3.249819278717041 -10.890151023864746 -2.4022748470306396
3.4716453552246094 -10.821664810180664 -2.402308702468872
3.6919431686401367 -10.748679161071777 -2.4023420810699463
4.343124866485596 -10.50295639038086 -2.4024412631988525
4.556699275970459 -10.41224479675293 -2.4024736881256104
4.768422603607178 -10.317173957824707 -2.402506113052368
4.978115081787109 -10.217801094055176 -2.4025378227233887
0.8761035203933716 -10.18228816986084 -2.4019153118133545
1.083803653717041 -10.162416458129883 -2.401947021484375
1.4978368282318115 -10.109960556030273 -2.4020097255706787
1.7039746046066284 -10.077404975891113 -2.40204119682312
2.114003896713257 -9.999698638916016 -2.4021034240722656
2.317758798599243 -9.954582214355469 -2.402134418487549
2.5205469131469727 -9.905312538146973 -2.402165412902832
3.1222949028015137 -9.732810020446777 -2.402256727218628
3.320390462875366 -9.667158126831055 -2.402287006378174
4.098193168640137 -9.364510536193848 -2.402405261993408
4.288578987121582 -9.278993606567383 -2.4024343490600586
4.663935661315918 -9.096392631530762 -2.402491331100464
0.795239269733429 -9.242555618286133 -2.401904344558716
0.9837841391563416 -9.224499702453613 -2.401932716369629
1.359584927558899 -9.176862716674805 -2.4019899368286133
2.287895441055298 -8.991048812866211 -2.4021310806274414
2.6531102657318115 -8.890358924865723 -2.402186632156372
2.834096670150757 -8.83443546295166 -2.4022140502929688
3.013911008834839 -8.774829864501953 -2.4022412300109863
3.1924705505371094 -8.711568832397461 -2.402268409729004
3.369706869125366 -8.644668579101562 -2.4022955894470215
4.233403205871582 -8.25669002532959 -2.4024269580841064
0.7273290753364563 -8.453240394592285 -2.4018948078155518
0.8997704982757568 -8.436720848083496 -2.401920795440674
1.7549951076507568 -8.30154037475586 -2.4020509719848633
2.2599706649780273 -8.178797721862793 -2.402127742767334
2.426508665084839 -8.131037712097168 -2.4021530151367188
2.919794797897339 -7.967495441436768 -2.4022278785705566
3.5602099895477295 -7.703050136566162 -2.402325391769409
3.8718016147613525 -7.551433086395264 -2.4023728370666504
0.6694189310073853 -7.780275821685791 -2.4018867015838623
1.1444774866104126 -7.724936485290527 -2.401958703994751
1.3019726276397705 -7.700037002563477 -2.4019827842712402
1.4589306116104126 -7.671922206878662 -2.4020066261291504
1.6152782440185547 -7.6406121253967285 -2.4020302295684814
1.9258984327316284 -7.568451881408691 -2.4020776748657227
2.2333154678344727 -7.483658313751221 -2.4021241664886475
2.3856639862060547 -7.436574459075928 -2.4021475315093994
2.8365087509155273 -7.276794910430908 -2.4022159576416016
3.1312694549560547 -7.155062675476074 -2.4022607803344727
3.2767333984375 -7.089707374572754 -2.402282953262329
3.420830011367798 -7.021393299102783 -2.4023048877716064
3.5635058879852295 -6.95015287399292 -2.402326822280884
0.9128320217132568 -7.16799259185791 -2.4019241333007812
1.0589892864227295 -7.14793062210083 -2.4019463062286377
1.6386669874191284 -7.037968635559082 -2.4020345211029053
1.7820360660552979 -7.003103256225586 -2.4020564556121826
2.0664892196655273 -6.924637317657471 -2.402099609375
2.3474998474121094 -6.834625720977783 -2.402142286300659
2.486577033996582 -6.7853312492370605 -2.402163505554199
3.0319480895996094 -6.5600810050964355 -2.4022464752197266
3.165283203125 -6.49686861038208 -2.40226674079895
3.2972898483276367 -6.430942058563232 -2.402287006378174
0.8484911918640137 -6.662819862365723 -2.4019150733947754
1.3892871141433716 -6.571612358093262 -2.4019970893859863
1.6564306020736694 -6.509525775909424 -2.4020378589630127
2.566909074783325 -6.207565784454346 -2.4021763801574707
2.818242073059082 -6.097692966461182 -2.402214527130127
2.9421777725219727 -6.038929462432861 -2.402233362197876
0.537280261516571 -6.244555950164795 -2.4018683433532715
0.6646679639816284 -6.232333660125732 -2.4018876552581787
0.9185546636581421 -6.20010232925415 -2.401926040649414
1.1709471940994263 -6.157530307769775 -2.4019644260406494
1.2964208126068115 -6.132390022277832 -2.4019834995269775
1.4213671684265137 -6.1046905517578125 -2.4020025730133057
1.5457226037979126 -6.074448108673096 -2.4020214080810547
1.6694384813308716 -6.041666030883789 -2.4020402431488037
2.276562452316284 -5.840295791625977 -2.402132749557495
2.395327091217041 -5.792644500732422 -2.4021506309509277
0.5030712485313416 -5.846978187561035 -2.4018635749816895
0.6223583817481995 -5.835531711578369 -2.401881456375122
0.7413720488548279 -5.821651458740234 -2.401899576187134
0.8600878715515137 -5.805346488952637 -2.4019176959991455
0.9784374833106995 -5.786616802215576 -2.401935577392578
1.0963866710662842 -5.765480041503906 -2.4019534587860107
1.4473094940185547 -5.687675476074219 -2.4020068645477295
1.56313955783844 -5.656981468200684 -2.402024507522583
1.678320288658142 -5.623929500579834 -2.4020419120788574
1.7927831411361694 -5.588531970977783 -2.402059316635132
1.9065135717391968 -5.550804138183594 -2.4020767211914062
2.0194969177246094 -5.510762691497803 -2.4020938873291016
2.242812395095825 -5.423795700073242 -2.402127981185913
2.46240234375 -5.327787399291992 -2.4021613597869873
0.9188427329063416 -5.434186935424805 -2.4019269943237305
1.5760985612869263 -5.281388282775879 -2.402026891708374
1.6836084127426147 -5.248145580291748 -2.402043342590332
1.7904199361801147 -5.212716102600098 -2.402059316635132
2.001762628555298 -5.135343551635742 -2.4020915031433105
2.209770441055298 -5.049409866333008 -2.40212345123291
2.3124170303344727 -5.003271579742432 -2.4021389484405518
2.414111375808716 -4.955048084259033 -2.4021544456481934
2.5147900581359863 -4.904758453369141 -2.402169704437256
0.44480955600738525 -5.169780731201172 -2.401855230331421
0.5502783060073853 -5.159656047821045 -2.4018712043762207
0.6555078029632568 -5.1473798751831055 -2.4018874168395996
0.7604687213897705 -5.132958889007568 -2.4019033908843994
0.86512690782547 -5.116394996643066 -2.40191912651062
1.0732860565185547 -5.076876640319824 -2.4019508361816406
1.2796679735183716 -5.028894424438477 -2.401982307434082
1.382080078125 -5.001750469207764 -2.4019978046417236
1.6857128143310547 -4.907858848571777 -2.4020438194274902
1.7855761051177979 -4.872453212738037 -2.4020590782165527
1.8846923112869263 -4.835012912750244 -2.4020743370056152
1.9830273389816284 -4.795554161071777 -2.4020891189575195
2.177182674407959 -4.71065616607666 -2.402118682861328
0.4197705090045929 -4.878487586975098 -2.4018518924713135
0.5192675590515137 -4.868926048278809 -2.401866912841797
0.7176220417022705 -4.843730926513672 -2.4018969535827637
0.8163720369338989 -4.828099727630615 -2.401911973953247
1.2075682878494263 -4.745521068572998 -2.4019715785980225
1.4003026485443115 -4.692323207855225 -2.402000904083252
1.5907177925109863 -4.631300449371338 -2.4020297527313232
1.6849560737609863 -4.597884654998779 -2.4020440578460693
1.7784911394119263 -4.562551975250244 -2.4020583629608154
2.054492235183716 -4.445201396942139 -2.4021003246307373
2.144834041595459 -4.402353286743164 -2.402114152908325
0.6785302758216858 -4.579899311065674 -2.4018914699554443
0.8649511337280273 -4.548433780670166 -2.4019198417663574
1.0499316453933716 -4.509383678436279 -2.4019479751586914
1.141787052154541 -4.487034320831299 -2.4019618034362793
1.2331689596176147 -4.462810516357422 -2.401975631713867
1.3240331411361694 -4.4367289543151855 -2.401989459991455
1.681606411933899 -4.31402063369751 -2.4020438194274902
1.85635244846344 -4.241819381713867 -2.4020705223083496
1.9425780773162842 -4.203058242797852 -2.4020836353302
2.0279979705810547 -4.162544250488281 -2.402096748352051
0.5539941191673279 -4.350219249725342 -2.4018728733062744
0.7311328053474426 -4.324023246765137 -2.401899576187134
1.1680370569229126 -4.227112770080566 -2.401966094970703
1.3396483659744263 -4.1759490966796875 -2.401992082595825
1.6758935451507568 -4.052825450897217 -2.402043342590332
1.7583056688308716 -4.017786979675293 -2.4020559787750244
1.8399755954742432 -3.981069803237915 -2.4020683765411377
0.3566259741783142 -4.144802093505859 -2.4018430709838867
0.6096875071525574 -4.115262031555176 -2.401881456375122
0.9434130787849426 -4.051889896392822 -2.4019322395324707
1.2708544731140137 -3.961498260498047 -2.401981830596924
1.5110009908676147 -3.876332998275757 -2.4020185470581055
1.5898388624191284 -3.8446929454803467 -2.4020304679870605
1.7454833984375 -3.7766213417053223 -2.4020543098449707
1.8222362995147705 -3.7402164936065674 -2.4020657539367676
1.8982274532318115 -3.7022483348846436 -2.4020774364471436
